# .PCD v0.7 - Point Cloud Data file format
VERSION 0.7
FIELDS x y z
SIZE 4 4 4
TYPE F F F
COUNT 1 1 1
WIDTH 1327
HEIGHT 1
VIEWPOINT 0 0 0 1 0 0 0
POINTS 1327
DATA ascii
0.52541584 0.0089228982 0.023608992
0.52499896 0.0083876299 0.02360047
0.52458203 0.007852355 0.023591951
0.52351969 0.0079819551 0.023982009
0.52310348 0.0074475324 0.0239735
0.52268726 0.0069131157 0.023964994
0.52162755 0.0070461156 0.02435511
0.52121198 0.0065125506 0.024346616
0.5201543 0.0066481 0.024736773
0.51909786 0.0067853923 0.025126979
0.51804286 0.0069243554 0.025517186
0.51698917 0.0070650154 0.025907423
0.51657623 0.0065348512 0.025898986
0.51552451 0.0066780606 0.026289262
0.51511222 0.0061487481 0.026280837
0.51406252 0.0062945127 0.026671156
0.51365089 0.0057660523 0.026662743
0.51323932 0.0052375915 0.026654331
0.51282769 0.004709125 0.026645919
0.51241612 0.0041806647 0.026637508
0.51200449 0.0036521985 0.026629094
0.51095939 0.0038039589 0.027019531
0.51054841 0.0032763442 0.027011132
0.5101375 0.0027487355 0.027002733
0.50972658 0.0022211208 0.026994335
0.50931561 0.0016935121 0.026985936
0.5089047 0.0011658975 0.026977537
0.50849378 0.00063828286 0.026969139
0.50808281 0.0001106741 0.02696074
0.50767189 -0.00041694051 0.026952341
0.50726092 -0.00094454928 0.026943943
0.50685 -0.0014721639 0.026935544
0.50643909 -0.0019997726 0.026927145
0.50602812 -0.0025273873 0.026918747
0.5056172 -0.0030550018 0.026910348
0.50520629 -0.0035826105 0.026901949
0.50479531 -0.0041102255 0.026893551
0.5043844 -0.0046378342 0.026885152
0.50397342 -0.0051654484 0.026876753
0.50356251 -0.0056930576 0.026868355
0.5031516 -0.0062206718 0.026859956
0.50274062 -0.006748281 0.026851557
0.50232971 -0.0072758952 0.026843159
0.50191873 -0.0078035099 0.02683476
0.50150782 -0.0083311191 0.026826361
0.5010969 -0.0088587329 0.026817963
0.50068593 -0.009386342 0.026809564
0.50027502 -0.0099139567 0.026801165
0.49986407 -0.010441566 0.026792767
0.49945313 -0.01096918 0.026784368
0.49904221 -0.011496789 0.026775969
0.49863127 -0.012024404 0.026767571
0.49822032 -0.012552018 0.026759172
0.49780938 -0.013079626 0.026750773
0.49739847 -0.013607241 0.026742375
0.49698752 -0.01413485 0.026733976
0.49657658 -0.014662465 0.026725577
0.49616563 -0.015190073 0.026717179
0.49575472 -0.015717689 0.02670878
0.49534377 -0.016245304 0.026700381
0.49493283 -0.016772911 0.026691983
0.49512893 -0.018014781 0.026284195
0.49471733 -0.018543247 0.026275782
0.49491137 -0.019787639 0.025867976
0.49449912 -0.020316951 0.02585955
0.49469116 -0.021563897 0.025451703
0.49488193 -0.022812542 0.025043828
0.49446833 -0.023343557 0.025035374
0.49465707 -0.024594758 0.024627462
0.49424282 -0.02512663 0.024618996
0.49382859 -0.025658492 0.024610531
0.49401471 -0.026913133 0.024202537
0.4935998 -0.027445851 0.024194056
0.49318489 -0.027978571 0.024185577
0.49276999 -0.028511278 0.024177097
0.49235508 -0.029043997 0.024168618
0.49134308 -0.028849697 0.024559733
0.49152523 -0.030109435 0.024151657
0.55097008 -0.0041389307 0.010708552
0.54922253 -0.0033968848 0.011498374
0.52967739 0.010324432 0.021831043
0.52925855 0.0097866077 0.021822482
0.5294894 0.0085901283 0.021414431
0.52842075 0.0087109599 0.021805361
0.52735341 0.0088334959 0.022196315
0.52693522 0.0082965242 0.022187768
0.52586985 0.0084216082 0.022578765
0.52545232 0.0078854878 0.02257023
0.52438891 0.0080131553 0.022961289
0.52397203 0.0074778874 0.022952769
0.52291065 0.007608077 0.023343844
0.52249444 0.0070736604 0.023335336
0.52207816 0.0065392377 0.023326829
0.52101946 0.0066728396 0.023717962
0.51996207 0.0068081338 0.02410912
0.518906 0.0069451705 0.024500329
0.51785129 0.0070838775 0.02489154
0.5174377 0.0065528615 0.024883088
0.51638496 0.0066941176 0.02527434
0.51533353 0.0068370714 0.025665622
0.51492125 0.0063077589 0.025657196
0.51387185 0.0064532678 0.026048515
0.51346022 0.0059248074 0.026040103
0.51304865 0.005396347 0.026031692
0.51263702 0.0048678806 0.02602328
0.51222545 0.0043394202 0.026014866
0.51181382 0.0038109538 0.026006455
0.51140225 0.0032824932 0.025998043
0.51099062 0.002754027 0.025989631
0.51057905 0.0022255664 0.025981218
0.51016742 0.0016971059 0.025972806
0.50975585 0.0011686396 0.025964394
0.50871432 0.001324397 0.0263559
0.5083034 0.00079678243 0.026347501
0.50789243 0.00026917367 0.026339103
0.50748152 -0.00025844094 0.026330704
0.5070706 -0.0007860497 0.026322305
0.50665963 -0.0013136644 0.026313907
0.50624871 -0.001841273 0.026305508
0.50583774 -0.0023688877 0.026297109
0.50542682 -0.0028965024 0.026288711
0.50501591 -0.0034241111 0.026280312
0.50460494 -0.0039517255 0.026271913
0.50419402 -0.0044793342 0.026263515
0.50378311 -0.005006949 0.026255116
0.50337213 -0.0055345576 0.026246717
0.50296122 -0.0060621724 0.026238319
0.5025503 -0.006589781 0.02622992
0.50213933 -0.0071173958 0.026221521
0.50172842 -0.0076450105 0.026213123
0.50131744 -0.0081726192 0.026204724
0.50090653 -0.0087002339 0.026196325
0.50049561 -0.0092278421 0.026187928
0.50008464 -0.0097554568 0.026179528
0.49967372 -0.010283066 0.026171131
0.49926278 -0.010810681 0.026162732
0.49885184 -0.011338289 0.026154334
0.49844089 -0.011865904 0.026145935
0.49802998 -0.012393518 0.026137536
0.49761903 -0.012921127 0.026129138
0.49720809 -0.013448742 0.026120739
0.49679714 -0.01397635 0.02611234
0.49638623 -0.014503965 0.026103942
0.49597529 -0.015031574 0.026095543
0.49556434 -0.015559189 0.026087144
0.49576145 -0.016799105 0.025678379
0.49534985 -0.017327566 0.025669968
0.49493825 -0.017856026 0.025661554
0.49513265 -0.019099316 0.025252759
0.4947204 -0.019628629 0.025244335
0.4949128 -0.020874467 0.024835497
0.49449989 -0.021404631 0.024827057
0.49469033 -0.022653019 0.024418181
0.49487942 -0.023903118 0.024009278
0.49446517 -0.02443498 0.024000812
0.49405092 -0.024966853 0.023992345
0.49423742 -0.026220379 0.023583364
0.49382252 -0.0267531 0.023574883
0.49340761 -0.027285818 0.023566404
0.4929927 -0.027818536 0.023557924
0.49257779 -0.028351245 0.023549445
0.49216285 -0.028883964 0.023540964
0.49115118 -0.028689919 0.023933081
0.49073693 -0.029221781 0.023924613
0.49032268 -0.029753653 0.023916148
0.55448532 -0.0066580386 0.0080539444
0.54967523 -0.0038802624 0.010438252
0.53423381 0.0076316306 0.01881185
0.53250808 0.0084003983 0.019604107
0.52948338 0.010485999 0.021197375
0.52906448 0.0099481754 0.021188812
0.52929503 0.0087519521 0.020779761
0.52822667 0.0088725276 0.021171691
0.52780783 0.0083347037 0.02116313
0.52674145 0.0084578358 0.021555101
0.5263232 0.007920864 0.021546554
0.52525884 0.0080465442 0.021938568
0.52419579 0.0081739565 0.022330629
0.52377886 0.0076386877 0.022322107
0.52336198 0.0071034133 0.022313587
0.52230161 0.007234205 0.022705678
0.52188534 0.0066997823 0.022697171
0.52082694 0.0068331291 0.023089306
0.51976991 0.0069681671 0.023481466
0.51871407 0.0071049482 0.023873679
0.51765966 0.0072433995 0.024265893
0.51724607 0.0067123841 0.02425744
0.51619363 0.0068533844 0.024649695
0.51578075 0.0063232146 0.024641257
0.51473027 0.0064667701 0.025033552
0.51431805 0.005937458 0.025025127
0.51390576 0.0054081399 0.025016701
0.51349348 0.0048788274 0.025008276
0.51308125 0.0043495153 0.024999849
0.51266897 0.003820203 0.024991423
0.51225668 0.0032908851 0.024982998
0.51184446 0.0027615728 0.024974572
0.51079994 0.0029127819 0.025366992
0.51038837 0.0023843213 0.02535858
0.50997674 0.0018558609 0.025350168
0.50956517 0.0013273945 0.025341757
0.50915354 0.00079893408 0.025333343
0.50811303 0.00095528201 0.025725866
0.50770211 0.00042767325 0.025717467
0.50729114 -9.9941375e-05 0.025709068
0.50688022 -0.00062755012 0.02570067
0.50646925 -0.0011551648 0.025692271
0.50605834 -0.0016827735 0.025683872
0.50564742 -0.0022103882 0.025675474
0.50523645 -0.0027380027 0.025667075
0.50482553 -0.0032656116 0.025658676
0.50441462 -0.0037932261 0.025650278
0.50400364 -0.0043208348 0.025641879
0.50359273 -0.0048484495 0.02563348
0.50318176 -0.0053760582 0.025625082
0.50277084 -0.0059036729 0.025616683
0.50235993 -0.0064312816 0.025608284
0.50194895 -0.0069588963 0.025599886
0.50153804 -0.007486511 0.025591487
0.50112712 -0.0080141192 0.025583088
0.50071615 -0.008541734 0.02557469
0.50030524 -0.0090693431 0.025566291
0.49989429 -0.0095969578 0.025557892
0.49948335 -0.010124566 0.025549494
0.4990724 -0.010652181 0.025541095
0.49866149 -0.01117979 0.025532696
0.49825054 -0.011707405 0.025524298
0.4978396 -0.012235019 0.025515899
0.49742866 -0.012762628 0.0255075
0.49701771 -0.013290242 0.025499102
0.4966068 -0.013817851 0.025490703
0.49619585 -0.014345465 0.025482304
0.49578491 -0.014873074 0.025473906
0.49598238 -0.016111884 0.025064154
0.49557078 -0.01664035 0.025055742
0.49576619 -0.017881675 0.024645967
0.49535394 -0.018410986 0.024637543
0.49494168 -0.018940305 0.024629116
0.49513447 -0.020185031 0.024219291
0.49472153 -0.020715201 0.024210852
0.49491233 -0.021962482 0.023800986
0.49449873 -0.022493498 0.023792533
0.49468753 -0.023743341 0.023382628
0.49427328 -0.024275202 0.023374163
0.49446014 -0.025527626 0.022964191
0.49404523 -0.026060347 0.022955712
0.49363032 -0.026593065 0.022947231
0.49321538 -0.027125785 0.022938751
0.49280047 -0.027658504 0.022930272
0.49238557 -0.028191211 0.022921791
0.49137354 -0.027998269 0.023314897
0.49095929 -0.028530141 0.023306431
0.49054503 -0.029062003 0.023297966
0.4907259 -0.030322088 0.022887873
0.5538404 -0.0070539424 0.0073781805
0.5520907 -0.0063171717 0.0081719467
0.54772854 -0.0029681802 0.010571409
0.54598683 -0.0022211997 0.011365334
0.5288704 0.010109743 0.020555144
0.52910066 0.008913775 0.020145088
0.5286811 0.0083750989 0.020136515
0.52826154 0.0078364238 0.020127939
0.52719486 0.0079584476 0.020520899
0.52677596 0.0074206241 0.020512339
0.52571124 0.0075452034 0.02090534
0.52464789 0.0076714801 0.021298369
0.5242303 0.00713536 0.021289835
0.52316886 0.0072642141 0.021682926
0.52210879 0.0073947497 0.022076022
0.52169251 0.0068603274 0.022067513
0.52063447 0.0069934181 0.022460651
0.51957768 0.007128201 0.022853814
0.5185222 0.0072647263 0.023247028
0.51810795 0.0067328587 0.02323856
0.5170545 0.0068719061 0.023631791
0.5166409 0.0063408846 0.023623338
0.5162273 0.0058098692 0.023614885
0.51517653 0.0059523173 0.024008172
0.51476359 0.005422153 0.023999732
0.51371479 0.0055671507 0.024393059
0.51330251 0.0050378381 0.024384635
0.51289028 0.0045085261 0.024376208
0.51247799 0.003979214 0.024367783
0.51206571 0.0034498959 0.024359357
0.51165348 0.0029205836 0.02435093
0.5112412 0.0023912713 0.024342505
0.51082897 0.0018619532 0.024334079
0.51041669 0.001332641 0.024325654
0.5093745 0.00148615 0.024719115
0.50896293 0.00095768948 0.024710704
0.5085513 0.00042922309 0.024702292
0.50813973 -9.9237383e-05 0.02469388
0.5077281 -0.00062770373 0.024685467
0.50731653 -0.0011561642 0.024677055
0.5069049 -0.0016846247 0.024668643
0.50649333 -0.0022130911 0.02466023
0.5060817 -0.0027415515 0.024651818
0.50567013 -0.0032700179 0.024643406
0.5052585 -0.0037984785 0.024634995
0.50484687 -0.0043269447 0.024626581
0.5044353 -0.0048554051 0.024618169
0.50402367 -0.0053838715 0.024609758
0.5036121 -0.0059123323 0.024601346
0.50320053 -0.0064407927 0.024592932
0.5027889 -0.0069692591 0.024584521
0.50237733 -0.0074977195 0.024576109
0.5019657 -0.0080261854 0.024567697
0.50155413 -0.0085546467 0.024559284
0.5011425 -0.0090831127 0.024550872
0.50073093 -0.0096115731 0.02454246
0.5003193 -0.010140033 0.024534049
0.4999077 -0.0106685 0.024525635
0.4994961 -0.011196961 0.024517223
0.4990845 -0.011725427 0.024508812
0.4986729 -0.012253887 0.024500398
0.4982613 -0.012782354 0.024491986
0.4978497 -0.013310814 0.024483575
0.4974381 -0.013839275 0.024475163
0.4970265 -0.014367741 0.024466749
0.4966149 -0.014896202 0.024458338
0.4962033 -0.015424668 0.024449926
0.4957917 -0.015953129 0.024441514
0.4953801 -0.016481595 0.024433101
0.49557522 -0.017722664 0.024022326
0.49516296 -0.018251976 0.024013901
0.49535611 -0.019495601 0.023603085
0.49554792 -0.020740928 0.023192244
0.49513432 -0.021271944 0.023183791
0.49472073 -0.02180296 0.023175338
0.49490988 -0.023051688 0.022764444
0.49449563 -0.023583561 0.022755977
0.49408138 -0.024115423 0.022747511
0.49426794 -0.025367593 0.022336539
0.49385303 -0.025900312 0.022328058
0.49343809 -0.026433032 0.022319578
0.49302319 -0.02696575 0.022311099
0.49260828 -0.027498471 0.022302618
0.49219337 -0.028031178 0.022294139
0.49177846 -0.028563896 0.022285659
0.49076736 -0.028370364 0.02267978
0.49035314 -0.028902225 0.022671314
0.49231809 -0.032345835 0.021052403
0.55429101 -0.0075341682 0.0063090515
0.55254132 -0.0067987656 0.0071048052
0.54818028 -0.0034521876 0.009510248
0.54643852 -0.002706537 0.01030619
0.5293259 0.0096142739 0.019518992
0.52890635 0.0090755979 0.019510416
0.52848679 0.0085369227 0.019501843
0.52806723 0.0079982467 0.019493267
0.52764767 0.0074595716 0.019484693
0.52658194 0.0075821914 0.019878671
0.52551752 0.007706515 0.020272674
0.52509928 0.0071695433 0.020264126
0.52403688 0.007296416 0.020658173
0.52361929 0.0067602899 0.020649638
0.52255881 0.0068897461 0.021043744
0.52149969 0.0070208726 0.021437854
0.52044195 0.0071537071 0.021831995
0.52002633 0.0066201366 0.021823501
0.51897055 0.0067555211 0.022217682
0.51855564 0.0062228017 0.022209201
0.51750177 0.0063607693 0.022603445
0.51708752 0.0058289017 0.022594979
0.51603574 0.0059693912 0.022989238
0.51562214 0.0054383758 0.022980785
0.51457232 0.0055814199 0.023375088
0.51415938 0.0050512557 0.023366649
0.51374644 0.0045210919 0.023358209
0.51333356 0.0039909277 0.023349769
0.51292062 0.0034607579 0.023341332
0.51250768 0.0029305939 0.023332892
0.51209474 0.0024004302 0.023324452
0.51105022 0.0025502825 0.023718862
0.51063794 0.0020209644 0.023710437
0.51022571 0.0014916522 0.023702011
0.50918382 0.0016449053 0.024096476
0.50877225 0.0011164448 0.024088064
0.50836062 0.00058797846 0.024079653
0.50794905 5.9517999e-05 0.024071239
0.50753742 -0.00046894836 0.024062827
0.50712585 -0.00099740888 0.024054416
0.50671422 -0.0015258694 0.024046004
0.50630265 -0.0020543358 0.02403759
0.50589103 -0.0025827962 0.024029179
0.50547945 -0.0031112626 0.024020767
0.50506783 -0.0036397229 0.024012355
0.50465626 -0.0041681896 0.024003942
0.50424463 -0.00469665 0.02399553
0.50383306 -0.0052251164 0.023987118
0.50342143 -0.0057535768 0.023978705
0.50300986 -0.0062820371 0.023970293
0.50259823 -0.0068105035 0.023961881
0.50218666 -0.0073389639 0.023953469
0.50177503 -0.0078674303 0.023945056
0.50136346 -0.0083958907 0.023936644
0.50095183 -0.0089243576 0.023928232
0.50054026 -0.009452818 0.023919821
0.50012863 -0.0099812783 0.023911407
0.49971703 -0.010509744 0.023902996
0.49930543 -0.011038205 0.023894584
0.49889383 -0.011566672 0.023886172
0.49848223 -0.012095132 0.023877759
0.49807063 -0.012623598 0.023869347
0.49765903 -0.013152059 0.023860935
0.49724743 -0.01368052 0.023852522
0.49683583 -0.014208985 0.02384411
0.49642423 -0.014737446 0.023835698
0.49601263 -0.015265913 0.023827286
0.49620879 -0.016505022 0.023415536
0.4957965 -0.017034341 0.023407109
0.49538425 -0.017563652 0.023398684
0.49557775 -0.018806169 0.022986881
0.49576989 -0.02005039 0.022575049
0.49535632 -0.020581406 0.022566596
0.49554649 -0.021828176 0.022154726
0.49513224 -0.022360044 0.02214626
0.49532047 -0.023609402 0.021734325
0.49490556 -0.024142122 0.021725845
0.49449065 -0.02467484 0.021717366
0.49467617 -0.025927566 0.021305399
0.49426061 -0.026461143 0.021296905
0.49384502 -0.026994709 0.021288412
0.49342945 -0.027528273 0.02127992
0.49301386 -0.02806185 0.021271426
0.4925983 -0.028595416 0.021262933
0.49158624 -0.028403863 0.021658005
0.49057546 -0.028210586 0.02205313
0.49075642 -0.029469302 0.021641046
0.55474102 -0.0080139218 0.0052378923
0.55364507 -0.0079306681 0.0056322706
0.54863143 -0.00393565 0.0084471051
0.54819465 -0.0044964529 0.0084381783
0.54645413 -0.0037504619 0.0092361383
0.53107911 0.0078057125 0.017673841
0.52936047 0.0085797878 0.018472247
0.52829242 0.0086987456 0.01886717
0.52787286 0.0081600696 0.018858597
0.5274533 0.0076213945 0.018850021
0.52703375 0.0070827249 0.018841447
0.52661419 0.0065440494 0.018832872
0.52555007 0.0066681113 0.019227879
0.52448732 0.0067938771 0.019622913
0.52342588 0.0069213463 0.020017974
0.52300829 0.0063852258 0.020009439
0.52194881 0.0065152724 0.020404562
0.52089065 0.0066470006 0.020799689
0.51983386 0.0067804256 0.021194845
0.51941824 0.006246855 0.021186352
0.51900268 0.0057132896 0.021177858
0.51794851 0.0058501163 0.021573069
0.5175336 0.0053173969 0.021564588
0.5164814 0.0054568127 0.021959862
0.51606715 0.0049249511 0.021951394
0.51501697 0.0050668824 0.022346685
0.51460338 0.0045358669 0.02233823
0.51418978 0.004004851 0.022329777
0.51377618 0.0034738353 0.022321325
0.51336259 0.0029428196 0.022312872
0.51294899 0.0024118039 0.022304419
0.51253545 0.0018807881 0.022295967
0.51149052 0.0020295326 0.022691369
0.51107764 0.0014993687 0.022682929
0.51003474 0.001650663 0.023078369
0.50962245 0.0011213508 0.023069944
0.50921023 0.00059203262 0.023061518
0.50879794 6.2720414e-05 0.023053091
0.50838566 -0.00046659182 0.023044666
0.50797343 -0.00099590991 0.02303624
0.50756115 -0.0015252221 0.023027815
0.50714886 -0.0020545344 0.023019388
0.50673664 -0.0025838467 0.023010964
0.50632435 -0.0031131648 0.023002537
0.50591213 -0.0036424769 0.022994112
0.50549984 -0.0041717892 0.022985686
0.50508755 -0.0047011073 0.022977261
0.50467533 -0.0052304193 0.022968834
0.50426304 -0.0057597319 0.02296041
0.50385076 -0.00628905 0.022951983
0.50343853 -0.006818362 0.022943556
0.50302625 -0.0073476741 0.022935132
0.50261402 -0.0078769866 0.022926705
0.50220174 -0.0084063048 0.02291828
0.50178945 -0.0089356164 0.022909854
0.50137722 -0.0094649289 0.022901429
0.50096494 -0.009994247 0.022893002
0.50055271 -0.01052356 0.022884578
0.50014043 -0.011052871 0.022876151
0.49972817 -0.011582189 0.022867726
0.49931589 -0.012111502 0.0228593
0.49890363 -0.012640814 0.022850875
0.49849138 -0.013170132 0.022842448
0.49807912 -0.013699444 0.022834022
0.49766684 -0.014228757 0.022825597
0.49725458 -0.014758069 0.02281717
0.49684232 -0.015287387 0.022808746
0.49643007 -0.0158167 0.022800319
0.49601778 -0.016346011 0.022791894
0.4962123 -0.017586576 0.022379115
0.49579939 -0.018116739 0.022370676
0.49599189 -0.019359851 0.021957854
0.49557832 -0.019890867 0.021949401
0.49576885 -0.021136537 0.021536542
0.49595809 -0.022383936 0.021123633
0.49554318 -0.022916649 0.021115152
0.49512827 -0.023449369 0.021106672
0.49531481 -0.024700148 0.020693731
0.49489924 -0.025233712 0.020685237
0.49448368 -0.025767278 0.020676743
0.49466756 -0.027021451 0.020263748
0.49425134 -0.027555874 0.02025524
0.49323693 -0.027367985 0.020651262
0.49282137 -0.027901562 0.020642769
0.49240577 -0.028435126 0.020634277
0.49139404 -0.028243829 0.021030353
0.49097914 -0.028776549 0.021021873
0.55104059 -0.0063728984 0.0061687124
0.54929674 -0.0056325295 0.0069685974
0.54755551 -0.0048887804 0.0077685113
0.5291658 0.0087418659 0.017836573
0.52809805 0.0088605685 0.0182325
0.52767849 0.0083218934 0.018223925
0.52790517 0.0071232906 0.017810808
0.52748495 0.0065837633 0.01780222
0.52641982 0.0067058722 0.018198201
0.52600032 0.0061671967 0.018189626
0.52493715 0.0062918551 0.018585648
0.52387536 0.006418217 0.018981699
0.52281487 0.0065462817 0.019377777
0.52175564 0.0066760727 0.019773902
0.52133876 0.0061408044 0.019765381
0.52028161 0.0062731225 0.020161524
0.51986533 0.0057387059 0.020153018
0.51944911 0.0052042832 0.020144511
0.51839459 0.0053400076 0.020540711
0.51797903 0.0048064371 0.020532217
0.51692647 0.0049447175 0.020928456
0.51651156 0.0044119982 0.020919975
0.51546097 0.0045528612 0.021316279
0.51504672 0.0040209936 0.021307813
0.51463246 0.0034891265 0.021299345
0.51421821 0.0029572588 0.02129088
0.51380396 0.0024253915 0.021282412
0.51338977 0.0018935241 0.021273946
0.51234382 0.0020403101 0.021670321
0.51193023 0.0015092944 0.021661868
0.51088631 0.0016586357 0.022058282
0.51047343 0.0011284659 0.022049842
0.50943148 0.0012803619 0.022446301
0.5090192 0.00075104384 0.022437874
0.50860697 0.00022173161 0.022429449
0.50819468 -0.0003075806 0.022421023
0.50778246 -0.00083689869 0.022412596
0.50737017 -0.001366211 0.022404172
0.50695789 -0.0018955232 0.022395745
0.50654566 -0.0024248355 0.02238732
0.50613338 -0.0029541536 0.022378894
0.50572109 -0.0034834656 0.022370469
0.50530887 -0.0040127779 0.022362042
0.50489658 -0.0045420961 0.022353617
0.50448436 -0.0050714081 0.022345191
0.50407207 -0.0056007206 0.022336766
0.50365978 -0.0061300388 0.02232834
0.50324756 -0.0066593508 0.022319915
0.50283527 -0.0071886629 0.022311488
0.50242305 -0.0077179754 0.022303063
0.50201076 -0.0082472935 0.022294637
0.50159848 -0.0087766061 0.02228621
0.50118625 -0.0093059177 0.022277785
0.50077397 -0.0098352358 0.022269359
0.50036168 -0.010364548 0.022260934
0.49994946 -0.010893861 0.022252508
0.49953717 -0.011423179 0.022244083
0.49912491 -0.011952491 0.022235656
0.49871266 -0.012481803 0.022227231
0.4983004 -0.013011121 0.022218805
0.49788812 -0.013540434 0.02221038
0.49747586 -0.014069745 0.022201953
0.49706361 -0.014599058 0.022193529
0.49665135 -0.015128376 0.022185102
0.4962391 -0.015657688 0.022176675
0.49643394 -0.016897144 0.021762908
0.49602103 -0.017427308 0.021754468
0.49621388 -0.018669315 0.021340661
0.49640545 -0.019913023 0.020926826
0.4959912 -0.02044489 0.020918358
0.4961808 -0.021691183 0.02050446
0.49576589 -0.022223903 0.020495979
0.49595347 -0.023472717 0.020082062
0.49553788 -0.024006281 0.020073568
0.49572346 -0.025257651 0.01965961
0.49530724 -0.025792073 0.019651104
0.49489099 -0.026326496 0.019642597
0.49447474 -0.026860906 0.01963409
0.49405852 -0.027395329 0.019625582
0.49364227 -0.027929751 0.019617075
0.49322602 -0.028464174 0.019608568
0.49280977 -0.028998597 0.019600062
0.49120185 -0.028083796 0.0204027
0.55148959 -0.0068545775 0.005098551
0.55039757 -0.0067676161 0.0054949801
0.54865563 -0.0060260487 0.0062968973
0.54496467 -0.0033199242 0.0083152214
0.54387999 -0.003223605 0.0087117981
0.52813071 0.0078248903 0.017183723
0.5277105 0.0072853691 0.017175134
0.52729028 0.0067458418 0.017166546
0.52687007 0.0062063145 0.017157957
0.52580595 0.0063290205 0.017554954
0.52474308 0.0064534224 0.01795198
0.52368158 0.0065795286 0.018349033
0.52262145 0.0067073382 0.018746112
0.52220386 0.0061712181 0.018737579
0.52114564 0.0063016047 0.019134721
0.52072871 0.0057663363 0.019126199
0.52031183 0.005231062 0.019117679
0.51925629 0.0053648278 0.019514853
0.51884007 0.0048304112 0.019506346
0.5184238 0.0042959885 0.01949784
0.51737094 0.0044331611 0.019895067
0.51695538 0.0038995903 0.019886574
0.51590443 0.0040393127 0.020283842
0.51548952 0.0035065934 0.020275364
0.51507461 0.0029738741 0.020266883
0.5146597 0.0024411608 0.020258402
0.51424479 0.0019084417 0.020249924
0.51319784 0.0020533018 0.020647297
0.51278359 0.0015214344 0.020638831
0.51173866 0.0016688168 0.021036221
0.51132506 0.0011378011 0.021027766
0.5102821 0.0012877324 0.021425199
0.50986922 0.00075756846 0.021416759
0.50945628 0.00022740451 0.021408319
0.50904334 -0.00030275946 0.02139988
0.50863039 -0.0008329234 0.021391442
0.50821751 -0.0013630874 0.021383002
0.50780457 -0.0018932573 0.021374563
0.50739163 -0.0024234212 0.021366123
0.50697869 -0.0029535852 0.021357683
0.50656581 -0.0034837492 0.021349246
0.50615287 -0.0040139132 0.021340806
0.50573993 -0.004544077 0.021332366
0.50532705 -0.0050742468 0.021323927
0.5049141 -0.005604411 0.021315487
0.50450116 -0.0061345748 0.021307049
0.50408822 -0.006664739 0.02129861
0.50367534 -0.0071949027 0.02129017
0.5032624 -0.0077250726 0.02128173
0.50284946 -0.0082552368 0.021273291
0.50243652 -0.0087854005 0.021264851
0.50202364 -0.0093155643 0.021256413
0.5016107 -0.0098457281 0.021247974
0.50119776 -0.010375893 0.021239534
0.50078481 -0.010906062 0.021231094
0.50037193 -0.011436226 0.021222655
0.49995899 -0.011966391 0.021214217
0.49954605 -0.012496554 0.021205777
0.49913314 -0.013026718 0.021197338
0.49872023 -0.013556882 0.021188898
0.49830729 -0.014087052 0.021180458
0.49789435 -0.014617216 0.021172021
0.49748144 -0.01514738 0.021163581
0.49706852 -0.015677543 0.021155141
0.49665558 -0.016207708 0.021146702
0.49624267 -0.016737878 0.021138262
0.49643588 -0.017978776 0.020723464
0.49662781 -0.019221378 0.020308642
0.49681842 -0.020465717 0.019893765
0.49640352 -0.020998431 0.019885287
0.4965921 -0.022245292 0.019470394
0.49617651 -0.022778856 0.0194619
0.49636313 -0.024028271 0.019046966
0.49594688 -0.024562683 0.019038459
0.49553064 -0.025097106 0.019029953
0.49511442 -0.025631528 0.019021446
0.49469817 -0.026165951 0.019012939
0.4948808 -0.027420459 0.018597925
0.49446389 -0.027955739 0.018589403
0.49344945 -0.027769208 0.018987417
0.4930332 -0.028303631 0.018978911
0.49261695 -0.028838053 0.018970404
0.54866487 -0.0070730676 0.0052187229
0.54627728 -0.0056734467 0.0064291768
0.52858239 0.007328372 0.016141491
0.52816153 0.006787993 0.016132889
0.52709562 0.0069079208 0.016530871
0.5266754 0.0063683935 0.016522283
0.52561158 0.0064908434 0.016920283
0.52454907 0.0066149901 0.017318312
0.52413017 0.0060771662 0.017309749
0.52306962 0.0062038684 0.017707819
0.52265143 0.0056668962 0.017699271
0.52159286 0.0057961475 0.018097382
0.52117532 0.0052600275 0.018088847
0.52075773 0.004723907 0.018080313
0.51970178 0.0048565934 0.0184785
0.5192849 0.0043213191 0.018469978
0.51823097 0.0044565336 0.01886818
0.51781476 0.0039221169 0.018859673
0.51739854 0.003387694 0.018851165
0.51634729 0.0035263088 0.019249424
0.51593167 0.0029927436 0.019240931
0.5155161 0.0024591729 0.019232437
0.51446754 0.0026011944 0.019630751
0.51405257 0.0020684751 0.01962227
0.51363766 0.001535756 0.019613789
0.51259166 0.0016812126 0.020012179
0.51217741 0.0011493451 0.020003714
0.51113349 0.0012973235 0.020402119
0.5107199 0.00076630776 0.020393666
0.50967789 0.00091683504 0.020792114
0.50926501 0.00038667108 0.020783676
0.50885206 -0.00014349289 0.020775236
0.50843912 -0.00067365688 0.020766797
0.50802624 -0.0012038208 0.020758357
0.5076133 -0.0017339906 0.020749917
0.50720036 -0.0022641546 0.020741479
0.50678742 -0.0027943186 0.02073304
0.50637454 -0.0033244826 0.0207246
0.5059616 -0.0038546466 0.020716161
0.50554866 -0.0043848106 0.020707721
0.50513572 -0.0049149804 0.020699283
0.50472283 -0.0054451441 0.020690843
0.50430989 -0.0059753084 0.020682404
0.50389695 -0.0065054721 0.020673964
0.50348401 -0.0070356363 0.020665525
0.50307113 -0.0075658062 0.020657085
0.50265819 -0.0080959704 0.020648647
0.50224525 -0.0086261341 0.020640207
0.50183231 -0.0091562979 0.020631768
0.50141943 -0.0096864616 0.020623328
0.50100648 -0.010216625 0.020614889
0.50059354 -0.010746796 0.020606451
0.5001806 -0.011276959 0.020598011
0.49976769 -0.011807123 0.020589571
0.49935478 -0.012337288 0.020581132
0.49894187 -0.012867452 0.020572692
0.49852893 -0.013397615 0.020564254
0.49811599 -0.013927786 0.020555815
0.49770308 -0.014457949 0.020547375
0.49729016 -0.014988113 0.020538935
0.49687722 -0.015518277 0.020530496
0.49707147 -0.016757222 0.020114722
0.49665788 -0.017288238 0.020106269
0.49685013 -0.018529734 0.019690456
0.49704114 -0.019772964 0.019274592
0.4966262 -0.020305684 0.019266114
0.49681515 -0.02155143 0.018850232
0.49700278 -0.022798881 0.018434322
0.49658653 -0.023333304 0.018425815
0.49677217 -0.024583304 0.018009868
0.49635527 -0.025118573 0.018001348
0.49593836 -0.025653854 0.017992826
0.49552146 -0.026189122 0.017984306
0.49510458 -0.026724391 0.017975785
0.49528626 -0.027979534 0.017559731
0.4948687 -0.02851565 0.017551199
0.49385387 -0.028330209 0.017950224
0.49343696 -0.028865477 0.017941704
0.49242413 -0.028677506 0.018340744
0.52796656 0.0069503272 0.015496213
0.52690101 0.0070699994 0.015895197
0.52648073 0.0065304721 0.015886609
0.52606052 0.0059909453 0.015878022
0.52499765 0.0061139907 0.016277038
0.52457809 0.0055753151 0.016268462
0.52351725 0.00570091 0.016667521
0.52309835 0.0051630866 0.016658958
0.52203947 0.0052912361 0.017058058
0.52162123 0.0047542639 0.01704951
0.52120298 0.0042172861 0.017040962
0.52014673 0.0043488434 0.017440114
0.5197292 0.0038127173 0.017431581
0.51867485 0.003946851 0.017830797
0.51825798 0.0034115827 0.017822277
0.51720572 0.0035482389 0.018221507
0.51678944 0.003013822 0.018213
0.5157392 0.0031530326 0.018612277
0.51532358 0.0026194616 0.018603783
0.51490802 0.0020858909 0.018595289
0.5138604 0.0022285087 0.018994618
0.5134455 0.0016957896 0.018986138
0.51303059 0.0011630704 0.018977657
0.51198554 0.0013091229 0.019377064
0.51094186 0.0014568459 0.019776471
0.51052827 0.00092583016 0.019768018
0.51011473 0.00039481444 0.019759566
0.50970113 -0.00013620124 0.019751113
0.50928754 -0.00066721695 0.01974266
0.50887394 -0.0011982326 0.019734208
0.50846034 -0.0017292483 0.019725755
0.50804675 -0.002260264 0.0197173
0.50763315 -0.0027912797 0.019708848
0.50721961 -0.0033222954 0.019700395
0.50680602 -0.0038533171 0.019691942
0.50639242 -0.0043843328 0.01968349
0.50597882 -0.0049153483 0.019675037
0.50556523 -0.0054463642 0.019666584
0.50515163 -0.0059773801 0.019658132
0.50473803 -0.0065083955 0.019649679
0.5043245 -0.0070394115 0.019641226
0.5039109 -0.0075704269 0.019632773
0.5034973 -0.0081014428 0.019624321
0.50308371 -0.0086324587 0.019615866
0.50267011 -0.0091634737 0.019607414
0.50225651 -0.0096944897 0.019598961
0.50184292 -0.010225506 0.019590508
0.50142938 -0.010756521 0.019582056
0.50101578 -0.011287537 0.019573603
0.50060219 -0.011818552 0.01956515
0.50018859 -0.012349568 0.019556697
0.49977499 -0.012880584 0.019548245
0.49936143 -0.0134116 0.019539792
0.49894783 -0.013942615 0.019531339
0.49853423 -0.014473631 0.019522887
0.49812064 -0.015004653 0.019514432
0.49770707 -0.015535668 0.019505979
0.49729347 -0.016066683 0.019497527
0.49687988 -0.016597699 0.019489074
0.49707249 -0.017838087 0.019072274
0.49726385 -0.019080212 0.018655419
0.49684891 -0.019612931 0.018646941
0.49703822 -0.020857571 0.018230069
0.49722621 -0.022103921 0.01781317
0.49741286 -0.023351967 0.017396247
0.49699596 -0.023887236 0.017387727
0.49718067 -0.02513786 0.016970739
0.49676311 -0.025673985 0.016962204
0.49634552 -0.026210112 0.016953669
0.49592796 -0.026746226 0.016945137
0.4955104 -0.027282352 0.016936602
0.49509284 -0.027818479 0.016928067
0.49467528 -0.028354593 0.016919533
0.49485463 -0.029612008 0.01650246
0.49443641 -0.030148981 0.016493913
0.49342257 -0.029962961 0.016893931
0.49241003 -0.029775213 0.017294001
0.52841657 0.0064537516 0.014450982
0.52735072 0.0065722829 0.014850934
0.52628613 0.0066925511 0.015250935
0.52586591 0.0061530238 0.015242347
0.5254457 0.0056135026 0.015233759
0.52438378 0.0057371384 0.01563379
0.52332318 0.0058624777 0.016033851
0.52354467 0.0046597878 0.01561664
0.52248538 0.0047868304 0.016016727
0.52206653 0.0042490065 0.016008167
0.52164763 0.0037111826 0.015999606
0.52059102 0.003841626 0.016399749
0.52017277 0.003304654 0.016391201
0.51911819 0.003437653 0.016791385
0.5187006 0.0029015327 0.01678285
0.51764792 0.0030371088 0.017183095
0.51659662 0.0031743669 0.017583342
0.5161804 0.0026399442 0.017574836
0.51513106 0.0027797511 0.017975127
0.51471549 0.0022461803 0.017966634
0.51429993 0.0017126151 0.01795814
0.51325327 0.0018558232 0.018358484
0.51283836 0.001323104 0.018350005
0.51179361 0.0014689011 0.018750412
0.51137936 0.00093703362 0.018741945
0.51096511 0.00040516618 0.018733479
0.51055086 -0.00012670126 0.018725013
0.51013666 -0.00065856281 0.018716546
0.50909597 -0.00050769455 0.019117011
0.50868237 -0.0010387102 0.019108558
0.50826877 -0.0015697259 0.019100105
0.50785518 -0.0021007417 0.019091653
0.50744158 -0.0026317574 0.0190832
0.50702798 -0.0031627731 0.019074747
0.50661439 -0.0036937946 0.019066295
0.50620079 -0.0042248103 0.019057842
0.50578725 -0.0047558262 0.019049389
0.50537366 -0.0052868417 0.019040937
0.50496006 -0.0058178576 0.019032484
0.50454646 -0.006348873 0.019024031
0.50413287 -0.0068798889 0.019015577
0.50371927 -0.0074109044 0.019007124
0.50330567 -0.0079419203 0.018998671
0.50289214 -0.0084729362 0.018990219
0.50247854 -0.0090039521 0.018981766
0.50206494 -0.0095349671 0.018973313
0.50165135 -0.010065983 0.018964861
0.50123775 -0.010596999 0.018956408
0.50082415 -0.011128015 0.018947955
0.50041056 -0.01165903 0.018939503
0.49999699 -0.012190046 0.01893105
0.49958342 -0.012721062 0.018922597
0.49916983 -0.013252078 0.018914143
0.49875623 -0.013783094 0.01890569
0.49834263 -0.014314109 0.018897237
0.49792907 -0.01484513 0.018888785
0.49751547 -0.015376146 0.018880332
0.49710187 -0.015907161 0.018871879
0.49729484 -0.017146442 0.018454088
0.49748653 -0.018387459 0.018036246
0.49707162 -0.018920178 0.018027768
0.49726129 -0.020163717 0.017609907
0.49744961 -0.021408953 0.017192019
0.49763662 -0.022655893 0.016774107
0.49721971 -0.023191167 0.016765587
0.49740478 -0.024440689 0.016347609
0.49698722 -0.024976803 0.016339077
0.49717027 -0.026228854 0.01592108
0.49675202 -0.026765825 0.015912533
0.49633381 -0.027302798 0.015903985
0.49591559 -0.027839771 0.015895437
0.49549735 -0.028376741 0.01588689
0.49507913 -0.028913714 0.015878342
0.49585414 -0.030892754 0.015050706
0.49543458 -0.031431429 0.015042132
0.49322915 -0.029801903 0.016262269
0.49281156 -0.03033803 0.016253734
0.53080016 0.003981696 0.012175055
0.52779979 0.0060751168 0.013804687
0.52609146 0.0068546301 0.014615261
0.52567124 0.0063151028 0.014606672
0.52525103 0.0057755811 0.014598085
0.52483082 0.0052360538 0.014589496
0.52376986 0.0053602862 0.014990545
0.52399033 0.0041569998 0.01457232
0.52293074 0.0042829351 0.014973395
0.52251118 0.0037442595 0.01496482
0.52209163 0.00320559 0.014956245
0.52103466 0.0033349262 0.015357377
0.52061582 0.0027971023 0.015348815
0.51956081 0.0029289941 0.015749985
0.51914257 0.0023920222 0.015741438
0.51808959 0.0025264686 0.016142651
0.51703793 0.0026626408 0.016543914
0.51598758 0.0028004888 0.016945178
0.51557136 0.0022660664 0.016936671
0.51452297 0.0024064695 0.017337976
0.51410741 0.0018729046 0.017329484
0.51369184 0.0013393336 0.017320991
0.51264614 0.0014831376 0.017722351
0.51223123 0.00095041841 0.017713871
0.51181632 0.00041770507 0.017705392
0.51140141 -0.0001150141 0.017696911
0.51098651 -0.00064773328 0.017688433
0.5105716 -0.0011804525 0.017679952
0.50953048 -0.0010306526 0.01808143
0.50911623 -0.0015625199 0.018072965
0.50870198 -0.0020943873 0.018064497
0.50828773 -0.0026262549 0.018056031
0.50787348 -0.0031581223 0.018047566
0.50745922 -0.0036899897 0.018039098
0.50704497 -0.0042218571 0.018030632
0.50663072 -0.0047537247 0.018022167
0.50621647 -0.0052855923 0.018013699
0.50580221 -0.0058174594 0.018005233
0.50538796 -0.006349327 0.017996768
0.50497371 -0.0068811942 0.0179883
0.50455946 -0.0074130562 0.017979834
0.50414521 -0.0079449238 0.017971369
0.50373095 -0.008476791 0.017962901
0.5033167 -0.0090086581 0.017954435
0.50290245 -0.0095405262 0.017945968
0.5024882 -0.010072393 0.017937502
0.50207394 -0.01060426 0.017929036
0.50165969 -0.011136129 0.017920569
0.50124544 -0.011667996 0.017912103
0.50083119 -0.012199863 0.017903637
0.50041693 -0.01273173 0.01789517
0.50000268 -0.013263598 0.017886704
0.49958846 -0.01379546 0.017878238
0.49917421 -0.014327327 0.017869771
0.49875996 -0.014859194 0.017861305
0.4983457 -0.015391062 0.017852839
0.49793145 -0.01592293 0.017844371
0.4975172 -0.016454797 0.017835906
0.49770924 -0.017694706 0.017417075
0.49789992 -0.018936286 0.016998237
0.49748436 -0.019469855 0.016989745
0.49767303 -0.020713991 0.01657087
0.4978604 -0.021959823 0.016151967
0.49804649 -0.023207387 0.015733013
0.49762893 -0.023743507 0.01572448
0.49781299 -0.024993597 0.015305508
0.49739474 -0.025530569 0.01529696
0.4975768 -0.026783209 0.01487795
0.4971579 -0.027321039 0.014869388
0.49673903 -0.027858857 0.014860827
0.49632013 -0.028396687 0.014852266
0.49649888 -0.029653579 0.014433186
0.49607933 -0.030192256 0.014424611
0.49625608 -0.03145171 0.014005492
0.49583587 -0.031991232 0.013996904
0.49541566 -0.032530751 0.013988315
0.4944011 -0.032346956 0.014390312
0.49338791 -0.032161448 0.014792337
0.52547657 0.0064771813 0.013970998
0.52505636 0.0059376601 0.01396241
0.52463615 0.0053981328 0.013953822
0.52421594 0.0048586056 0.013945234
0.52379566 0.0043190783 0.013936645
0.52337545 0.0037795571 0.013928057
0.52295524 0.0032400298 0.013919469
0.52253503 0.0027005025 0.01391088
0.52147776 0.0028287375 0.014313
0.52042174 0.00295867 0.014715146
0.52000284 0.0024208461 0.014706586
0.51894885 0.002553334 0.015108773
0.51853061 0.0020163618 0.015100225
0.51747859 0.0021513985 0.015502455
0.51642787 0.0022881669 0.015904732
0.51537853 0.0024266115 0.016307011
0.51496226 0.0018921947 0.016298505
0.51454604 0.001357772 0.016289998
0.51349932 0.0014996226 0.016692335
0.51308376 0.00096605165 0.016683841
0.51266819 0.00043248659 0.016675349
0.51225257 -0.00010108433 0.016666856
0.51120919 4.5019478e-05 0.01706926
0.51079428 -0.0004876997 0.017060779
0.51037937 -0.0010204189 0.017052298
0.50996447 -0.0015531381 0.01704382
0.50954956 -0.0020858515 0.017035339
0.50913465 -0.0026185706 0.017026858
0.50809586 -0.002466477 0.017429382
0.50768161 -0.0029983446 0.017420916
0.50726736 -0.003530212 0.017412448
0.5068531 -0.0040620794 0.017403983
0.50643885 -0.004593947 0.017395517
0.5060246 -0.0051258141 0.017387049
0.50561035 -0.0056576817 0.017378584
0.50519609 -0.0061895493 0.017370118
0.50478184 -0.0067214165 0.01736165
0.50436759 -0.007253278 0.017353185
0.50395334 -0.0077851457 0.017344719
0.50353909 -0.0083170133 0.017336251
0.50312483 -0.0088488804 0.017327785
0.50271058 -0.0093807476 0.01731932
0.50229633 -0.0099126156 0.017310852
0.50188208 -0.010444483 0.017302386
0.50146782 -0.01097635 0.017293919
0.50105357 -0.011508218 0.017285453
0.50063932 -0.012040085 0.017276987
0.50022507 -0.012571952 0.01726852
0.49981081 -0.01310382 0.017260054
0.49939656 -0.013635682 0.017251588
0.49959162 -0.014871082 0.016831821
0.49917671 -0.015403802 0.01682334
0.49876177 -0.01593652 0.016814861
0.49834687 -0.01646924 0.016806381
0.49793196 -0.017001959 0.016797902
0.49812299 -0.018242432 0.016378077
0.49831268 -0.019484606 0.015958223
0.49789646 -0.020019023 0.015949717
0.49808419 -0.021263754 0.015529826
0.49827063 -0.02251021 0.015109885
0.49845567 -0.023758342 0.014689937
0.49803746 -0.024295313 0.01468139
0.49822053 -0.025545994 0.014261402
0.49780163 -0.026083825 0.014252841
0.49798274 -0.027337056 0.013832814
0.49756318 -0.027875731 0.013824239
0.49714363 -0.028414406 0.013815665
0.49672407 -0.028953081 0.013807089
0.49690184 -0.030210577 0.013386995
0.49648163 -0.030750098 0.013378406
0.49665746 -0.032010175 0.012958248
0.49623659 -0.032550555 0.012949646
0.49581572 -0.033090934 0.012941044
0.49480078 -0.032908205 0.013344052
0.4937872 -0.032723811 0.013747066
0.53813618 -0.0035888411 0.0059528924
0.53448689 -0.0008486915 0.008001959
0.52592403 0.005978534 0.0129237
0.52486169 0.0060997386 0.013326736
0.52444148 0.0055602114 0.013318148
0.52402127 0.0050206846 0.01330956
0.52424049 0.0038170239 0.012889292
0.52381963 0.0032766508 0.01288069
0.52339876 0.0027362718 0.012872089
0.52234036 0.0028625813 0.013275206
0.52192014 0.002323054 0.013266618
0.52086383 0.0024518853 0.013669753
0.51980883 0.0025824138 0.014072916
0.51938993 0.00204459 0.014064355
0.51897103 0.0015067663 0.014055793
0.51791865 0.0016407017 0.014459011
0.51686764 0.0017763346 0.014862256
0.51581782 0.0019136991 0.01526555
0.51540095 0.0013784305 0.015257029
0.51498401 0.00084315613 0.015248508
0.513937 0.00098390004 0.015651833
0.51352072 0.00044947732 0.015643327
0.5131045 -8.4939464e-05 0.015634818
0.51268828 -0.00061936211 0.015626311
0.51164448 -0.00047436586 0.016029706
0.51122892 -0.001007931 0.016021213
0.51081336 -0.0015415018 0.016012719
0.51039779 -0.0020750728 0.016004225
0.50998223 -0.0026086378 0.015995732
0.50894243 -0.002458537 0.016399207
0.50852752 -0.0029912561 0.016390726
0.50811261 -0.0035239754 0.016382247
0.5076977 -0.0040566945 0.016373767
0.50728279 -0.0045894077 0.016365286
0.50686783 -0.005122127 0.016356807
0.50645292 -0.0056548463 0.016348327
0.50603801 -0.0061875656 0.016339848
0.5056231 -0.0067202789 0.016331367
0.50520819 -0.0072529977 0.016322887
0.50479329 -0.007785717 0.016314408
0.50437838 -0.0083184363 0.016305927
0.50396347 -0.0088511556 0.016297447
0.50354856 -0.0093838684 0.016288968
0.50313365 -0.0099165877 0.016280487
0.50271875 -0.010449307 0.016272008
0.50230378 -0.010982026 0.016263528
0.50188887 -0.011514746 0.016255047
0.50147396 -0.012047458 0.016246568
0.50105906 -0.012580178 0.016238088
0.50064415 -0.013112897 0.016229607
0.50022924 -0.013645616 0.016221128
0.49981433 -0.014178336 0.016212648
0.50000834 -0.015414293 0.015791887
0.49959278 -0.015947863 0.015783394
0.49917722 -0.016481435 0.015774902
0.49876162 -0.017015001 0.015766408
0.49834606 -0.01754857 0.015757915
0.49853611 -0.018789638 0.015337073
0.49872485 -0.020032411 0.014916207
0.49830794 -0.02056768 0.014907686
0.49849474 -0.021813028 0.014486755
0.49868017 -0.023060052 0.014065819
0.49886426 -0.02430878 0.013644855
0.49844539 -0.024846604 0.013636295
0.49862748 -0.026097881 0.01321529
0.49820793 -0.026636556 0.013206716
0.4977884 -0.027175231 0.013198141
0.49736884 -0.027713906 0.013189566
0.49694929 -0.028252583 0.013180992
0.49712741 -0.029508965 0.012759908
0.49730426 -0.030767094 0.012338774
0.49688336 -0.031307474 0.012330173
0.49646249 -0.031847842 0.012321571
0.49663666 -0.033109333 0.011900404
0.49680948 -0.034372527 0.011479211
0.49519986 -0.033468977 0.012295765
0.50367481 -0.044864468 0.0060980269
0.52424681 0.0057222904 0.012682473
0.52446645 0.0045197369 0.012261218
0.52468467 0.0033155205 0.011839956
0.52426314 0.0027742898 0.011831341
0.52384162 0.002233065 0.011822726
0.52278292 0.0023582329 0.012226811
0.52172548 0.0024851328 0.012630944
0.52130526 0.0019456114 0.012622355
0.5202499 0.0020750328 0.013026507
0.51983035 0.0015363573 0.013017932
0.51941079 0.00099768187 0.013009357
0.51835811 0.0011305097 0.013413565
0.51730669 0.0012650355 0.013817797
0.51625663 0.0014012703 0.014222059
0.51583904 0.00086514419 0.014213525
0.51479089 0.0010039567 0.014617847
0.51437402 0.00046868817 0.014609327
0.51395708 -6.6586239e-05 0.014600806
0.51354021 -0.00060185476 0.014592285
0.51249546 -0.00045881738 0.014996653
0.51207918 -0.00099323411 0.014988147
0.51166296 -0.0015276568 0.01497964
0.51124674 -0.0020620737 0.014971132
0.51083046 -0.0025964964 0.014962626
0.51041424 -0.003130913 0.014954119
0.50937408 -0.0029819198 0.015358583
0.50895852 -0.0035154908 0.01535009
0.50854295 -0.0040490557 0.015341597
0.50812739 -0.0045826267 0.015333103
0.50771183 -0.0051161977 0.015324609
0.5072962 -0.0056497627 0.015316116
0.50688064 -0.0061833337 0.015307623
0.50646508 -0.0067169047 0.015299129
0.50604951 -0.0072504696 0.015290636
0.50563389 -0.0077840406 0.015282142
0.50521833 -0.0083176112 0.015273648
0.50480276 -0.0088511761 0.015265156
0.5043872 -0.0093847476 0.015256662
0.50397164 -0.0099183181 0.015248168
0.50355601 -0.010451883 0.015239675
0.50314045 -0.010985455 0.015231181
0.50272489 -0.011519025 0.015222688
0.50230932 -0.01205259 0.015214195
0.50189376 -0.012586161 0.015205701
0.50147814 -0.013119732 0.015197207
0.50106257 -0.013653297 0.015188714
0.50064701 -0.014186868 0.015180221
0.50023144 -0.014720439 0.015171727
0.5004245 -0.015956992 0.01474995
0.50000823 -0.016491415 0.014741443
0.49959201 -0.017025832 0.014732936
0.49917579 -0.017560255 0.014724429
0.49875954 -0.018094672 0.014715922
0.49894863 -0.019336335 0.014294066
0.49913645 -0.020579731 0.013872161
0.49871889 -0.021115851 0.013863626
0.49890468 -0.022361768 0.0134417
0.49908912 -0.023609389 0.013019749
0.49867022 -0.024147213 0.013011188
0.4988527 -0.025397383 0.012589195
0.49843314 -0.025936058 0.01258062
0.4986136 -0.027188789 0.012158588
0.49819338 -0.02772831 0.012149999
0.49777317 -0.028267844 0.01214141
0.49735296 -0.028807364 0.012132823
0.49812755 -0.030781832 0.011297187
0.497706 -0.031323068 0.011288571
0.49788052 -0.032583449 0.010866417
0.49745831 -0.033125531 0.010857788
0.4970361 -0.033667602 0.010849159
0.49661392 -0.034209684 0.010840531
0.49619171 -0.034751765 0.010831901
0.49695501 -0.036740694 0.0099960351
0.52555043 0.0033565988 0.010797244
0.52512825 0.0028145222 0.010788616
0.52470601 0.0022724397 0.010779986
0.52428383 0.0017303632 0.010771357
0.52322477 0.0018544241 0.011176432
0.52216709 0.0019801885 0.011581532
0.52174616 0.0014398096 0.01157293
0.52069038 0.001568163 0.011978094
0.52027017 0.0010286358 0.011969505
0.51984996 0.00048910856 0.011960916
0.51879692 0.00062082929 0.012366112
0.51774514 0.00075425347 0.012771334
0.51669472 0.00088937528 0.013176584
0.51627648 0.00035240327 0.013168036
0.51522803 0.00049008033 0.013573326
0.5148105 -4.6039964e-05 0.013564792
0.51439291 -0.00058216025 0.013556259
0.51397532 -0.0011182864 0.013547724
0.51293015 -0.00097632315 0.013953106
0.51251328 -0.0015115975 0.013944585
0.51209635 -0.0020468661 0.013936064
0.51167947 -0.0025821405 0.013927544
0.5112626 -0.0031174091 0.013919024
0.51022142 -0.0029703684 0.014324461
0.5098052 -0.0035047911 0.014315954
0.50938892 -0.0040392135 0.014307447
0.5089727 -0.0045736306 0.01429894
0.50855649 -0.0051080529 0.014290432
0.50814021 -0.00564247 0.014281926
0.50772399 -0.0061768927 0.014273419
0.50730777 -0.0067113093 0.014264911
0.50627255 -0.0065566152 0.014670473
0.50585699 -0.0070901802 0.01466198
0.50544143 -0.0076237512 0.014653486
0.5050258 -0.0081573222 0.014644993
0.50461024 -0.0086908871 0.014636499
0.50419468 -0.0092244577 0.014628005
0.50377911 -0.0097580291 0.014619512
0.50336355 -0.010291594 0.014611019
0.50294793 -0.010825165 0.014602525
0.50253236 -0.011358736 0.014594031
0.5021168 -0.011892301 0.014585538
0.50170124 -0.012425872 0.014577045
0.50128561 -0.012959443 0.014568551
0.50087005 -0.013493008 0.014560058
0.50106418 -0.014727608 0.014137306
0.5006479 -0.015262031 0.0141288
0.50023168 -0.015796447 0.014120293
0.49981543 -0.01633087 0.014111785
0.5000062 -0.017569724 0.013688968
0.49958929 -0.018104993 0.013680448
0.49917239 -0.018640267 0.013671927
0.49936059 -0.019882549 0.01324903
0.49954736 -0.021126512 0.01282613
0.49912915 -0.021663485 0.012817582
0.49931395 -0.022909997 0.012394642
0.49949744 -0.024158213 0.011971673
0.49907789 -0.02469689 0.011963098
0.49925938 -0.025947655 0.01154009
0.49883917 -0.026487188 0.011531501
0.4990187 -0.027740544 0.01110843
0.49859783 -0.02828091 0.011099828
0.49817696 -0.02882129 0.011091227
0.49775609 -0.029361669 0.011082625
0.49852934 -0.031336449 0.010244993
0.49810714 -0.03187852 0.010236364
0.49828067 -0.033139501 0.0098131942
0.49845293 -0.034402218 0.0093899723
0.49743494 -0.034225371 0.0097959088
0.53046852 0.0011860809 0.0076967669
0.52599406 0.0028569635 0.0097439121
0.52620971 0.001650669 0.0093205823
0.52451044 0.0024352856 0.010141304
0.52472544 0.0012281727 0.0097179851
0.52366602 0.0013511324 0.010124046
0.52260798 0.0014757892 0.010530137
0.5221864 0.00093455851 0.010521521
0.52113032 0.0010617706 0.010927652
0.52070946 0.00052139163 0.01091905
0.52028859 -1.8987319e-05 0.010910449
0.51923507 0.00011165966 0.011316656
0.51818299 0.00024397719 0.011722865
0.51713222 0.00037799732 0.012129104
0.51671332 -0.00015982644 0.012120543
0.51566452 -2.3256964e-05 0.012526822
0.51524627 -0.00056022895 0.012518275
0.51482809 -0.001097201 0.012509727
0.51440984 -0.0016341789 0.012501179
0.51336437 -0.0014933507 0.012907527
0.51294678 -0.0020294709 0.012898994
0.51252919 -0.0025655972 0.012890459
0.51211166 -0.0031017174 0.012881925
0.51169407 -0.0036378377 0.012873391
0.51065254 -0.0034918769 0.013279842
0.51023561 -0.0040271515 0.013271322
0.50981873 -0.0045624198 0.013262801
0.50940186 -0.0050976942 0.01325428
0.50898492 -0.005632963 0.01324576
0.50856805 -0.0061682374 0.013237239
0.50753117 -0.0060163476 0.013643759
0.50711495 -0.0065507642 0.013635253
0.50669867 -0.0070851869 0.013626745
0.50628245 -0.0076196035 0.013618238
0.50586623 -0.0081540262 0.013609732
0.50544995 -0.0086884433 0.013601224
0.50503373 -0.009222866 0.013592717
0.50461751 -0.0097572822 0.013584211
0.50420123 -0.010291705 0.013575703
0.50378501 -0.010826122 0.013567196
0.50336879 -0.011360545 0.01355869
