# .PCD v0.7 - Point Cloud Data file format
VERSION 0.7
FIELDS x y z
SIZE 4 4 4
TYPE F F F
COUNT 1 1 1
WIDTH 1402
HEIGHT 1
VIEWPOINT 0 0 0 1 0 0 0
POINTS 1402
DATA ascii
0.41982946 0.10115169 0.039629743
0.41950268 0.10073216 0.039623067
0.41917592 0.10031262 0.039616387
0.41884917 0.099893086 0.039609708
0.41913161 0.098812193 0.039126989
0.41880417 0.098391801 0.039120298
0.41847676 0.097971424 0.039113604
0.41814932 0.097551033 0.039106913
0.41782188 0.097130641 0.039100222
0.41749448 0.09671025 0.039093528
0.41716704 0.096289866 0.039086837
0.41683963 0.095869482 0.039080147
0.41651219 0.09544909 0.039073452
0.41618478 0.095028706 0.039066762
0.41585734 0.094608314 0.039060071
0.41552994 0.09418793 0.039053377
0.4152025 0.093767546 0.039046686
0.41487509 0.093347155 0.039039996
0.41454765 0.092926763 0.039033301
0.41422024 0.092506379 0.039026611
0.41389281 0.092085995 0.03901992
0.4135654 0.091665603 0.039013229
0.41323796 0.091245212 0.039006535
0.41291055 0.090824828 0.038999844
0.41258311 0.090404443 0.038993154
0.41225567 0.089984052 0.038986459
0.41192827 0.08956366 0.038979769
0.41160083 0.089143276 0.038973078
0.41127342 0.088722892 0.038966384
0.41094598 0.088302501 0.038959693
0.41061857 0.087882116 0.038953003
0.41088247 0.086777382 0.038469892
0.41055438 0.086356141 0.038463186
0.41022629 0.0859349 0.038456481
0.4104875 0.084826782 0.037973326
0.41015875 0.084404692 0.037966605
0.40983 0.083982602 0.037959889
0.41008857 0.082871079 0.037476681
0.41034582 0.081757829 0.036993433
0.41001576 0.08133404 0.036986686
0.41027102 0.080218263 0.036503412
0.40994027 0.079793617 0.036496654
0.41019353 0.078675285 0.036013335
0.40986213 0.07824979 0.036006562
0.41011345 0.077128872 0.035523184
0.4097814 0.076702528 0.035516396
0.41003066 0.075579092 0.035032999
0.41027865 0.07445395 0.034549575
0.41052526 0.073327109 0.034066122
0.41077057 0.072198562 0.033582643
0.41043586 0.07176882 0.033575799
0.41010115 0.071339063 0.03356896
0.40976644 0.070909321 0.03356212
0.41000846 0.069776483 0.033078551
0.40909702 0.070049822 0.033548437
0.40876228 0.069620073 0.033541597
0.45429525 0.11398032 0.029074069
0.45395392 0.11354207 0.029067092
0.45361257 0.11310381 0.029060116
0.45131928 0.11448804 0.030481737
0.45097992 0.11405233 0.030474802
0.44869259 0.11544423 0.031896546
0.44770658 0.11562111 0.032365881
0.44672188 0.1157997 0.032835245
0.44573852 0.11597998 0.033304635
0.44540313 0.11554939 0.033297781
0.44442171 0.11573226 0.033767235
0.44344166 0.11591681 0.034236696
0.44246295 0.11610305 0.034706183
0.44212955 0.11567501 0.034699369
0.44179618 0.11524696 0.034692556
0.4408201 0.11543661 0.035162095
0.44048738 0.11500941 0.035155293
0.4395133 0.11520161 0.035624877
0.43918121 0.11477527 0.035618089
0.43820909 0.11497007 0.036087733
0.43723831 0.11516652 0.036557384
0.43626887 0.11536469 0.03702705
0.43593881 0.1149409 0.037020307
0.43560871 0.1145171 0.037013561
0.43527865 0.11409331 0.037006814
0.43431249 0.11429574 0.037476569
0.43398309 0.1138728 0.037469834
0.43301892 0.11407777 0.037939619
0.43269017 0.11365568 0.037932903
0.43172804 0.1138632 0.038402725
0.43139994 0.11344196 0.038396019
0.43107185 0.11302072 0.038389314
0.43074378 0.11259948 0.038382612
0.43041569 0.11217824 0.038375907
0.4300876 0.111757 0.038369201
0.4297595 0.11133576 0.038362496
0.42880264 0.11155011 0.038832437
0.4284752 0.11112972 0.038825747
0.42814779 0.11070933 0.038819056
0.42782035 0.11028895 0.038812362
0.42749295 0.10986856 0.038805671
0.42716551 0.10944817 0.03879898
0.4268381 0.10902779 0.038792286
0.42651066 0.1086074 0.038785595
0.42555979 0.10882939 0.039255653
0.42523301 0.10840984 0.039248973
0.42490625 0.10799031 0.039242294
0.4245795 0.10757077 0.039235618
0.42425275 0.10715124 0.039228939
0.42392597 0.10673171 0.039222259
0.42359921 0.10631216 0.039215583
0.42327246 0.10589263 0.039208904
0.42294568 0.10547309 0.039202224
0.42261893 0.10505356 0.039195549
0.42229217 0.10463402 0.039188869
0.42196542 0.10421448 0.03918219
0.42163864 0.10379495 0.03917551
0.42131189 0.10337541 0.039168835
0.42098513 0.10295587 0.039162155
0.42065838 0.10253634 0.039155476
0.4203316 0.1021168 0.0391488
0.42000484 0.10169727 0.039142121
0.41967809 0.10127772 0.039135441
0.41935131 0.10085819 0.039128765
0.41902456 0.10043865 0.039122086
0.4186978 0.10001912 0.039115407
0.41897991 0.09893848 0.038631685
0.4186525 0.098518096 0.038624991
0.41832507 0.098097712 0.0386183
0.41799766 0.09767732 0.038611609
0.41767022 0.097256929 0.038604915
0.41734278 0.096836545 0.038598225
0.41701537 0.09641616 0.038591534
0.41668794 0.095995769 0.03858484
0.41636053 0.095575377 0.038578149
0.41603309 0.095154993 0.038571458
0.41570568 0.094734609 0.038564764
0.41537824 0.094314218 0.038558073
0.41505083 0.093893833 0.038551383
0.4147234 0.093473442 0.038544688
0.41439599 0.093053058 0.038537998
0.41406855 0.092632666 0.038531307
0.41374114 0.092212282 0.038524617
0.4134137 0.091791891 0.038517922
0.4130863 0.091371499 0.038511232
0.41275886 0.090951122 0.038504541
0.41243145 0.090530731 0.038497847
0.41210401 0.090110339 0.038491156
0.41177657 0.089689948 0.038484465
0.41144916 0.089269571 0.038477771
0.41112173 0.088849179 0.03847108
0.41079432 0.088428788 0.03846439
0.41046688 0.088008404 0.038457695
0.41073048 0.08690393 0.037973583
0.41040239 0.086482689 0.037966877
0.41007429 0.086061448 0.037960172
0.41033521 0.084953584 0.037476014
0.41000646 0.084531486 0.037469294
0.40967771 0.084109403 0.037462577
0.40993598 0.082998134 0.036978364
0.41019294 0.081885144 0.036494117
0.40986285 0.081461355 0.036487371
0.41011781 0.080345832 0.036003098
0.40978706 0.079921186 0.03599634
0.41004002 0.078803107 0.035512019
0.40970862 0.078377612 0.035505246
0.40995961 0.077256948 0.035020862
0.40962756 0.076830603 0.035014078
0.40987656 0.075707428 0.034529675
0.41012418 0.074582539 0.034045249
0.41037053 0.073455952 0.033560794
0.41061553 0.072327666 0.033076312
0.41028082 0.071897916 0.033069469
0.40994608 0.071468167 0.033062629
0.40961137 0.071038418 0.03305579
0.4098531 0.06990584 0.032571215
0.40951774 0.069475241 0.032564361
0.40860724 0.069749169 0.033035267
0.45413712 0.11411198 0.028557708
0.45379579 0.11367372 0.028550733
0.45345443 0.11323547 0.028543755
0.45181239 0.1140117 0.029491188
0.45017305 0.1147913 0.030438656
0.44853631 0.11557434 0.0313862
0.44755059 0.11575098 0.031856537
0.44656622 0.11592931 0.032326903
0.44558316 0.11610934 0.032797299
0.44460139 0.11629111 0.033267744
0.44426668 0.11586136 0.033260901
0.44328693 0.11604565 0.033731364
0.44230852 0.11623164 0.034201849
0.44197512 0.1158036 0.034195036
0.44164172 0.11537555 0.034188222
0.44066596 0.11556494 0.034658767
0.43969151 0.11575604 0.035129339
0.43935946 0.1153297 0.035122551
0.43838698 0.11552338 0.035593186
0.43805557 0.11509789 0.035586413
0.43708509 0.11529409 0.036057066
0.43611595 0.11549199 0.036527738
0.43578589 0.1150682 0.036520991
0.4354558 0.11464441 0.036514245
0.43512574 0.11422062 0.036507498
0.4341599 0.1144228 0.036978256
0.43383047 0.11399986 0.036971524
0.43286663 0.11420456 0.037442312
0.43253788 0.11378247 0.037435595
0.43157604 0.11398974 0.037906423
0.43124795 0.1135685 0.037899718
0.43091989 0.11314727 0.037893012
0.43059179 0.11272603 0.037886307
0.42963323 0.11293756 0.038357209
0.42930582 0.11251718 0.038350519
0.42897838 0.11209679 0.038343824
0.42865095 0.1116764 0.038337134
0.42832354 0.11125601 0.038330443
0.4279961 0.11083563 0.038323749
0.42766869 0.11041524 0.038317058
0.42734125 0.10999485 0.038310368
0.42701384 0.10957446 0.038303673
0.42668641 0.10915408 0.038296983
0.426359 0.10873368 0.038290292
0.42540842 0.10895542 0.038761351
0.42508164 0.10853588 0.038754672
0.42475489 0.10811634 0.038747992
0.42442814 0.10769681 0.038741317
0.42410138 0.10727727 0.038734637
0.4237746 0.10685774 0.038727958
0.42344785 0.1064382 0.038721282
0.42312109 0.10601866 0.038714603
0.42279431 0.10559912 0.038707923
0.42246756 0.10517959 0.038701247
0.42214081 0.10476005 0.038694568
0.42181405 0.10434052 0.038687889
0.42148727 0.10392098 0.038681209
0.42116052 0.10350144 0.038674533
0.42083377 0.1030819 0.038667854
0.42050698 0.10266237 0.038661174
0.42018023 0.10224283 0.038654499
0.41985348 0.10182329 0.038647819
0.4195267 0.10140376 0.03864114
0.41919994 0.10098422 0.038634464
0.41887319 0.10056468 0.038627785
0.41854644 0.10014515 0.038621105
0.41882825 0.099064767 0.038136378
0.41850081 0.098644383 0.038129687
0.4181734 0.098223999 0.038122997
0.41784596 0.097803608 0.038116302
0.41751856 0.097383216 0.038109612
0.41719112 0.096962832 0.038102921
0.41686371 0.096542448 0.038096227
0.41653627 0.096122056 0.038089536
0.41620883 0.095701665 0.038082846
0.41588143 0.095281281 0.038076151
0.41555399 0.094860896 0.038069461
0.41522658 0.094440505 0.03806277
0.41489914 0.094020121 0.038056076
0.41457173 0.093599729 0.038049385
0.41424429 0.093179345 0.038042694
0.41391689 0.092758954 0.038036
0.41358945 0.092338569 0.038029309
0.41326204 0.091918178 0.038022619
0.4129346 0.091497794 0.038015928
0.41260719 0.09107741 0.038009234
0.41227975 0.090657018 0.038002543
0.41195235 0.090236627 0.037995853
0.41162491 0.089816242 0.037989158
0.4112975 0.089395858 0.037982468
0.41097006 0.088975467 0.037975777
0.41064262 0.088555075 0.037969083
0.41031522 0.088134691 0.037962392
0.41057849 0.08703047 0.037477277
0.4102504 0.086609229 0.037470572
0.4099223 0.086187989 0.037463866
0.41018292 0.085080378 0.036978707
0.40985417 0.084658287 0.036971986
0.40952542 0.084236205 0.03696527
0.40978336 0.083125189 0.036480054
0.41004002 0.082012452 0.035994802
0.40970993 0.081588663 0.035988055
0.40996459 0.080473393 0.03550278
0.40963385 0.080048755 0.035496023
0.40988648 0.078930929 0.035010699
0.40955511 0.078505434 0.035003927
0.4098058 0.077385023 0.03451854
0.40947372 0.076958679 0.034511752
0.40972242 0.075835757 0.034026347
0.40996975 0.074711129 0.033540916
0.41021577 0.073584795 0.033055462
0.41046047 0.072456762 0.032569978
0.41012576 0.07202702 0.032563135
0.40979105 0.071597263 0.032556295
0.41003314 0.070465796 0.032070734
0.40969774 0.070035197 0.032063879
0.40936238 0.069604598 0.032057025
0.40902701 0.069173999 0.03205017
0.45531502 0.11451744 0.027577169
0.45397902 0.11424364 0.028041348
0.45363766 0.11380538 0.028034372
0.4532963 0.11336713 0.028027395
0.45165488 0.11414285 0.028976835
0.45001614 0.11492194 0.029926306
0.44739461 0.11588085 0.031347197
0.44641054 0.11605892 0.031818565
0.44542781 0.1162387 0.032289959
0.44444633 0.11642021 0.03276141
0.44411162 0.11599046 0.032754567
0.44313219 0.1161745 0.033226032
0.44215408 0.11636023 0.033697523
0.44182068 0.11593219 0.03369071
0.44148728 0.11550414 0.033683896
0.44051182 0.11569328 0.034155443
0.4395377 0.11588412 0.034627013
0.43920565 0.11545777 0.034620225
0.43823344 0.11565121 0.035091866
0.43726262 0.1158463 0.035563506
0.43693188 0.11542165 0.035556749
0.43596306 0.11561931 0.036028422
0.43563297 0.11519551 0.036021676
0.43530291 0.11477172 0.036014929
0.43497282 0.11434793 0.036008183
0.43400729 0.11454985 0.036479946
0.43367788 0.11412691 0.036473215
0.43271434 0.11433136 0.036945
0.43238559 0.11390927 0.036938284
0.43142405 0.11411629 0.037410114
0.43109599 0.11369505 0.037403408
0.43076789 0.11327381 0.037396703
0.42980897 0.11348424 0.0378686
0.42948157 0.11306385 0.03786191
0.42915413 0.11264347 0.037855215
0.42882672 0.11222307 0.037848525
0.42849928 0.11180269 0.037841834
0.42817187 0.1113823 0.03783514
0.42784443 0.11096191 0.037828449
0.427517 0.11054152 0.037821759
0.42718959 0.11012114 0.037815064
0.42686215 0.10970075 0.037808374
0.42653474 0.10928036 0.037801683
0.4262073 0.10885997 0.037794989
0.42525706 0.10908145 0.03826705
0.42493027 0.10866191 0.03826037
0.42460352 0.10824238 0.038253691
0.42427677 0.10782284 0.038247015
0.42394999 0.10740331 0.038240336
0.42362323 0.10698377 0.038233656
0.42329648 0.10656423 0.038226981
0.4229697 0.1061447 0.038220301
0.42264295 0.10572515 0.038213622
0.42231619 0.10530563 0.038206942
0.42198944 0.10488608 0.038200267
0.42166266 0.10446655 0.038193587
0.42133591 0.10404701 0.038186908
0.42100915 0.10362747 0.038180232
0.42068237 0.10320794 0.038173553
0.42035562 0.1027884 0.038166873
0.42002887 0.10236887 0.038160197
0.41970211 0.10194933 0.038153518
0.41937533 0.10152979 0.038146839
0.41904858 0.10111025 0.038140163
0.41872182 0.10069072 0.038133483
0.41839507 0.10027118 0.038126804
0.41867656 0.099191062 0.037641078
0.41834915 0.098770671 0.037634388
0.41802171 0.098350286 0.037627693
0.4176943 0.097929895 0.037621003
0.41736686 0.097509503 0.037614312
0.41703945 0.097089119 0.037607618
0.41671202 0.096668735 0.037600927
0.41638461 0.096248344 0.037594236
0.41605717 0.095827952 0.037587542
0.41572976 0.095407568 0.037580851
0.41540232 0.094987184 0.037574161
0.41507488 0.094566792 0.037567466
0.41474748 0.094146408 0.037560776
0.41442004 0.093726017 0.037554085
0.41409263 0.093305632 0.037547391
0.41376519 0.092885241 0.0375407
0.41343778 0.092464857 0.03753401
0.41311035 0.092044465 0.037527315
0.41278294 0.091624081 0.037520625
0.4124555 0.091203697 0.037513934
0.41212809 0.090783305 0.03750724
0.41180065 0.090362914 0.037500549
0.41147324 0.08994253 0.037493858
0.41114581 0.089522146 0.037487164
0.4108184 0.089101754 0.037480474
0.41049096 0.088681363 0.037473783
0.41016355 0.088260978 0.037467092
0.4104265 0.087157011 0.036980972
0.41009843 0.08673577 0.036974266
0.40977034 0.086314529 0.036967561
0.41003063 0.085207179 0.036481395
0.40970188 0.084785089 0.036474675
0.40937313 0.084362999 0.036467958
0.40963078 0.083252244 0.035981745
0.40988711 0.082139768 0.035495486
0.40955704 0.081715971 0.03548874
0.40981138 0.080600962 0.035002463
0.40948063 0.080176316 0.034995705
0.40973297 0.079058751 0.034509376
0.40940157 0.078633256 0.034502603
0.40965196 0.077513106 0.034016214
0.40931991 0.077086762 0.034009427
0.40956828 0.075964093 0.033523023
0.40981531 0.074839719 0.03303659
0.41006103 0.073713645 0.03255013
0.41030541 0.072585866 0.032063644
0.4099707 0.072156116 0.032056801
0.40963599 0.071726367 0.032049961
0.40987778 0.070595153 0.031563397
0.40954238 0.070164554 0.031556543
0.40920702 0.069733955 0.031549688
0.40887162 0.069303356 0.031542834
0.40853626 0.068872757 0.031535979
0.45515659 0.11464935 0.02705981
0.45382088 0.11437529 0.027524987
0.45347953 0.11393704 0.027518012
0.4531382 0.11349878 0.027511036
0.45149738 0.114274 0.028462481
0.4505083 0.11444501 0.028934743
0.44887218 0.11522614 0.029886262
0.44659093 0.11661998 0.031317092
0.44625488 0.11618853 0.031310227
0.44527245 0.11636806 0.031782627
0.44429126 0.11654931 0.032255072
0.44395655 0.11611956 0.032248233
0.44297743 0.11630334 0.032720704
0.44199961 0.11648882 0.033193197
0.44166625 0.11606077 0.03318638
0.44133285 0.11563273 0.033179566
0.44035769 0.11582161 0.033652116
0.43938386 0.1160122 0.034124691
0.43905181 0.11558586 0.034117907
0.43807992 0.11577903 0.034590542
0.43710941 0.11597387 0.035063189
0.43677866 0.11554922 0.035056427
0.43581015 0.11574662 0.035529107
0.43548009 0.11532283 0.03552236
0.43515 0.11489903 0.035515618
0.43481994 0.11447524 0.035508871
0.4338547 0.11467691 0.035981633
0.43352529 0.11425397 0.035974897
0.43256205 0.11445817 0.036447693
0.4322333 0.11403608 0.036440976
0.43127209 0.11424283 0.036913805
0.430944 0.11382159 0.036907099
0.4306159 0.11340035 0.036900394
0.42965731 0.11361053 0.037373297
0.42932987 0.11319014 0.037366603
0.42900246 0.11276975 0.037359912
0.42867503 0.11234937 0.037353221
0.42834762 0.11192898 0.037346527
0.42802018 0.11150859 0.037339836
0.42769277 0.1110882 0.037333146
0.42736533 0.11066782 0.037326451
0.42703792 0.11024743 0.037319761
0.42671049 0.10982703 0.03731307
0.42638305 0.10940665 0.037306376
0.42605564 0.10898626 0.037299685
0.42510566 0.10920748 0.037772749
0.42477891 0.10878795 0.037766069
0.42445216 0.10836841 0.03775939
0.4241254 0.10794888 0.037752714
0.42379862 0.10752934 0.037746035
0.42347187 0.1071098 0.037739355
0.42314512 0.10669027 0.037732679
0.42281833 0.10627072 0.037726
0.42249158 0.10585119 0.037719321
0.42216483 0.10543165 0.037712641
0.42183807 0.10501212 0.037705965
0.42151129 0.10459258 0.037699286
0.42118454 0.10417304 0.037692606
0.42085779 0.10375351 0.037685931
0.420531 0.10333396 0.037679251
0.42020425 0.10291444 0.037672572
0.4198775 0.1024949 0.037665896
0.41955075 0.10207536 0.037659217
0.41922396 0.10165583 0.037652537
0.41889721 0.10123628 0.037645862
0.41857046 0.10081675 0.037639182
0.41824368 0.10039721 0.037632503
0.41852489 0.099317349 0.037145775
0.41819745 0.098896958 0.03713908
0.41787004 0.098476574 0.03713239
0.41754261 0.098056182 0.037125699
0.4172152 0.097635798 0.037119005
0.41688776 0.097215407 0.037112314
0.41656035 0.096795022 0.037105624
0.41623291 0.096374631 0.037098929
0.41590551 0.095954247 0.037092239
0.41557807 0.095533863 0.037085548
0.41525066 0.095113471 0.037078854
0.41492322 0.09469308 0.037072163
0.41459581 0.094272695 0.037065472
0.41426837 0.093852311 0.037058778
0.41394094 0.09343192 0.037052087
0.41361353 0.093011528 0.037045397
0.41328609 0.092591144 0.037038703
0.41295868 0.09217076 0.037032012
0.41263124 0.091750368 0.037025321
0.41230384 0.091329984 0.037018627
0.4119764 0.090909593 0.037011936
0.41164899 0.090489209 0.037005246
0.41132155 0.090068817 0.036998551
0.41099414 0.089648433 0.036991861
0.4106667 0.089228041 0.03698517
0.4103393 0.08880765 0.036978479
0.41001186 0.088387273 0.036971785
0.41027454 0.087283559 0.036484662
0.40994644 0.086862318 0.036477957
0.40961835 0.086441077 0.036471251
0.40987834 0.085333981 0.035984088
0.40954959 0.08491189 0.035977367
0.40922084 0.0844898 0.035970651
0.40947819 0.083379298 0.035483427
0.40973422 0.082267076 0.034996174
0.40940413 0.081843287 0.034989428
0.40965816 0.080728531 0.034502145
0.40932742 0.080303885 0.034495387
0.40957946 0.079186574 0.034008056
0.40924805 0.078761086 0.034001283
0.40949816 0.077641182 0.033513892
0.40916607 0.077214837 0.033507109
0.40941414 0.076092429 0.033019695
0.40966088 0.074968308 0.032532264
0.40990627 0.073842488 0.032044802
0.41015035 0.07271497 0.03155731
0.40981564 0.07228522 0.031550467
0.40948093 0.071855471 0.031543627
0.40972242 0.07072451 0.031056061
0.40938702 0.070293911 0.031049207
0.40905166 0.069863312 0.031042352
0.40871626 0.069432713 0.0310355
0.4083809 0.069002114 0.031028645
0.45400411 0.11494521 0.027015604
0.45366275 0.11450695 0.027008628
0.4533214 0.11406869 0.027001651
0.45232996 0.11423608 0.027474886
0.45133987 0.11440514 0.027948128
0.45035109 0.11457589 0.028421393
0.44806746 0.11596472 0.029855169
0.44643524 0.1167496 0.030808756
0.44609922 0.11631814 0.030801889
0.44511706 0.11649741 0.031275291
0.4441362 0.11667842 0.031748738
0.44380149 0.11624866 0.031741899
0.44282269 0.11643219 0.032215372
0.44184518 0.11661741 0.032688867
0.44151181 0.11618936 0.032682054
0.44117841 0.11576132 0.03267524
0.44020355 0.11594994 0.033148792
0.43923005 0.11614028 0.033622369
0.43825781 0.11633234 0.034095995
0.43792641 0.11590685 0.034089223
0.4369562 0.11610143 0.034562871
0.43662545 0.11567679 0.034556109
0.43565726 0.11587393 0.035029795
0.43532717 0.11545014 0.035023049
0.43499711 0.11502635 0.035016302
0.43466702 0.11460255 0.035009556
0.43370211 0.11480396 0.035483319
0.43337268 0.11438102 0.035476588
0.43240976 0.11458497 0.035950381
0.43208101 0.11416288 0.035943665
0.4311201 0.11436938 0.036417499
0.430792 0.11394814 0.036410794
0.43046391 0.1135269 0.036404088
0.42950562 0.11373682 0.03687799
0.42917821 0.11331642 0.036871299
0.42885077 0.11289604 0.036864609
0.42852336 0.11247566 0.036857914
0.42819592 0.11205526 0.036851224
0.42786852 0.11163488 0.036844533
0.42754108 0.11121449 0.036837839
0.42721367 0.1107941 0.036831148
0.42688623 0.11037371 0.036824457
0.42655882 0.10995333 0.036817763
0.42623138 0.10953294 0.036811072
0.42590395 0.10911255 0.036804382
0.4249543 0.10933352 0.037278447
0.42462754 0.10891398 0.037271768
0.42430079 0.10849444 0.037265088
0.42397401 0.10807491 0.037258413
0.42364725 0.10765537 0.037251733
0.4233205 0.10723583 0.037245054
0.42299375 0.1068163 0.037238378
0.42266697 0.10639676 0.037231699
0.42234021 0.10597722 0.037225019
0.42201346 0.10555769 0.03721834
0.42168668 0.10513815 0.037211664
0.42135993 0.10471861 0.037204985
0.42103317 0.10429908 0.037198305
0.42070639 0.10387954 0.037191629
0.42037964 0.10346 0.03718495
0.42005289 0.10304047 0.037178271
0.41972613 0.10262093 0.037171595
0.41939935 0.10220139 0.037164915
0.4190726 0.10178186 0.037158236
0.41874585 0.10136232 0.03715156
0.41841906 0.10094278 0.037144881
0.41809231 0.10052325 0.037138201
0.4183732 0.099443637 0.036650468
0.41804579 0.099023245 0.036643777
0.41771835 0.098602861 0.036637086
0.41739094 0.09818247 0.036630392
0.4170635 0.097762085 0.036623701
0.4167361 0.097341694 0.036617011
0.41640866 0.09692131 0.036610316
0.41608125 0.096500918 0.036603626
0.41575381 0.096080534 0.036596935
0.4154264 0.09566015 0.036590241
0.41509897 0.095239758 0.03658355
0.41477156 0.094819367 0.03657686
0.41444412 0.094398983 0.036570165
0.41411671 0.093978599 0.036563475
0.41378927 0.093558207 0.036556784
0.41346183 0.093137816 0.03655009
0.41313443 0.092717431 0.036543399
0.41280699 0.092297047 0.036536708
0.41247958 0.091876656 0.036530014
0.41215214 0.091456272 0.036523324
0.41182473 0.09103588 0.036516633
0.41149729 0.090615496 0.036509939
0.41116989 0.090195104 0.036503248
0.41084245 0.08977472 0.036496557
0.41051504 0.089354329 0.036489863
0.4101876 0.088933945 0.036483172
0.40986019 0.088513561 0.036476482
0.41012254 0.0874101 0.035988353
0.40979445 0.086988859 0.035981648
0.40946636 0.086567618 0.035974942
0.40972605 0.085460782 0.035486776
0.4093973 0.085038692 0.035480056
0.40906855 0.084616601 0.035473339
0.40932557 0.083506353 0.034985118
0.4095813 0.082394384 0.034496859
0.40925121 0.081970595 0.034490112
0.40950495 0.080856092 0.034001827
0.4091742 0.080431454 0.033995066
0.40942594 0.079314396 0.033506736
0.40909454 0.078888908 0.03349996
0.40934432 0.077769257 0.033011571
0.40901226 0.077342913 0.033004783
0.40926 0.076220758 0.032516371
0.40950644 0.075096898 0.032027934
0.40975153 0.073971331 0.03153947
0.40999532 0.072844066 0.031050975
0.40966061 0.072414324 0.031044133
0.40932587 0.071984567 0.031037293
0.40899116 0.071554825 0.031030452
0.40923166 0.070423268 0.030541871
0.4088963 0.069992669 0.030535016
0.4085609 0.06956207 0.030528162
0.40822554 0.069131471 0.030521307
0.45449772 0.11447407 0.026018092
0.45350462 0.11463861 0.026492268
0.4525128 0.11480489 0.026966492
0.45152238 0.11497284 0.027440719
0.45053324 0.11514249 0.027914975
0.44954547 0.11531384 0.028389258
0.44791117 0.11609484 0.029344825
0.44627959 0.11687921 0.030300414
0.44594353 0.11644776 0.030293547
0.4449617 0.11662676 0.030767955
0.44398117 0.11680751 0.03124241
0.44364646 0.11637776 0.031235568
0.44266793 0.11656103 0.03171004
0.44169074 0.116746 0.032184541
0.44135734 0.11631795 0.032177728
0.44102398 0.11588991 0.032170914
0.44004944 0.11607828 0.032645468
0.43907622 0.11626835 0.033120047
0.4381043 0.11646016 0.033594679
0.4377729 0.11603467 0.033587903
0.43680298 0.116229 0.034062553
0.43647227 0.11580436 0.034055792
0.43550435 0.11600124 0.034530479
0.43517426 0.11557745 0.034523733
0.4348442 0.11515366 0.034516986
0.43451411 0.11472987 0.03451024
0.43354949 0.11493102 0.03498501
0.43322009 0.11450808 0.034978278
0.43225747 0.11471177 0.035453074
0.43192872 0.11428968 0.035446357
0.43096811 0.11449592 0.035921194
0.43064001 0.11407468 0.035914488
0.43031195 0.11365344 0.035907783
0.42935395 0.1138631 0.036382686
0.42902651 0.11344272 0.036375996
0.42869911 0.11302233 0.036369301
0.42837167 0.11260194 0.036362611
0.42804426 0.11218155 0.03635592
0.42771682 0.11176117 0.036349226
0.42738941 0.11134078 0.036342535
0.42706198 0.11092039 0.036335845
0.42673457 0.11050001 0.03632915
0.42640713 0.11007962 0.03632246
0.42607972 0.10965922 0.036315769
0.42575228 0.10923884 0.036309075
0.42480293 0.10945955 0.036784146
0.42447618 0.10904001 0.036777467
0.42414939 0.10862047 0.036770787
0.42382264 0.10820094 0.036764111
0.42349589 0.1077814 0.036757432
0.42316914 0.10736187 0.036750752
0.42284235 0.10694233 0.036744077
0.4225156 0.10652279 0.036737397
0.42218885 0.10610326 0.036730718
0.4218621 0.10568372 0.036724038
0.42153531 0.10526419 0.036717363
0.42120856 0.10484464 0.036710683
0.42088181 0.10442511 0.036704004
0.42055503 0.10400558 0.036697328
0.42022827 0.10358603 0.036690649
0.41990152 0.10316651 0.036683969
0.41957477 0.10274696 0.036677293
0.41924798 0.10232743 0.036670614
0.41892123 0.10190789 0.036663935
0.41859448 0.10148835 0.036657259
0.4182677 0.10106882 0.036650579
0.41794094 0.10064928 0.0366439
0.41822153 0.099569924 0.036155164
0.4178941 0.099149533 0.036148474
0.41756669 0.098729149 0.036141779
0.41723925 0.098308764 0.036135089
0.41691184 0.097888373 0.036128398
0.4165844 0.097467981 0.036121704
0.41625699 0.097047597 0.036115013
0.41592956 0.096627213 0.036108322
0.41560215 0.096206822 0.036101628
0.41527471 0.095786437 0.036094937
0.4149473 0.095366046 0.036088247
0.41461986 0.094945662 0.036081553
0.41429245 0.094525278 0.036074862
0.41396502 0.094104886 0.036068171
0.41363761 0.093684494 0.036061477
0.41331017 0.09326411 0.036054786
0.41298276 0.092843726 0.036048096
0.41265532 0.092423335 0.036041401
0.41232789 0.092002943 0.036034711
0.41200048 0.091582559 0.03602802
0.41167304 0.091162175 0.036021326
0.41134563 0.090741783 0.036014635
0.41101819 0.090321392 0.036007944
0.41069078 0.089901008 0.03600125
0.41036335 0.089480616 0.03599456
0.41003594 0.089060232 0.035987869
0.4097085 0.088639848 0.035981178
0.40997055 0.087536648 0.035492051
0.40964246 0.087115407 0.035485346
0.40931436 0.086694166 0.03547864
0.40957376 0.085587583 0.034989469
0.40924501 0.085165486 0.034982748
0.40891626 0.084743403 0.034976032
0.40917298 0.083633408 0.034486808
0.40942839 0.082521699 0.033997543
0.40909833 0.08209791 0.033990797
0.40935174 0.080983661 0.03350151
0.40902099 0.080559023 0.033494748
0.4092724 0.079442218 0.033005416
0.408941 0.07901673 0.032998644
0.40919048 0.07789734 0.032509249
0.40885842 0.077470995 0.032502461
0.40910587 0.076349095 0.032013047
0.409352 0.075225487 0.031523608
0.40959677 0.074100174 0.031034138
0.40984026 0.072973169 0.030544644
0.40950555 0.07254342 0.030537803
0.40917081 0.07211367 0.030530961
0.40941167 0.070983216 0.030041391
0.4090763 0.070552617 0.030034536
0.40874094 0.070122026 0.030027682
0.40840554 0.069691427 0.030020827
0.40807018 0.069260828 0.030013973
0.45334649 0.11477027 0.025975907
0.452355 0.11493629 0.026451133
0.45136487 0.11510398 0.026926367
0.45037603 0.11527338 0.027401624
0.44938856 0.11544447 0.027876912
0.44775489 0.11622497 0.028834483
0.4461239 0.11700882 0.029792078
0.44578788 0.11657737 0.02978521
0.44480634 0.11675612 0.030260617
0.44382611 0.11693662 0.030736076
0.4434914 0.11650687 0.030729234
0.4425132 0.11668988 0.03120471
0.44153631 0.11687459 0.031680208
0.44120291 0.11644654 0.031673394
0.44086954 0.1160185 0.031666581
0.4398953 0.11620661 0.03214214
0.43892241 0.11639643 0.032617722
0.43795076 0.11658798 0.033093356
0.43698052 0.1167812 0.033568993
0.43664977 0.11635657 0.033562236
0.43631905 0.11593192 0.033555474
0.43535143 0.11612855 0.034031164
0.43502137 0.11570476 0.034024417
0.43469128 0.11528096 0.034017671
0.43436122 0.11485717 0.034010928
0.43339691 0.11505807 0.034486696
0.4330675 0.11463513 0.034479961
0.43273807 0.11421219 0.034473229
0.43177643 0.11441647 0.034949046
0.43081611 0.11462246 0.035424884
0.43048805 0.11420123 0.035418179
0.43015996 0.11377998 0.035411473
0.42920226 0.11398939 0.035887383
0.42887485 0.11356901 0.035880689
0.42854741 0.11314861 0.035873998
0.42822 0.11272823 0.035867307
0.42789257 0.11230784 0.035860613
0.42756516 0.11188745 0.035853922
0.42723772 0.11146706 0.035847232
0.42691031 0.11104668 0.035840537
0.42658287 0.1106263 0.035833847
0.42625546 0.1102059 0.035827156
0.42592803 0.10978552 0.035820462
0.42560062 0.10936513 0.035813771
0.42465156 0.10958558 0.036289845
0.42432481 0.10916604 0.036283165
0.42399803 0.10874651 0.036276486
0.42367128 0.10832697 0.03626981
0.42334452 0.10790744 0.036263131
0.42301777 0.1074879 0.036256451
0.42269099 0.10706836 0.036249772
0.42236423 0.10664883 0.036243096
0.42203748 0.10622929 0.036236417
0.4217107 0.10580976 0.036229737
0.42138395 0.10539022 0.036223061
0.42105719 0.10497068 0.036216382
0.42073044 0.10455114 0.036209702
0.42040366 0.1041316 0.036203027
0.42007691 0.10371207 0.036196347
0.41975015 0.10329253 0.036189668
0.41942337 0.102873 0.036182992
0.41909662 0.10245346 0.036176313
0.41876987 0.10203392 0.036169633
0.41844311 0.10161439 0.036162958
0.41811633 0.10119484 0.036156278
0.41778958 0.10077532 0.036149599
0.41806984 0.099696212 0.035659861
0.41774243 0.09927582 0.035653166
0.41741502 0.098855443 0.035646476
0.41708758 0.098435052 0.035639785
0.41676015 0.09801466 0.035633091
0.41643274 0.097594269 0.0356264
0.4161053 0.097173885 0.03561971
0.41577789 0.0967535 0.035613015
0.41545045 0.096333109 0.035606325
0.41512305 0.095912725 0.035599634
0.41479561 0.095492333 0.03559294
0.4144682 0.095071949 0.035586249
0.41414076 0.094651565 0.035579558
0.41381335 0.094231173 0.035572864
0.41348591 0.093810782 0.035566173
0.41315851 0.093390398 0.035559483
0.41283107 0.092970014 0.035552789
0.41250366 0.092549622 0.035546098
0.41217622 0.09212923 0.035539407
0.41184881 0.091708846 0.035532713
0.41152138 0.091288462 0.035526022
0.41119394 0.090868071 0.035519332
0.41086653 0.090447679 0.035512637
0.41053909 0.090027295 0.035505947
0.41021168 0.089606911 0.035499256
0.40988424 0.089186519 0.035492562
0.40955684 0.088766135 0.035485871
0.40981856 0.087663189 0.034995742
0.4094905 0.087241948 0.034989037
0.4091624 0.086820707 0.034982331
0.40942147 0.085714377 0.034492157
0.40909272 0.085292287 0.034485437
0.40876397 0.084870197 0.03447872
0.40902039 0.083760463 0.033988491
0.4092755 0.082649007 0.033498231
0.40894541 0.082225218 0.033491485
0.40919852 0.08111123 0.033001192
0.40886778 0.080686584 0.032994431
0.40911889 0.07957004 0.032504097
0.40878749 0.079144552 0.032497324
0.40903667 0.078025416 0.032006923
0.40870461 0.077599071 0.032000139
0.40895173 0.076477431 0.03150972
0.40919754 0.075354077 0.031019276
0.40944204 0.074229024 0.030528808
0.40968519 0.073102266 0.03003831
0.40935048 0.072672524 0.030031469
0.4095917 0.071543179 0.029540908
0.40925631 0.071112573 0.029534053
0.40892094 0.070681974 0.029527199
0.40858558 0.070251375 0.029520344
0.40825018 0.069820784 0.029513489
0.40791482 0.069390185 0.029506635
0.45253786 0.1155051 0.025942739
0.45154735 0.11567169 0.026418962
0.45055819 0.11583997 0.02689521
0.44957036 0.11600997 0.027371483
0.44858384 0.11618166 0.027847786
0.44759861 0.11635509 0.028324135
0.44596824 0.11713843 0.02928374
0.44563219 0.11670698 0.029276872
0.44465098 0.11688548 0.029753281
0.44367105 0.11706571 0.030229742
0.44333634 0.11663596 0.0302229
0.44235843 0.11681872 0.03069938
0.44138187 0.11700318 0.031175882
0.44104847 0.11657513 0.031169068
0.44071507 0.11614709 0.031162255
0.43974116 0.11633494 0.031638816
0.43876857 0.11652451 0.032115404
0.43779725 0.11671581 0.032592036
0.4368273 0.11690877 0.033068676
0.43649656 0.11648414 0.033061918
0.43616584 0.11605949 0.033055156
0.43519855 0.11625586 0.033531848
0.43486845 0.11583207 0.033525102
0.43453839 0.11540828 0.033518355
0.4342083 0.11498449 0.033511609
0.43324429 0.11518513 0.033988383
0.43291488 0.11476219 0.033981651
0.43195289 0.11496536 0.034458455
0.43162414 0.11454327 0.034451738
0.43066415 0.11474901 0.034928579
0.43033606 0.11432777 0.034921873
0.43000796 0.11390653 0.034915168
0.42905059 0.11411569 0.035392076
0.42872316 0.11369529 0.035385385
0.42839575 0.11327491 0.035378695
0.42806831 0.11285452 0.035372
0.4277409 0.11243413 0.03536531
0.42741346 0.11201374 0.035358619
0.42708606 0.11159335 0.035351925
0.42675862 0.11117297 0.035345234
0.42643121 0.11075258 0.035338543
0.42610377 0.11033219 0.035331849
0.42577636 0.10991181 0.035325158
0.42544892 0.10949142 0.035318468
0.4245002 0.10971162 0.035795543
0.42417344 0.10929208 0.035788864
0.42384666 0.10887254 0.035782184
0.42351991 0.10845301 0.035775509
0.42319316 0.10803347 0.035768829
0.42286637 0.10761394 0.03576215
0.42253962 0.10719439 0.03575547
0.42221287 0.10677486 0.035748795
0.42188612 0.10635532 0.035742115
0.42155933 0.10593579 0.035735436
0.42123258 0.10551625 0.03572876
0.42090583 0.10509671 0.035722081
0.42057905 0.10467718 0.035715401
0.42025229 0.10425764 0.035708725
0.41992554 0.1038381 0.035702046
0.41959879 0.10341857 0.035695367
0.41927201 0.10299903 0.035688691
0.41894525 0.10257949 0.035682011
0.4186185 0.10215995 0.035675332
0.41829172 0.10174042 0.035668656
0.41796497 0.10132088 0.035661977
0.41763821 0.10090135 0.035655297
0.41791818 0.099822499 0.035164554
0.41759074 0.099402115 0.035157863
0.41726333 0.098981731 0.035151172
0.41693589 0.098561339 0.035144478
0.41660848 0.098140948 0.035137787
0.41628104 0.097720563 0.035131097
0.41595364 0.097300179 0.035124402
0.4156262 0.096879788 0.035117712
0.41529879 0.096459396 0.035111021
0.41497135 0.096039012 0.035104327
0.41464394 0.095618628 0.035097636
0.41431651 0.095198236 0.035090946
0.4139891 0.094777852 0.035084251
0.41366166 0.094357461 0.035077561
0.41333425 0.093937077 0.03507087
0.41300681 0.093516685 0.035064176
0.4126794 0.093096301 0.035057485
0.41235197 0.092675909 0.035050794
0.41202456 0.092255525 0.0350441
0.41169712 0.091835141 0.03503741
0.41136971 0.09141475 0.035030719
0.41104227 0.090994358 0.035024025
0.41071483 0.090573967 0.035017334
0.41038743 0.09015359 0.035010643
0.41005999 0.089733198 0.035003949
0.40973258 0.089312807 0.034997258
0.40940514 0.088892423 0.034990568
0.4096666 0.087789737 0.034499433
0.4093385 0.087368496 0.034492727
0.40901041 0.086947255 0.034486022
0.40926918 0.085841179 0.03399485
0.40894043 0.085419089 0.033988129
0.40861169 0.084996998 0.033981413
0.40886778 0.083887517 0.033490181
0.40912259 0.082776323 0.032998912
0.40879253 0.082352526 0.032992166
0.40904531 0.081238799 0.032500874
0.40871456 0.080814153 0.032494113
0.40896538 0.079697862 0.032002777
0.40863398 0.079272375 0.031996001
0.40888283 0.078153491 0.031504605
0.40855077 0.077727146 0.031497817
0.40879762 0.07660576 0.031006396
0.4090431 0.075482666 0.030514948
0.40928727 0.074357867 0.030023478
0.40953013 0.073231369 0.029531976
0.40919542 0.07280162 0.029525135
0.40943635 0.071672536 0.02903357
0.40910095 0.07124193 0.029026715
0.40876558 0.070811331 0.029019861
0.40843019 0.070380732 0.029013008
0.40809482 0.069950134 0.029006153
0.40775946 0.069519535 0.028999299
0.45172986 0.11623939 0.025911553
0.45138985 0.11580283 0.025904605
0.45040101 0.11597086 0.026381856
0.44941345 0.1161406 0.026859136
0.44842726 0.11631203 0.027336443
0.44744232 0.11648521 0.02781379
0.44581258 0.11726805 0.0287754
0.44547653 0.11683659 0.028768532
0.44449562 0.11701483 0.029245947
0.44351599 0.11719482 0.029723406
0.44318128 0.11676507 0.029716566
0.4415608 0.11755981 0.030678367
0.44122744 0.11713177 0.030671554
0.44089404 0.11670372 0.03066474
0.44056064 0.11627568 0.030657927
0.43958703 0.11646328 0.03113549
0.43861473 0.11665259 0.031613078
0.43764374 0.11684363 0.032090716
0.43667409 0.11703634 0.032568358
0.43634334 0.1166117 0.0325616
0.43601263 0.11618706 0.032554839
0.43504563 0.11638317 0.033032533
0.43471554 0.11595938 0.033025786
0.43438548 0.11553559 0.03301904
0.43405539 0.1151118 0.033012293
0.4330917 0.11531218 0.033490073
0.4327623 0.11488924 0.033483341
0.4318006 0.11509217 0.033961143
0.43147185 0.11467008 0.033954427
0.43051216 0.11487555 0.034432273
0.43018407 0.11445431 0.034425568
0.42985597 0.11403307 0.034418862
0.42889893 0.11424197 0.034896772
0.42857149 0.11382158 0.034890082
0.42824405 0.1134012 0.034883387
0.42791665 0.11298081 0.034876697
0.42758921 0.11256042 0.034870006
0.4272618 0.11214003 0.034863312
0.42693436 0.11171965 0.034856621
0.42660695 0.11129925 0.034849931
0.42627952 0.11087887 0.034843236
0.42595211 0.11045848 0.034836546
0.42562467 0.11003809 0.034829855
0.42529726 0.1096177 0.034823161
0.42434883 0.10983765 0.035301238
0.42402205 0.10941811 0.035294559
0.4236953 0.10899857 0.035287879
0.42336854 0.10857904 0.035281204
0.42304179 0.1081595 0.035274524
0.42271501 0.10773996 0.035267845
0.42238826 0.10732043 0.035261169
0.4220615 0.10690089 0.03525449
0.42173472 0.10648135 0.03524781
0.42140797 0.10606182 0.035241131
0.42108122 0.10564228 0.035234455
0.42075446 0.10522275 0.035227776
0.42042768 0.10480321 0.035221096
0.42010093 0.10438367 0.03521442
0.41977417 0.10396414 0.035207741
0.41944739 0.1035446 0.035201062
0.41912064 0.10312507 0.035194386
0.41879389 0.10270552 0.035187706
0.41846713 0.10228599 0.035181027
0.41814035 0.10186645 0.035174351
0.4178136 0.10144691 0.035167672
0.41748685 0.10102738 0.035160992
0.41776651 0.099948786 0.03466925
0.41743907 0.099528402 0.03466256
0.41711167 0.099108018 0.034655865
0.41678423 0.098687626 0.034649175
0.41645679 0.098267235 0.034642484
0.41612938 0.097846851 0.03463579
0.41580194 0.097426467 0.034629099
0.41547453 0.097006075 0.034622408
0.4151471 0.096585684 0.034615714
0.41481969 0.096165299 0.034609023
0.41449225 0.095744915 0.034602333
0.41416484 0.095324524 0.034595639
0.4138374 0.09490414 0.034588948
0.41350999 0.094483748 0.034582257
0.41318256 0.094063364 0.034575563
0.41285515 0.093642972 0.034568872
0.41252771 0.093222588 0.034562182
0.4122003 0.092802197 0.034555487
0.41187286 0.092381813 0.034548797
0.41154546 0.091961429 0.034542106
0.41121802 0.091541037 0.034535412
0.41089061 0.091120645 0.034528721
0.41056317 0.090700261 0.034522031
0.41023576 0.090279877 0.034515336
0.40990832 0.089859486 0.034508646
0.40958089 0.089439094 0.034501955
0.40925348 0.08901871 0.034495264
0.40951461 0.087916277 0.034003127
0.40918651 0.087495036 0.033996422
0.40885842 0.087073795 0.03398972
0.40911689 0.08596798 0.033497538
0.40878811 0.08554589 0.033490818
0.4084594 0.0851238 0.033484101
0.40871519 0.084014572 0.032991871
0.40896967 0.082903631 0.032499596
0.40863961 0.082479842 0.03249285
0.4088921 0.08136636 0.032000557
0.40856135 0.080941722 0.031993795
0.40881187 0.079825692 0.031501453
0.40848047 0.079400197 0.031494681
0.40872902 0.078281574 0.031002279
0.40839696 0.077855229 0.030995492
0.40864348 0.076734096 0.030503072
0.40888867 0.075611256 0.030010622
0.40913254 0.07448671 0.029518146
0.4093751 0.073360473 0.029025642
0.40904036 0.072930723 0.029018801
0.40928099 0.071801893 0.028526235
0.40894559 0.071371287 0.028519381
0.40861022 0.070940688 0.028512528
0.40827483 0.070510089 0.028505674
0.40793946 0.070079491 0.028498819
0.40817603 0.068945594 0.028006192
0.45092249 0.11697317 0.025882374
0.45123234 0.11593398 0.025390254
0.4486087 0.11687642 0.026832003
0.4476234 0.11704849 0.027310342
0.44663951 0.11722222 0.027788691
0.4456569 0.11739766 0.028267063
0.44532087 0.1169662 0.028260194
0.44434026 0.11714419 0.028738612
0.44336095 0.11732391 0.029217072
0.44238299 0.1175053 0.029695544
0.44140637 0.1176884 0.030174041
0.44107297 0.11726036 0.030167228
0.4407396 0.11683231 0.030160414
0.4404062 0.11640427 0.030153599
0.43943289 0.11659161 0.030632162
0.43846092 0.11678067 0.031110754
0.43749022 0.11697146 0.031589396
0.43652087 0.1171639 0.03206804
0.43619013 0.11673927 0.032061283
0.43585941 0.11631462 0.032054521
0.43489271 0.11651048 0.032533217
0.43456265 0.11608669 0.032526471
0.43423256 0.1156629 0.032519724
0.4339025 0.11523911 0.032512981
0.43293911 0.11543924 0.032991759
0.43260971 0.1150163 0.032985024
0.43164831 0.11521897 0.033463836
0.43131956 0.11479688 0.033457115
0.43036017 0.1150021 0.033935964
0.43003207 0.11458085 0.033929259
0.42970401 0.11415962 0.033922553
0.42874724 0.11436826 0.034401469
0.42841983 0.11394787 0.034394775
0.42809239 0.11352748 0.034388084
0.42776498 0.1131071 0.034381393
0.42743754 0.11268671 0.034374699
0.42711011 0.11226632 0.034368008
0.4267827 0.11184593 0.034361318
0.42645526 0.11142554 0.034354623
0.42612785 0.11100516 0.034347933
0.42580041 0.11058477 0.034341242
0.425473 0.11016438 0.034334548
0.42514557 0.10974399 0.034327857
0.42419747 0.10996368 0.034806937
0.42387068 0.10954414 0.034800258
0.42354393 0.10912461 0.034793578
0.42321718 0.10870507 0.034786902
0.42289039 0.10828554 0.034780223
0.42256364 0.107866 0.034773543
0.42223689 0.10744646 0.034766868
0.42191014 0.10702693 0.034760188
0.42158335 0.10660738 0.034753509
0.4212566 0.10618786 0.034746829
0.42092985 0.10576832 0.034740154
0.42060307 0.10534878 0.034733474
0.42027631 0.10492924 0.034726795
0.41994956 0.1045097 0.034720119
0.41962278 0.10409017 0.03471344
0.41929603 0.10367063 0.03470676
0.41896927 0.1032511 0.034700084
0.41864252 0.10283156 0.034693405
0.41831574 0.10241202 0.034686726
0.41798899 0.10199248 0.03468005
0.41766223 0.10157295 0.03467337
0.41733548 0.10115341 0.034666691
0.41761482 0.10007508 0.034173947
0.41728741 0.099654689 0.034167252
0.41695997 0.099234305 0.034160562
0.41663256 0.098813914 0.034153871
0.41630512 0.09839353 0.034147177
0.41597769 0.097973138 0.034140486
0.41565028 0.097552754 0.034133796
0.41532284 0.097132362 0.034127101
0.41499543 0.096711978 0.034120411
0.41466799 0.096291594 0.03411372
0.41434059 0.095871203 0.034107026
0.41401315 0.095450811 0.034100335
0.41368574 0.095030427 0.034093644
0.4133583 0.094610043 0.03408695
0.41303089 0.094189651 0.03408026
0.41270345 0.09376926 0.034073569
0.41237605 0.093348876 0.034066875
0.41204861 0.092928492 0.034060184
0.4117212 0.0925081 0.034053493
0.41139376 0.092087716 0.034046799
0.41106635 0.091667324 0.034040108
0.41073892 0.091246933 0.034033418
0.41041148 0.090826549 0.034026723
0.41008407 0.090406165 0.034020033
0.40975666 0.089985773 0.034013342
0.40942922 0.089565381 0.034006648
0.40910181 0.089145005 0.033999957
0.40936261 0.088042825 0.033506822
0.40903452 0.087621585 0.033500116
0.40870646 0.087200344 0.033493411
0.4089646 0.086094782 0.033000231
0.40863582 0.085672684 0.03299351
0.40830711 0.085250601 0.032986794
0.40856257 0.084141634 0.032493554
0.40881678 0.083030939 0.032000285
0.40848669 0.08260715 0.031993538
0.40873888 0.081493929 0.031500239
0.40840814 0.081069283 0.031493478
0.40865833 0.079953507 0.031000137
0.40832692 0.079528019 0.030993363
0.40857518 0.078409649 0.030499956
0.40824312 0.077983305 0.030493168
0.40848935 0.076862432 0.029999744
0.40873423 0.075739846 0.029506294
0.40897781 0.074615553 0.029012816
0.40922004 0.073489569 0.028519306
0.40888533 0.073059827 0.028512467
0.40912563 0.07193125 0.028018903
0.40879023 0.071500644 0.028012048
0.40845487 0.071070045 0.028005194
0.40811947 0.070639446 0.027998339
0.40835643 0.069506653 0.027504722
0.40859202 0.068372153 0.027011085
0.45011574 0.11770643 0.0258552
0.44977704 0.11727158 0.025848279
0.44780448 0.11761177 0.026806893
0.44682023 0.11778439 0.027286233
0.44648352 0.11735208 0.027279351
0.44550124 0.11752727 0.027758725
0.44452026 0.11770415 0.028238125
0.4441849 0.11727355 0.028231272
0.44320589 0.11745302 0.028710742
0.44222826 0.11763415 0.029190211
0.44091853 0.11738895 0.0296629
0.44058517 0.1169609 0.029656086
0.43961149 0.11714714 0.030135635
0.43927875 0.11671995 0.030128835
0.43830708 0.11690874 0.030608432
0.43733668 0.11709928 0.031088077
0.43636766 0.11729147 0.031567723
0.43603691 0.11686683 0.031560965
0.4357062 0.11644219 0.031554203
0.43473983 0.1166378 0.032033905
0.43440974 0.11621401 0.032027159
0.43407968 0.11579021 0.032020412
0.43374959 0.11536642 0.032013666
0.43278649 0.11556629 0.032493446
0.43245709 0.11514336 0.032486714
0.43149602 0.11534576 0.032966524
0.43116727 0.11492367 0.032959808
0.43020818 0.11512864 0.033439659
0.42988011 0.1147074 0.033432953
0.42955202 0.11428616 0.033426248
0.42859557 0.11449455 0.033906162
0.42826813 0.11407416 0.033899471
0.42794073 0.11365377 0.033892781
0.42761329 0.11323339 0.033886086
0.42728588 0.112813 0.033879396
0.42695844 0.11239261 0.033872705
0.426631 0.11197222 0.033866011
0.4263036 0.11155184 0.03385932
0.42597616 0.11113144 0.033852629
0.42564875 0.11071106 0.033845935
0.42532131 0.11029067 0.033839244
0.4249939 0.10987028 0.033832554
0.42404607 0.11008971 0.034312636
0.42371932 0.10967018 0.034305956
0.42339256 0.10925064 0.034299277
0.42306581 0.10883111 0.034292601
0.42273903 0.10841157 0.034285922
0.42241228 0.10799203 0.034279242
0.42208552 0.1075725 0.034272566
0.42175874 0.10715295 0.034265887
0.42143199 0.10673342 0.034259208
0.42110524 0.10631388 0.034252528
0.42077848 0.10589435 0.034245852
0.4204517 0.10547481 0.034239173
0.42012495 0.10505527 0.034232493
0.4197982 0.10463574 0.034225818
0.41947141 0.1042162 0.034219138
0.41914466 0.10379667 0.034212459
0.41881791 0.10337713 0.034205783
0.41849115 0.10295759 0.034199104
0.41816437 0.10253806 0.034192424
0.41783762 0.10211851 0.034185749
0.41751087 0.10169898 0.034179069
0.41718408 0.10127944 0.03417239
0.41746315 0.10020137 0.03367864
0.41713572 0.099780977 0.033671949
0.41680831 0.099360593 0.033665258
0.41648087 0.098940201 0.033658564
0.41615346 0.098519817 0.033651873
0.41582602 0.098099425 0.033645183
0.41549861 0.097679041 0.033638489
0.41517118 0.09725865 0.033631798
0.41484374 0.096838266 0.033625107
0.41451633 0.096417882 0.033618413
0.41418889 0.09599749 0.033611722
0.41386148 0.095577098 0.033605032
0.41353405 0.095156714 0.033598337
0.41320664 0.09473633 0.033591647
0.4128792 0.094315939 0.033584956
0.41255179 0.093895547 0.033578262
0.41222435 0.093475163 0.033571571
0.41189694 0.093054779 0.03356488
0.41156951 0.092634387 0.033558186
0.4112421 0.092214003 0.033551496
0.41091466 0.091793612 0.033544805
0.41058725 0.091373228 0.033538111
0.41025981 0.090952836 0.03353142
0.4099324 0.090532452 0.033524729
0.40960497 0.09011206 0.033518035
0.40927753 0.089691676 0.033511344
0.40895012 0.089271292 0.033504654
0.40921062 0.088169366 0.033010513
0.40888256 0.087748125 0.033003807
0.40855446 0.087326884 0.032997102
0.40881228 0.086221576 0.032502919
0.40848354 0.085799485 0.032496199
0.40815479 0.085377403 0.032489482
0.40840998 0.084268689 0.031995244
0.40866387 0.083158255 0.031500969
0.40833381 0.082734466 0.031494223
0.40858567 0.081621498 0.030999921
0.40825492 0.081196852 0.030993162
0.40850481 0.080081336 0.030498816
0.40817341 0.079655841 0.030492043
0.40842137 0.078537725 0.029997634
0.40866792 0.077417962 0.029503217
0.4089132 0.076296486 0.02900878
0.4085798 0.075868435 0.029001966
0.40882304 0.074744403 0.028507482
0.40906498 0.073618673 0.028012976
0.40873027 0.073188923 0.028006136
0.40897027 0.072060607 0.027511561
0.40863487 0.071630001 0.027504707
0.40829951 0.071199402 0.027497852
0.40853679 0.070067719 0.027003253
0.44930959 0.11843919 0.025830034
0.44832295 0.11860819 0.02631034
0.44668972 0.11938268 0.027277853
0.44635367 0.11895123 0.027270984
0.44601765 0.11851978 0.027264116
0.4456816 0.11808833 0.027257249
0.44534558 0.11765688 0.027250381
0.44436491 0.1178335 0.027730793
0.44402954 0.1174029 0.027723938
0.44305083 0.11758212 0.028204404
0.44207349 0.117763 0.028684882
0.4410975 0.11794558 0.029165382
0.4407641 0.11751754 0.029158568
0.4404307 0.11708949 0.029151754
0.43945736 0.11727548 0.029632315
0.43912461 0.11684828 0.029625515
0.43815327 0.11703682 0.030106109
0.43718317 0.11722709 0.030586759
0.43621445 0.11741904 0.031067407
0.43588373 0.1169944 0.031060647
0.43555298 0.11656976 0.031053888
0.43458691 0.1167651 0.03153459
0.43425682 0.11634132 0.031527843
0.43392676 0.11591752 0.031521097
0.43359667 0.11549373 0.03151435
0.43263391 0.11569335 0.031995133
0.4323045 0.11527041 0.031988401
0.43134373 0.11547256 0.032469217
0.43101498 0.11505047 0.032462496
0.43005621 0.11525518 0.032943349
0.42972812 0.11483394 0.032936644
0.42940003 0.11441271 0.032929938
0.42844388 0.11462083 0.033410858
0.42811647 0.11420044 0.033404168
0.42778903 0.11378006 0.033397473
0.42746162 0.11335967 0.033390783
0.42713419 0.11293928 0.033384092
0.42680678 0.1125189 0.033377398
0.42647934 0.11209851 0.033370707
0.4261519 0.11167812 0.033364017
0.42582449 0.11125773 0.033357322
