# .PCD v0.7 - Point Cloud Data file format
VERSION 0.7
FIELDS x y z
SIZE 4 4 4
TYPE F F F
COUNT 1 1 1
WIDTH 1379
HEIGHT 1
VIEWPOINT 0 0 0 1 0 0 0
POINTS 1379
DATA ascii
0.42373523 -0.14705428 0.052410364
0.42379913 -0.14849894 0.052050713
0.42386171 -0.14994529 0.051691033
0.4234415 -0.15048482 0.051682446
0.42350212 -0.15193374 0.051322706
0.42308122 -0.15247414 0.051314104
0.42266035 -0.1530145 0.051305503
0.42223945 -0.15355489 0.051296897
0.42181858 -0.15409525 0.051288296
0.42139772 -0.15463562 0.051279694
0.42097685 -0.15517601 0.051271092
0.46884835 -0.12229499 0.044739567
0.46787935 -0.12201305 0.045081716
0.46744657 -0.12256875 0.045072872
0.46701375 -0.12312444 0.045064025
0.46604738 -0.12283906 0.045406252
0.46508238 -0.12255201 0.045748483
0.46411869 -0.12226327 0.046090744
0.46262479 -0.12112918 0.046784144
0.46166441 -0.12083618 0.047126468
0.46070537 -0.12054148 0.047468822
0.45974767 -0.12024505 0.047811203
0.45879129 -0.11994695 0.048153613
0.45783618 -0.1196471 0.048496068
0.45688245 -0.11934558 0.04883853
0.45593005 -0.11904237 0.049181018
0.45497897 -0.11873745 0.049523536
0.4540292 -0.11843083 0.04986608
0.45308074 -0.11812247 0.050208673
0.45265788 -0.1186654 0.05020003
0.45171142 -0.11835453 0.050542641
0.45128924 -0.11889661 0.050534014
0.45034477 -0.11858318 0.050876662
0.44992322 -0.11912441 0.050868049
0.44898075 -0.11880843 0.051210739
0.44803959 -0.1184907 0.05155348
0.44761935 -0.11903024 0.051544894
0.44719914 -0.11956976 0.051536303
0.44626066 -0.11924867 0.051879078
0.4458411 -0.11978734 0.051870503
0.4449046 -0.1194637 0.052213319
0.44448572 -0.12000152 0.052204758
0.44355121 -0.11967534 0.052547611
0.44313297 -0.12021231 0.052539065
0.44220045 -0.11988356 0.05288196
0.44178289 -0.12041969 0.052873425
0.44085231 -0.12008835 0.053216383
0.44043541 -0.12062363 0.053207863
0.4400185 -0.12115889 0.053199343
0.4396016 -0.12169416 0.053190824
0.4391847 -0.12222943 0.0531823
0.43876779 -0.12276471 0.05317378
0.43784189 -0.12242745 0.053516813
0.43742567 -0.12296187 0.053508304
0.43700942 -0.12349629 0.053499799
0.43659317 -0.12403072 0.053491291
0.43617696 -0.12456512 0.053482786
0.43576071 -0.12509954 0.053474277
0.43483946 -0.12475634 0.053817403
0.43442386 -0.1252899 0.053808909
0.4340083 -0.12582347 0.053800415
0.43359271 -0.12635705 0.053791922
0.43317714 -0.12689061 0.053783428
0.43276158 -0.12742418 0.053774934
0.43234599 -0.12795775 0.053766441
0.43193042 -0.12849131 0.053757947
0.43151483 -0.12902488 0.053749457
0.43109927 -0.12955846 0.053740963
0.43068367 -0.13009202 0.05373247
0.43026811 -0.13062559 0.053723976
0.42985252 -0.13115917 0.053715482
0.42943695 -0.13169274 0.053706989
0.42902139 -0.13222629 0.053698495
0.42860579 -0.13275987 0.053690001
0.4281902 -0.13329345 0.053681508
0.42777464 -0.133827 0.053673014
0.42735907 -0.13436058 0.05366452
0.42694348 -0.13489416 0.053656027
0.42652792 -0.13542771 0.053647533
0.42611235 -0.13596128 0.053639039
0.42569676 -0.13649486 0.053630546
0.4252812 -0.13702841 0.053622052
0.4248656 -0.13756199 0.053613558
0.42445004 -0.13809557 0.053605065
0.42452225 -0.13952889 0.053244587
0.424106 -0.14006332 0.053236082
0.42368975 -0.14059773 0.053227574
0.42375931 -0.14203446 0.05286704
0.42334241 -0.14256974 0.05285852
0.42341003 -0.14400905 0.052497923
0.42347628 -0.14545003 0.052137326
0.42305803 -0.14598702 0.052128777
0.42312229 -0.14743055 0.051768135
0.42318523 -0.14887579 0.051407468
0.42324683 -0.15032274 0.05104677
0.42282662 -0.15086225 0.051038183
0.42288625 -0.1523118 0.050677426
0.42246538 -0.15285216 0.050668824
0.42204449 -0.15339255 0.050660223
0.42162362 -0.15393291 0.050651621
0.42120275 -0.15447329 0.050643019
0.42030531 -0.1540994 0.050986655
0.41988507 -0.15463895 0.050978065
0.46757576 -0.12045301 0.044787861
0.46767887 -0.12184612 0.044426993
0.46724606 -0.12240181 0.044418149
0.46627933 -0.12211753 0.044761363
0.46531397 -0.12183159 0.045104586
0.46434996 -0.12154394 0.04544783
0.46338725 -0.1212546 0.045791108
0.46242583 -0.12096353 0.046134431
0.46093521 -0.11982659 0.046829868
0.45997715 -0.11953128 0.047173239
0.45902041 -0.11923427 0.047516637
0.45806494 -0.11893554 0.047860082
0.45711085 -0.11863513 0.048203532
0.4561581 -0.11833302 0.048547011
0.45573324 -0.1188785 0.048538327
0.45478246 -0.11857384 0.048881847
0.45383301 -0.11826747 0.049225394
0.45288485 -0.11795937 0.049568988
0.45246199 -0.1185023 0.049560346
0.45151585 -0.11819168 0.049903959
0.45109364 -0.11873376 0.049895331
0.45014951 -0.11842059 0.050238986
0.44920668 -0.11810572 0.050582666
0.44878578 -0.11864609 0.050574064
0.44784492 -0.11832862 0.050917808
0.44742471 -0.11886816 0.050909217
0.44648585 -0.11854817 0.051252984
0.44606632 -0.11908685 0.051244408
0.44512945 -0.11876431 0.051588211
0.44471055 -0.11930214 0.05157965
0.44377568 -0.11897705 0.051923495
0.44335747 -0.11951403 0.051914945
0.4424246 -0.11918638 0.052258831
0.44200701 -0.11972251 0.052250296
0.4410761 -0.11939228 0.052594244
0.44065917 -0.11992756 0.052585725
0.44024229 -0.12046283 0.052577201
0.43982539 -0.12099809 0.052568682
0.43940848 -0.12153336 0.052560162
0.43899158 -0.12206863 0.052551642
0.43857467 -0.12260391 0.052543119
0.43764907 -0.1222669 0.052887153
0.43723285 -0.12280133 0.052878648
0.4368166 -0.12333575 0.052870139
0.43640035 -0.12387017 0.052861635
0.43598413 -0.12440458 0.052853126
0.43556789 -0.124939 0.052844621
0.43464693 -0.12459604 0.053188749
0.43423137 -0.12512961 0.053180255
0.43381578 -0.12566318 0.053171761
0.43340021 -0.12619676 0.053163268
0.43248257 -0.12584953 0.053507462
0.43206766 -0.12638226 0.053498983
0.43165275 -0.12691498 0.053490505
0.43123782 -0.12744769 0.053482022
0.43082291 -0.12798041 0.053473543
0.430408 -0.12851313 0.053465065
0.42999309 -0.12904584 0.053456582
0.42957819 -0.12957858 0.053448103
0.42916328 -0.13011128 0.053439625
0.42874834 -0.13064401 0.053431142
0.42833343 -0.13117671 0.053422663
0.42791852 -0.13170944 0.053414185
0.42750362 -0.13224216 0.053405706
0.42708871 -0.13277486 0.053397223
0.42667377 -0.13330759 0.053388745
0.42625886 -0.13384029 0.053380266
0.42584395 -0.13437302 0.053371783
0.42542905 -0.13490574 0.053363305
0.42501411 -0.13543847 0.053354826
0.4245992 -0.13597117 0.053346343
0.42467311 -0.1374017 0.052984904
0.42425752 -0.13793528 0.052976411
0.42384195 -0.13846883 0.052967917
0.42342636 -0.13900241 0.052959424
0.4230108 -0.13953599 0.05295093
0.42308068 -0.14097162 0.052589409
0.42314929 -0.14240892 0.052227858
0.42273238 -0.1429442 0.052219339
0.42279902 -0.1443841 0.051857729
0.42286429 -0.1458257 0.051496111
0.42244607 -0.14636266 0.051487565
0.42250934 -0.14780681 0.051125906
0.4225713 -0.14925264 0.050764222
0.42263195 -0.15070017 0.050402511
0.42221174 -0.15123969 0.05039392
0.42179149 -0.15177923 0.050385334
0.42137128 -0.15231876 0.050376743
0.42095107 -0.15285829 0.050368156
0.42053086 -0.1533978 0.050359569
0.42011064 -0.15393732 0.050350979
0.41969043 -0.15447687 0.050342392
0.46737558 -0.12028633 0.04413414
0.46747836 -0.12167918 0.043772269
0.46704558 -0.12223488 0.043763425
0.46607915 -0.12195085 0.044107642
0.46458119 -0.12082464 0.04480492
0.46361813 -0.12053641 0.045149185
0.46265635 -0.12024643 0.045493498
0.46169594 -0.11995478 0.045837816
0.46073687 -0.11966144 0.046182163
0.45977911 -0.11936639 0.046526533
0.45882267 -0.11906964 0.046870936
0.4578675 -0.11877116 0.047215383
0.45691374 -0.118471 0.047559839
0.45596129 -0.11816915 0.047904316
0.45501015 -0.1178656 0.048248827
0.45406035 -0.11756034 0.048593361
0.45363683 -0.11810412 0.048584707
0.45268896 -0.11779627 0.048929304
0.45174247 -0.11748675 0.049273904
0.45132026 -0.11802883 0.049265277
0.45089805 -0.11857092 0.049256649
0.44995421 -0.118258 0.049601305
0.44901171 -0.11794338 0.049945988
0.44807047 -0.11762702 0.050290722
0.44765025 -0.11816654 0.050282136
0.44671106 -0.11784767 0.050626885
0.44629151 -0.11838634 0.05061831
0.44535428 -0.11806493 0.050963104
0.44493541 -0.11860274 0.050954543
0.44400018 -0.11827877 0.051299375
0.44358194 -0.11881574 0.051290829
0.44264871 -0.11848921 0.051635701
0.44223115 -0.11902532 0.051627167
0.44181359 -0.11956145 0.051618632
0.44088295 -0.11923148 0.051963583
0.44046605 -0.11976676 0.051955063
0.44004914 -0.12030202 0.051946543
0.43963224 -0.12083729 0.05193802
0.43870497 -0.1205031 0.052283019
0.43828875 -0.12103752 0.05227451
0.4378725 -0.12157194 0.052266002
0.43745625 -0.12210636 0.052257497
0.43704003 -0.12264078 0.052248988
0.43662378 -0.1231752 0.052240483
0.43620753 -0.12370963 0.052231975
0.43579131 -0.12424403 0.052223466
0.43487 -0.12390218 0.052568585
0.43445441 -0.12443576 0.052560091
0.4335351 -0.12409136 0.05290525
0.43312019 -0.12462407 0.052896772
0.43270528 -0.12515679 0.052888289
0.43229038 -0.12568951 0.05287981
0.43187547 -0.12622222 0.052871332
0.43146053 -0.12675494 0.052862849
0.43104562 -0.12728766 0.05285437
0.43063071 -0.12782037 0.052845892
0.43021581 -0.1283531 0.052837409
0.42980087 -0.12888582 0.05282893
0.42938596 -0.12941854 0.052820452
0.42897105 -0.12995124 0.052811973
0.42855614 -0.13048397 0.05280349
0.42814124 -0.13101669 0.052795012
0.4277263 -0.13154942 0.052786533
0.42731139 -0.13208212 0.05277805
0.42689648 -0.13261482 0.052769572
0.42648157 -0.13314755 0.052761093
0.42606667 -0.13368027 0.05275261
0.42565173 -0.134213 0.052744132
0.42523685 -0.1347457 0.052735653
0.42482191 -0.13527843 0.05272717
0.42440701 -0.13581115 0.052718692
0.4239921 -0.13634388 0.052710213
0.42357719 -0.13687658 0.05270173
0.42316225 -0.13740931 0.052693252
0.42323387 -0.13884212 0.052330766
0.42281827 -0.1393757 0.052322272
0.42240271 -0.13990925 0.052313782
0.42247164 -0.14134547 0.051951244
0.42205542 -0.14187989 0.051942736
0.42212236 -0.14331867 0.051580157
0.42218801 -0.14475919 0.05121753
0.42177045 -0.14529531 0.051208995
0.42183411 -0.14673834 0.050846349
0.42189643 -0.14818305 0.050483674
0.4219574 -0.14962949 0.050120976
0.42153785 -0.15016817 0.0501124
0.42159685 -0.15161715 0.049749658
0.42117664 -0.15215668 0.049741071
0.42075643 -0.15269621 0.049732484
0.42033622 -0.15323572 0.049723893
0.419916 -0.15377524 0.049715307
0.41949576 -0.15431479 0.049706716
0.4686794 -0.12123688 0.042781245
0.4677107 -0.12095655 0.043126393
0.46727788 -0.12151224 0.043117546
0.4663111 -0.12122933 0.043462753
0.46534571 -0.12094475 0.043807965
0.46438161 -0.12065847 0.044153206
0.46341887 -0.12037049 0.04449847
0.46245739 -0.12008077 0.044843789
0.46149731 -0.11978938 0.045189109
0.46053851 -0.11949629 0.045534458
0.45958108 -0.1192015 0.045879833
0.45862493 -0.118905 0.046225235
0.45767009 -0.11860678 0.046570685
0.45671663 -0.11830688 0.046916142
0.45576447 -0.11800528 0.047261626
0.45481366 -0.11770198 0.047607135
0.45386416 -0.11739698 0.047952674
0.45344061 -0.11794076 0.047944017
0.45249307 -0.11763317 0.048289619
0.45154688 -0.11732391 0.048635222
0.45112467 -0.11786599 0.048626594
0.45018047 -0.11755419 0.048972242
0.44975895 -0.11809541 0.048963625
0.44881675 -0.11778104 0.049309313
0.4478758 -0.11746494 0.049655046
0.44745559 -0.11800446 0.04964646
0.44651669 -0.11768585 0.049992215
0.44609714 -0.11822452 0.049983639
0.44516024 -0.11790336 0.050329436
0.44474137 -0.11844117 0.050320871
0.44380644 -0.11811746 0.050666708
0.44338819 -0.11865443 0.050658163
0.44245529 -0.11832815 0.051004037
0.44203773 -0.11886427 0.050995503
0.44162014 -0.11940039 0.050986968
0.44068983 -0.11907067 0.051332921
0.44027293 -0.11960595 0.051324401
0.43985602 -0.12014122 0.051315881
0.43943912 -0.1206765 0.051307362
0.43851215 -0.12034255 0.051653359
0.43809593 -0.12087698 0.051644851
0.43767968 -0.1214114 0.051636346
0.43726346 -0.12194581 0.051627837
0.43684721 -0.12248024 0.051619332
0.43643096 -0.12301466 0.051610824
0.43550864 -0.12267476 0.051956918
0.43509308 -0.12320833 0.051948424
0.43467748 -0.12374189 0.051939931
0.43375781 -0.1233986 0.052286077
0.4333429 -0.12393133 0.052277599
0.432928 -0.12446404 0.052269116
0.43251309 -0.12499675 0.052260637
0.43209815 -0.12552947 0.052252159
0.43168324 -0.12606218 0.052243676
0.43126833 -0.1265949 0.052235197
0.43085343 -0.12712763 0.052226719
0.43043852 -0.12766035 0.052218236
0.43002358 -0.12819307 0.052209757
0.42960867 -0.12872578 0.052201279
0.42919376 -0.1292585 0.0521928
0.42877886 -0.12979122 0.052184317
0.42836392 -0.13032395 0.052175839
0.42794901 -0.13085665 0.05216736
0.4275341 -0.13138938 0.052158877
0.4271192 -0.13192208 0.052150398
0.42670429 -0.1324548 0.05214192
0.42628938 -0.13298753 0.052133437
0.42587447 -0.13352023 0.052124958
0.42545953 -0.13405296 0.05211648
0.42504463 -0.13458568 0.052107997
0.42462972 -0.1351184 0.052099518
0.42421481 -0.13565111 0.05209104
0.42379987 -0.13618384 0.052082557
0.42338496 -0.13671654 0.052074078
0.42297006 -0.13724928 0.0520656
0.42255515 -0.13778199 0.052057121
0.42214024 -0.13831469 0.052048638
0.42221019 -0.13974896 0.051685125
0.42179462 -0.14028254 0.051676631
0.4218626 -0.14171934 0.05131308
0.42144635 -0.14225377 0.051304571
0.42151234 -0.14369313 0.050940976
0.42109543 -0.1442284 0.050932456
0.42115948 -0.14567037 0.050568797
0.42122215 -0.14711398 0.050205134
0.42128348 -0.14855932 0.049841445
0.42134351 -0.15000634 0.04947773
0.42140219 -0.15145509 0.049113985
0.42098197 -0.1519946 0.049105398
0.42056176 -0.15253413 0.049096808
0.42014155 -0.15307365 0.049088221
0.41972134 -0.15361317 0.049079631
0.41930109 -0.15415271 0.049071044
0.41888088 -0.15469223 0.049062457
0.47041941 -0.12162471 0.041433305
0.46944836 -0.12134805 0.041779399
0.46847859 -0.12106968 0.042125519
0.46751019 -0.12078961 0.042471666
0.46707737 -0.1213453 0.042462822
0.46611091 -0.12106265 0.042809032
0.46514583 -0.12077832 0.043155245
0.46418205 -0.1204923 0.043501489
0.46321958 -0.12020458 0.043847758
0.46225843 -0.11991511 0.044194076
0.46129864 -0.11962397 0.044540402
0.46034017 -0.11933114 0.044886753
0.45938301 -0.11903661 0.04523313
0.45842722 -0.11874036 0.045579534
0.45747265 -0.1184424 0.045925986
0.45651951 -0.11814275 0.046272445
0.45556766 -0.11784142 0.046618931
0.45461714 -0.11753837 0.046965446
0.45366794 -0.11723363 0.047311988
0.45272005 -0.11692715 0.047658574
0.45177349 -0.11661899 0.048005171
0.45135131 -0.11716106 0.047996543
0.45040676 -0.11685036 0.048343178
0.44998521 -0.11739159 0.048334561
0.44904265 -0.11707833 0.048681237
0.44862175 -0.11761871 0.048672635
0.44768116 -0.11730286 0.049019374
0.44726095 -0.11784238 0.049010787
0.44632235 -0.11752403 0.049357541
0.4453851 -0.11720396 0.049704328
0.4449662 -0.11774179 0.049695767
0.44403091 -0.11741918 0.050042592
0.44361269 -0.11795615 0.050034042
0.44267941 -0.11763097 0.050380908
0.44226184 -0.11816709 0.050372373
0.44184428 -0.11870321 0.050363839
0.44091362 -0.11837461 0.050710782
0.44049671 -0.11890987 0.050702263
0.44007981 -0.11944515 0.050693739
0.4396629 -0.11998042 0.050685219
0.439246 -0.12051569 0.0506767
0.43831933 -0.12018201 0.051023699
0.43790311 -0.12071643 0.051015195
0.43748686 -0.12125085 0.051006686
0.43707064 -0.12178527 0.050998181
0.43665439 -0.12231969 0.050989673
0.43573171 -0.1219809 0.051336754
0.43531612 -0.12251447 0.05132826
0.43490055 -0.12304804 0.051319767
0.43398052 -0.12270585 0.051666904
0.43356562 -0.12323857 0.051658425
0.43315068 -0.12377129 0.051649943
0.43273577 -0.12430401 0.051641464
0.43232086 -0.12483671 0.051632985
0.43190596 -0.12536943 0.051624503
0.43149105 -0.12590216 0.051616024
0.43107614 -0.12643488 0.051607545
0.4306612 -0.12696759 0.051599063
0.43024629 -0.12750031 0.051590584
0.42983139 -0.12803303 0.051582105
0.42941648 -0.12856574 0.051573627
0.42900154 -0.12909847 0.051565144
0.42858666 -0.12963118 0.051556665
0.42817172 -0.13016391 0.051548187
0.42775682 -0.13069661 0.051539704
0.42734191 -0.13122934 0.051531225
0.426927 -0.13176206 0.051522747
0.42651209 -0.13229476 0.051514264
0.42609715 -0.13282749 0.051505785
0.42568225 -0.13336019 0.051497307
0.42526734 -0.13389292 0.051488824
0.42485243 -0.13442564 0.051480345
0.42443749 -0.13495837 0.051471867
0.42402259 -0.13549107 0.051463384
0.42360768 -0.1360238 0.051454905
0.42319277 -0.13655652 0.051446427
0.42277783 -0.13708925 0.051437944
0.42236292 -0.13762195 0.051429465
0.42194802 -0.13815466 0.051420987
0.42153311 -0.13868739 0.051412508
0.4216021 -0.14012225 0.051047977
0.42118651 -0.14065583 0.051039483
0.42125353 -0.14209323 0.050674912
0.42083728 -0.14262764 0.050666407
0.42090231 -0.1440676 0.050301794
0.42096603 -0.1455093 0.049937133
0.42102841 -0.14695267 0.049572468
0.42061016 -0.14748965 0.049563922
0.42067054 -0.14893557 0.049199216
0.42072958 -0.15038319 0.048834484
0.4207873 -0.15183252 0.048469722
0.42036709 -0.15237205 0.048461135
0.41994688 -0.15291157 0.048452545
0.41952667 -0.15345109 0.048443958
0.41910642 -0.15399064 0.048435368
0.47021797 -0.12145701 0.040775571
0.46924722 -0.12118059 0.041122671
0.46827778 -0.12090249 0.041469794
0.46730968 -0.12062267 0.041816942
0.46687689 -0.12117837 0.041808095
0.46591073 -0.12089597 0.042155311
0.46494594 -0.1206119 0.042502526
0.46398246 -0.12032613 0.042849772
0.46302032 -0.12003867 0.043197043
0.46205947 -0.11974945 0.043544367
0.46109998 -0.11945858 0.043891691
0.46014181 -0.119166 0.044239044
0.45918497 -0.11887172 0.044586424
0.45822948 -0.11857573 0.044933833
0.45727524 -0.11827802 0.045281291
0.45632237 -0.11797863 0.045628753
0.45537084 -0.11767755 0.04597624
0.45442063 -0.11737476 0.046323758
0.45347175 -0.11707027 0.046671301
0.45252416 -0.11676404 0.047018889
0.45157793 -0.11645614 0.047366489
0.45115572 -0.11699822 0.047357861
0.45021147 -0.11668777 0.047705498
0.44926855 -0.11637562 0.048053164
0.44884768 -0.116916 0.048044562
0.44842678 -0.11745638 0.048035957
0.44748649 -0.11714078 0.048383698
0.44654754 -0.11682352 0.048731446
0.44612798 -0.1173622 0.048722871
0.44519103 -0.11704239 0.049070656
0.44477215 -0.11758022 0.049062096
0.44383717 -0.11725786 0.049409926
0.44341895 -0.11779483 0.049401376
0.44248599 -0.11746991 0.049749244
0.4420684 -0.11800604 0.049740713
0.44165084 -0.11854216 0.049732178
0.44072047 -0.1182138 0.050080121
0.44030356 -0.11874907 0.050071601
0.43988666 -0.11928435 0.050063081
0.43946975 -0.11981962 0.050054558
0.43905288 -0.12035489 0.050046038
0.43812653 -0.12002146 0.050394043
0.43771029 -0.12055589 0.050385535
0.43729404 -0.12109031 0.05037703
0.43687782 -0.12162472 0.050368521
0.43646157 -0.12215915 0.050360017
0.43553919 -0.12182061 0.0507081
0.43512362 -0.12235419 0.050699607
0.43470803 -0.12288775 0.050691113
0.43378833 -0.12254582 0.051039252
0.43337339 -0.12307854 0.05103077
0.43245563 -0.12273401 0.051378973
0.43204138 -0.12326588 0.051370505
0.43162712 -0.12379774 0.051362041
0.43121287 -0.12432962 0.051353574
0.43079862 -0.12486148 0.051345106
0.43038437 -0.12539335 0.051336642
0.42997012 -0.12592521 0.051328175
0.42955586 -0.12645708 0.051319707
0.42914161 -0.12698895 0.051311243
0.42872736 -0.12752081 0.051302776
0.42831311 -0.12805268 0.051294308
0.42789885 -0.12858455 0.051285844
0.4274846 -0.12911642 0.051277377
0.42707038 -0.12964828 0.051268909
0.42665613 -0.13018014 0.051260445
0.42624184 -0.13071203 0.051251978
0.42582759 -0.13124388 0.05124351
0.42541337 -0.13177575 0.051235046
0.42499912 -0.13230762 0.051226579
0.42458487 -0.13283947 0.051218111
0.42417061 -0.13337135 0.051209643
0.42375636 -0.13390322 0.05120118
0.42334211 -0.13443509 0.051192712
0.42292786 -0.13496694 0.051184244
0.4225136 -0.13549882 0.051175781
0.42209935 -0.13603069 0.051167313
0.42217073 -0.13746192 0.050801814
0.42175582 -0.13799463 0.050793335
0.42134091 -0.13852736 0.050784852
0.420926 -0.13906007 0.050776374
0.42099401 -0.14049554 0.050410826
0.42057845 -0.14102909 0.050402332
0.42064446 -0.1424671 0.050036747
0.42022821 -0.14300153 0.050028242
0.42029226 -0.1444421 0.049662612
0.42035502 -0.14588439 0.049296938
0.42041641 -0.14732835 0.048931256
0.4199982 -0.1478653 0.048922706
0.42005759 -0.14931184 0.048556983
0.42011568 -0.15076004 0.048191238
0.42017242 -0.15220997 0.047825459
0.41975221 -0.15274949 0.047816873
0.419332 -0.15328901 0.047808282
0.41891178 -0.15382856 0.047799695
0.47045135 -0.12073106 0.040126726
0.47001657 -0.12128931 0.040117841
0.46904612 -0.12101315 0.04046594
0.468077 -0.1207353 0.040814064
0.4671092 -0.12045573 0.041162219
0.46667638 -0.12101144 0.041153371
0.46571055 -0.12072929 0.041501589
0.46474606 -0.12044547 0.041849811
0.46378291 -0.12015996 0.042198054
0.46282107 -0.11987275 0.042546332
0.46186051 -0.11958379 0.042894654
0.46090132 -0.11929318 0.043242984
0.45994347 -0.11900085 0.043591339
0.45898694 -0.11870682 0.043939721
0.45803174 -0.11841109 0.044288132
0.4570778 -0.11811364 0.044636592
0.45612526 -0.1178145 0.044985056
0.45517403 -0.11751368 0.045333546
0.45422414 -0.11721115 0.045682065
0.45327556 -0.11690691 0.046030611
0.45232826 -0.11660094 0.046379209
0.45138234 -0.1162933 0.046727806
0.45096013 -0.11683537 0.046719179
0.4500162 -0.11652518 0.047067817
0.44907358 -0.11621328 0.047416486
0.44865271 -0.11675366 0.047407884
0.44823182 -0.11729404 0.047399282
0.44729182 -0.1169787 0.047748026
0.4463532 -0.11666171 0.048096776
0.44541588 -0.11634301 0.048445549
0.44499698 -0.11688083 0.048436988
0.44406167 -0.11655958 0.048785806
0.44364342 -0.11709655 0.04877726
0.4432252 -0.11763352 0.04876871
0.44229254 -0.11730886 0.049117584
0.44187498 -0.11784498 0.049109049
0.44145742 -0.1183811 0.049100515
0.44052735 -0.118053 0.049449459
0.44011045 -0.11858827 0.049440939
0.43969354 -0.11912356 0.049432419
0.43927664 -0.11965882 0.0494239
0.43885973 -0.12019409 0.049415376
0.43793371 -0.11986092 0.049764384
0.43751746 -0.12039534 0.049755879
0.43710122 -0.12092976 0.04974737
0.436685 -0.12146418 0.049738862
0.43626875 -0.1219986 0.049730357
0.43534669 -0.12166031 0.050079443
0.4349311 -0.1221939 0.050070949
0.43401101 -0.12185306 0.050420079
0.4335961 -0.12238578 0.050411597
0.43267798 -0.12204237 0.050760791
0.43226373 -0.12257423 0.050752323
0.43184948 -0.12310611 0.050743856
0.43143523 -0.12363797 0.050735388
0.43102098 -0.12416984 0.050726924
0.43060672 -0.1247017 0.050718457
0.43019247 -0.12523356 0.050709989
0.42977822 -0.12576544 0.050701525
0.42936397 -0.1262973 0.050693057
0.42894971 -0.12682918 0.05068459
0.42853546 -0.12736103 0.050676126
0.42812121 -0.12789291 0.050667658
0.42770696 -0.12842476 0.050659191
0.4272927 -0.12895665 0.050650727
0.42687845 -0.1294885 0.050642259
0.42646423 -0.13002037 0.050633792
0.42604995 -0.13055225 0.050625328
0.4256357 -0.13108411 0.05061686
0.42522147 -0.13161597 0.050608393
0.42480722 -0.13214783 0.050599929
0.42439297 -0.1326797 0.050591461
0.42397872 -0.13321158 0.050582994
0.42356446 -0.13374344 0.05057453
0.42315021 -0.1342753 0.050566062
0.42273596 -0.13480717 0.050557595
0.42232171 -0.13533905 0.050549131
0.42190745 -0.13587092 0.050540663
0.4214932 -0.13640277 0.050532196
0.42156363 -0.13783459 0.050165679
0.42114869 -0.13836733 0.050157201
0.42073378 -0.13890003 0.050148722
0.42080149 -0.14033525 0.049782172
0.42038593 -0.1408688 0.049773678
0.41997033 -0.14140238 0.049765185
0.42003539 -0.14284098 0.049398582
0.41961917 -0.1433754 0.049390074
0.41968223 -0.14481656 0.049023431
0.41974401 -0.14625944 0.048656739
0.41980445 -0.14770399 0.04829004
0.41938624 -0.14824097 0.048281495
0.41944465 -0.14968808 0.047914755
0.41950178 -0.1511369 0.047547992
0.41955754 -0.15258741 0.047181197
0.41913733 -0.15312693 0.04717261
0.41871712 -0.15366648 0.047164019
0.41782355 -0.1532916 0.04751369
0.47175947 -0.12166833 0.038761966
0.47024995 -0.12056336 0.039468996
0.46981516 -0.1211216 0.039460108
0.46884501 -0.12084571 0.039809212
0.4678762 -0.12056811 0.040158339
0.46690869 -0.1202888 0.040507495
0.4664759 -0.1208445 0.040498648
0.46551034 -0.12056261 0.040847868
0.46454617 -0.12027904 0.041197091
0.46358332 -0.1199938 0.041546341
0.46262178 -0.11970684 0.041895617
0.46166155 -0.11941814 0.042244945
0.46017331 -0.11828596 0.042952385
0.45921642 -0.11799305 0.043301757
0.45826083 -0.11769843 0.043651156
0.45730656 -0.11740208 0.044000603
0.45635366 -0.11710405 0.044350058
0.45540208 -0.11680433 0.044699538
0.45497721 -0.11734981 0.044690855
0.45402762 -0.11704753 0.045040376
0.45307934 -0.11674356 0.045389924
0.45213237 -0.11643784 0.04573952
0.45118675 -0.11613046 0.046089124
0.45076454 -0.11667252 0.046080496
0.44982091 -0.11636259 0.046430137
0.44887862 -0.11605095 0.046779808
0.44845775 -0.11659133 0.046771206
0.44803685 -0.11713171 0.046762604
0.44709715 -0.11681662 0.047112353
0.44615883 -0.11649988 0.047462102
0.44522184 -0.11618144 0.047811881
0.44480294 -0.11671925 0.04780332
0.44386792 -0.11639827 0.04815314
0.44344971 -0.11693524 0.04814459
0.44303146 -0.11747221 0.048136044
0.44209909 -0.1171478 0.04848592
0.44168153 -0.11768392 0.048477385
0.44126397 -0.11822004 0.048468851
0.44033423 -0.11789221 0.048818801
0.43991733 -0.11842747 0.048810281
0.43950042 -0.11896275 0.048801757
0.43908352 -0.11949802 0.048793238
0.43866661 -0.12003329 0.048784718
0.43774089 -0.11970037 0.049134728
0.43732464 -0.12023479 0.049126219
0.43690839 -0.12076922 0.04911771
0.43649217 -0.12130363 0.049109206
0.43607593 -0.12183806 0.049100697
0.43515417 -0.12150003 0.049450789
0.43473858 -0.1220336 0.049442295
0.43381882 -0.12169303 0.049792424
0.43290034 -0.12135072 0.050142605
0.43248609 -0.1218826 0.050134137
0.43207183 -0.12241445 0.050125673
0.43165758 -0.12294633 0.050117206
0.43124333 -0.12347819 0.050108738
0.43082908 -0.12401006 0.050100274
0.43041483 -0.12454192 0.050091807
0.43000057 -0.12507379 0.050083339
0.42958632 -0.12560566 0.050074875
0.42917207 -0.12613752 0.050066408
0.42875782 -0.12666939 0.05005794
0.42834356 -0.12720126 0.050049476
0.42792931 -0.12773313 0.050041009
0.42751506 -0.12826499 0.050032541
0.42710081 -0.12879686 0.050024074
0.42668656 -0.12932873 0.05001561
0.42627233 -0.12986058 0.050007142
0.42585805 -0.13039248 0.049998675
0.4254438 -0.13092433 0.049990211
0.42502955 -0.1314562 0.049981743
0.42461532 -0.13198806 0.049973276
0.42420107 -0.13251992 0.049964812
0.42378679 -0.1330518 0.049956344
0.42337257 -0.13358366 0.049947876
0.42295831 -0.13411553 0.049939413
0.42254406 -0.13464738 0.049930945
0.42212981 -0.13517927 0.049922477
0.42171556 -0.13571113 0.049914014
0.42130131 -0.136243 0.049905546
0.4213714 -0.13767456 0.049538027
0.42095649 -0.13820729 0.049529549
0.42054158 -0.13874 0.049521066
0.42060897 -0.14017496 0.049153518
0.4201934 -0.14070851 0.049145024
0.41977784 -0.14124209 0.049136531
0.41984257 -0.14268044 0.048768923
0.41942635 -0.14321485 0.048760418
0.4190101 -0.14374928 0.048751909
0.41907221 -0.14519103 0.048384249
0.41913304 -0.1466345 0.048016541
0.41919249 -0.14807966 0.047648828
0.41925061 -0.14952651 0.047281086
0.41883171 -0.15006433 0.047272526
0.41888785 -0.15151376 0.046904743
0.4184683 -0.15205243 0.046896171
0.41804874 -0.15259111 0.046887595
0.41762918 -0.15312977 0.04687902
0.47155741 -0.12150011 0.038102228
0.47004855 -0.12039565 0.038811263
0.46961373 -0.1209539 0.038802378
0.4686439 -0.12067825 0.039152481
0.46767539 -0.12040092 0.03950261
0.46670821 -0.12012187 0.039852768
0.46574229 -0.11984108 0.040202975
0.46531016 -0.12039593 0.040194146
0.46434629 -0.12011262 0.040544372
0.46285269 -0.11898863 0.041253693
0.46242252 -0.11954092 0.041244905
0.46146259 -0.11925247 0.041595232
0.45997494 -0.11812082 0.04230468
0.45901838 -0.11782816 0.042655054
0.45806313 -0.1175338 0.043005455
0.45710915 -0.1172377 0.043355905
0.45615655 -0.11693992 0.043706365
0.45520526 -0.11664046 0.044056844
0.4547804 -0.11718594 0.044048164
0.45383111 -0.11688392 0.044398688
0.45288315 -0.1165802 0.044749238
0.45193648 -0.11627474 0.045099836
0.45099115 -0.11596761 0.045450442
0.45056897 -0.11650968 0.045441814
0.44962564 -0.1162 0.04579246
0.44868365 -0.11588862 0.046143133
0.44826275 -0.11642899 0.046134531
0.44784188 -0.11696938 0.04612593
0.44690248 -0.11665455 0.046476677
0.44596449 -0.11633806 0.046827432
0.44502777 -0.11601987 0.047178213
0.4446089 -0.11655769 0.047169652
0.44367418 -0.11623695 0.047520474
0.44325596 -0.11677393 0.047511924
0.44283772 -0.1173109 0.047503378
0.44190568 -0.11698674 0.047854256
0.44148812 -0.11752287 0.047845721
0.44107056 -0.11805899 0.047837187
0.44014108 -0.1177314 0.048188139
0.43972421 -0.11826667 0.048179619
0.43930727 -0.11880195 0.048171096
0.4388904 -0.11933722 0.048162576
0.43847349 -0.11987249 0.048154056
0.43754807 -0.11953983 0.048505068
0.43713182 -0.12007425 0.048496559
0.43671557 -0.12060867 0.048488054
0.43629935 -0.12114309 0.048479546
0.43537724 -0.12080617 0.048830625
0.43496165 -0.12133974 0.048822131
0.43404153 -0.12100028 0.049173251
0.43362662 -0.121533 0.049164772
0.43270844 -0.12119094 0.049515955
0.43229419 -0.12172282 0.049507488
0.43187994 -0.12225468 0.04949902
0.43146569 -0.12278655 0.049490556
0.43105143 -0.12331841 0.049482089
0.43063718 -0.12385029 0.049473621
0.43022293 -0.12438215 0.049465157
0.42980868 -0.12491401 0.04945669
0.42939442 -0.12544589 0.049448222
0.42898017 -0.12597774 0.049439758
0.42856592 -0.12650962 0.04943129
0.42815167 -0.12704147 0.049422823
0.42773741 -0.12757336 0.049414359
0.42732316 -0.12810521 0.049405891
0.42690891 -0.12863709 0.049397424
0.42649466 -0.12916894 0.04938896
0.42608041 -0.12970081 0.049380492
0.42566615 -0.13023269 0.049372025
0.4252519 -0.13076456 0.049363561
0.42483765 -0.13129641 0.049355093
0.42442343 -0.13182828 0.049346626
0.42400917 -0.13236015 0.049338162
0.42359489 -0.13289203 0.049329694
0.42318067 -0.13342388 0.049321227
0.42276642 -0.13395575 0.049312763
0.42235216 -0.13448761 0.049304295
0.42193788 -0.1350195 0.049295828
0.42152366 -0.13555136 0.04928736
0.42110941 -0.13608322 0.049278896
0.42069516 -0.13661508 0.049270429
0.42076427 -0.13804726 0.048901893
0.42034939 -0.13857996 0.048893414
0.42041647 -0.14001466 0.04852486
0.42000088 -0.14054823 0.048516367
0.41958532 -0.1410818 0.048507873
0.41964975 -0.14251989 0.048139267
0.41923353 -0.14305431 0.048130758
0.41881728 -0.14358874 0.048122253
0.41840103 -0.14412315 0.048113745
0.41846219 -0.14556549 0.047745068
0.41852203 -0.14700957 0.047376346
0.4185805 -0.14845534 0.047007613
0.41863766 -0.14990278 0.046638858
0.41869351 -0.15135193 0.046270072
0.41827396 -0.15189061 0.046261497
0.4178544 -0.15242928 0.046252925
0.41743484 -0.15296796 0.046244349
0.41654322 -0.1525919 0.04659605
0.4723289 -0.12160218 0.037091464
0.47135538 -0.1213319 0.03744249
0.46984711 -0.12022795 0.038153533
0.46941233 -0.1207862 0.038144644
0.4684428 -0.12051081 0.038495753
0.46747458 -0.12023372 0.038846884
0.4665077 -0.11995493 0.039198045
0.46554211 -0.11967441 0.039549254
0.46457788 -0.11939222 0.039900471
0.46361497 -0.11910832 0.040251713
0.4626534 -0.11882272 0.040602982
0.46169311 -0.11853538 0.040954299
0.46073419 -0.11824638 0.041305624
0.45977661 -0.11795567 0.041656975
0.45882034 -0.11766327 0.042008352
0.45786539 -0.11736917 0.042359754
0.45691171 -0.11707332 0.04271121
0.45595944 -0.1167758 0.043062668
0.45500845 -0.1164766 0.043414153
0.4540588 -0.11617568 0.043765668
0.45311049 -0.11587305 0.044117209
0.45216346 -0.1155687 0.044468794
0.45174059 -0.11611164 0.044460151
0.45079559 -0.11580476 0.044811763
0.45037338 -0.11634684 0.044803131
0.44943038 -0.11603741 0.04515478
0.44848868 -0.11572628 0.045506455
0.44806778 -0.11626666 0.045497853
0.44764692 -0.11680704 0.045489252
0.44670784 -0.11649247 0.045841005
0.44577011 -0.11617623 0.046192762
0.44483373 -0.1158583 0.046544544
0.44441485 -0.11639612 0.046535984
0.44348043 -0.11607564 0.046887808
0.44306222 -0.11661261 0.046879258
0.44264397 -0.11714958 0.046870712
0.44171223 -0.11682569 0.047222592
0.44129467 -0.11736181 0.047214057
0.44087711 -0.11789793 0.047205523
0.43994796 -0.1175706 0.047557477
0.43953106 -0.11810587 0.047548957
0.43911415 -0.11864115 0.047540437
0.43818772 -0.11831044 0.047892425
0.43777147 -0.11884486 0.047883917
0.43735525 -0.11937928 0.047875412
0.436939 -0.1199137 0.047866903
0.43601587 -0.11957876 0.048218958
0.43560028 -0.12011232 0.048210464
0.43467915 -0.1197748 0.04856256
0.43426424 -0.12030753 0.048554081
0.43384933 -0.12084024 0.048545599
0.43293077 -0.1204993 0.048897769
0.43251655 -0.12103117 0.048889305
0.43210229 -0.12156304 0.048880838
0.43168804 -0.1220949 0.04887237
0.43127379 -0.12262677 0.048863906
0.43085954 -0.12315863 0.048855439
0.43044528 -0.12369051 0.048846971
0.43003103 -0.12422237 0.048838507
0.42961678 -0.12475423 0.04883004
0.42920253 -0.1252861 0.048821572
0.42878827 -0.12581797 0.048813108
0.42837402 -0.12634984 0.048804641
0.42795977 -0.1268817 0.048796173
0.42754552 -0.12741357 0.048787706
0.42713127 -0.12794544 0.048779242
0.42671701 -0.12847731 0.048770774
0.42630276 -0.12900917 0.048762307
0.42588851 -0.12954102 0.048753843
0.42547426 -0.13007292 0.048745375
0.42506 -0.13060477 0.048736908
0.42464575 -0.13113664 0.048728444
0.42423153 -0.13166849 0.048719976
0.42381728 -0.13220036 0.048711509
0.42340299 -0.13273224 0.048703045
0.42298874 -0.13326411 0.048694577
0.42257452 -0.13379598 0.048686109
0.42216027 -0.13432783 0.048677646
0.42174599 -0.13485971 0.048669178
0.42133176 -0.13539158 0.04866071
0.42091751 -0.13592345 0.048652247
0.42050326 -0.1364553 0.048643779
0.42057207 -0.13788722 0.048274241
0.42015716 -0.13841993 0.048265763
0.42022395 -0.13985439 0.047896206
0.41980839 -0.14038794 0.047887713
0.41939279 -0.1409215 0.047879219
0.41945693 -0.14235935 0.047509607
0.41904071 -0.14289376 0.047501102
0.41862446 -0.14342819 0.047492594
0.41820821 -0.14396261 0.047484089
0.41826904 -0.1454047 0.04711441
0.41832861 -0.1468485 0.046744682
0.41838676 -0.14829402 0.046374947
0.41844362 -0.1497412 0.046005186
0.41849914 -0.1511901 0.045635402
0.41807958 -0.15172878 0.045626827
0.41766003 -0.15226746 0.045618251
0.41724047 -0.15280613 0.045609679
0.41634917 -0.15243033 0.045962382
0.47310108 -0.12170203 0.036078725
0.47212657 -0.12143371 0.036430724
0.47061691 -0.12033282 0.03714373
0.46964571 -0.12006024 0.037495799
0.46921089 -0.12061849 0.037486911
0.46824169 -0.12034336 0.037839022
0.46727377 -0.12006653 0.038191158
0.46630722 -0.11978799 0.038543321
0.46534193 -0.11950773 0.038895532
0.464378 -0.11922579 0.039247751
0.46341541 -0.11894215 0.039599996
0.46245414 -0.11865681 0.039952267
0.46149415 -0.11836973 0.040304586
0.46053556 -0.11808097 0.040656913
0.45957825 -0.11779052 0.041009266
0.45862228 -0.11749838 0.041361649
0.45766765 -0.11720453 0.041714054
0.4567143 -0.11690895 0.042066511
0.4557623 -0.11661167 0.042418972
0.45481163 -0.11631273 0.042771462
0.45386231 -0.11601207 0.043123975
0.4529143 -0.1157097 0.043476518
0.45196757 -0.1154056 0.04382911
0.4515447 -0.11594854 0.043820467
0.4506 -0.11564191 0.04417308
0.45017779 -0.11618399 0.044164449
0.44923508 -0.11587482 0.0445171
0.44829372 -0.11556394 0.044869781
0.44787282 -0.11610433 0.044861179
0.44745195 -0.1166447 0.044852577
0.44651318 -0.11633039 0.045205329
0.44557577 -0.11601441 0.045558088
0.44463968 -0.11569674 0.045910876
0.44422081 -0.11623456 0.045902316
0.44328669 -0.11591433 0.046255141
0.44286847 -0.1164513 0.046246596
0.44245026 -0.11698827 0.046238046
0.44151881 -0.11666463 0.046590928
0.44110122 -0.11720076 0.046582393
0.44068366 -0.11773688 0.046573859
0.43975484 -0.1174098 0.046926815
0.43933794 -0.11794507 0.046918295
0.43841115 -0.11761548 0.047271274
0.4379949 -0.11814989 0.047262765
0.43757865 -0.11868431 0.047254257
0.43665451 -0.11835133 0.047607288
0.43623894 -0.11888489 0.047598794
0.43582335 -0.11941846 0.0475903
0.43490186 -0.11908206 0.047943387
0.43448696 -0.11961477 0.047934908
0.43407202 -0.12014749 0.047926426
0.43315315 -0.11980765 0.048279587
0.43273887 -0.12033952 0.04827112
0.43232465 -0.12087139 0.048262656
0.43191037 -0.12140326 0.048254188
0.43149614 -0.12193512 0.048245721
0.43108189 -0.122467 0.048237257
0.43066764 -0.12299886 0.048228789
0.43025339 -0.12353073 0.048220322
0.42983913 -0.12406259 0.048211858
0.42942488 -0.12459445 0.04820339
0.42901063 -0.12512633 0.048194923
0.42859638 -0.12565818 0.048186459
0.42818213 -0.12619007 0.048177991
0.42776787 -0.12672192 0.048169523
0.42735362 -0.1272538 0.048161056
0.42693937 -0.12778565 0.048152592
0.42652512 -0.12831753 0.048144124
0.42611086 -0.12884939 0.048135657
0.42569661 -0.12938125 0.048127193
0.42528236 -0.12991314 0.048118725
0.42486811 -0.130445 0.048110258
0.42445385 -0.13097686 0.048101794
0.4240396 -0.13150872 0.048093326
0.42362538 -0.13204059 0.048084859
0.4232111 -0.13257247 0.048076395
0.42279685 -0.13310432 0.048067927
0.42238262 -0.13363619 0.04805946
0.42196837 -0.13416806 0.048050996
0.42155409 -0.13469994 0.048042528
0.42113987 -0.13523181 0.048034061
0.42072561 -0.13576366 0.048025597
0.42031136 -0.13629553 0.048017129
0.42037988 -0.13772719 0.04764659
0.41996497 -0.1382599 0.047638111
0.42003143 -0.13969409 0.047267549
0.41961586 -0.14022765 0.047259055
0.41920027 -0.14076123 0.047250561
0.41926411 -0.1421988 0.046879951
0.41884789 -0.14273322 0.046871442
0.41843164 -0.14326765 0.046862934
0.41801539 -0.14380206 0.046854429
0.41807592 -0.1452439 0.046483748
0.41813517 -0.14668745 0.046113018
0.41819301 -0.14813271 0.045742281
0.4177748 -0.14866967 0.045733735
0.41783068 -0.15011747 0.045362957
0.41788524 -0.15156695 0.044992156
0.41746569 -0.15210563 0.044983581
0.41704613 -0.15264431 0.044975005
0.41615513 -0.15226877 0.045328714
0.47192422 -0.12126524 0.035769984
0.47041517 -0.12016486 0.036484994
0.46944427 -0.11989255 0.036838066
0.46900949 -0.12045079 0.036829181
0.46804056 -0.12017591 0.03718229
0.46707296 -0.11989934 0.037535433
0.46610671 -0.11962105 0.037888598
0.46514174 -0.11934105 0.038241811
0.46417812 -0.11905937 0.038595032
0.46321583 -0.11877598 0.038948279
0.46225488 -0.1184909 0.039301556
0.46129519 -0.11820407 0.039654877
0.46033689 -0.11791558 0.040008206
0.45937991 -0.11762538 0.040361561
0.45842424 -0.11733349 0.040714946
0.45746991 -0.1170399 0.041068356
0.45651686 -0.11674456 0.041421812
0.45556518 -0.11644755 0.041775279
0.45461482 -0.11614886 0.042128768
0.45366579 -0.11584845 0.042482287
0.45271811 -0.11554635 0.042835832
0.45177168 -0.1152425 0.043189425
0.45134881 -0.11578543 0.043180782
0.45040441 -0.11547907 0.043534398
0.44998223 -0.11602114 0.043525767
0.44903982 -0.11571223 0.043879423
0.44809875 -0.11540161 0.044233102
0.44767785 -0.11594199 0.044224501
0.44725698 -0.11648237 0.044215899
0.44631851 -0.11616831 0.044569656
0.4453814 -0.11585259 0.044923417
0.44444564 -0.11553517 0.045277208
0.44402674 -0.11607299 0.045268647
0.44309294 -0.11575302 0.045622475
0.44267473 -0.11628999 0.045613926
0.44225651 -0.11682697 0.04560538
0.44132537 -0.11650357 0.045959264
0.44090781 -0.1170397 0.045950729
0.44049025 -0.11757582 0.045942195
0.43956172 -0.117249 0.046296157
0.43914482 -0.11778427 0.046287633
0.43821833 -0.11745494 0.046641614
0.43780208 -0.11798935 0.046633106
0.43687758 -0.11765747 0.046987128
0.43646199 -0.11819103 0.046978634
0.43553948 -0.11785659 0.047332693
0.43512458 -0.1183893 0.047324214
0.43470964 -0.11892202 0.047315732
0.43429473 -0.11945474 0.047307253
0.43337548 -0.11911601 0.047661401
0.43296123 -0.11964788 0.047652937
0.43254697 -0.12017974 0.04764447
0.43213275 -0.12071161 0.047636002
0.43171847 -0.12124348 0.047627538
0.43130425 -0.12177534 0.047619071
0.43088996 -0.12230722 0.047610603
0.43047574 -0.12283908 0.047602139
0.43006146 -0.12337095 0.047593672
0.42964724 -0.12390281 0.047585204
0.42923298 -0.12443467 0.04757674
0.42881873 -0.12496655 0.047568273
0.42840448 -0.12549841 0.047559805
0.42799023 -0.12603028 0.047551341
0.42757598 -0.12656215 0.047542874
0.42716172 -0.12709402 0.047534406
0.42674747 -0.12762588 0.047525942
0.42633322 -0.12815775 0.047517475
0.42591897 -0.12868962 0.047509007
0.42550471 -0.12922147 0.047500543
0.42509046 -0.12975337 0.047492076
0.42467621 -0.13028522 0.047483608
0.42426196 -0.13081709 0.047475144
0.42384771 -0.13134894 0.047466677
0.42343348 -0.1318808 0.047458209
0.4230192 -0.13241269 0.047449742
0.42260495 -0.13294455 0.047441278
0.42219073 -0.13347642 0.04743281
0.42177647 -0.13400827 0.047424346
0.42136219 -0.13454016 0.047415879
0.42094794 -0.13507202 0.047407411
0.42053372 -0.13560389 0.047398943
0.42011946 -0.13613574 0.04739048
0.42018765 -0.13756716 0.047018934
0.41977274 -0.13809986 0.047010455
0.41935784 -0.1386326 0.047001977
0.41942334 -0.14006735 0.046630401
0.41900778 -0.14060093 0.046621908
0.41907129 -0.14203826 0.046250291
0.41865507 -0.14257267 0.046241783
0.41823882 -0.1431071 0.046233278
0.41782257 -0.14364152 0.046224769
0.4178828 -0.1450831 0.045853086
0.4174659 -0.14561836 0.045844566
0.41752416 -0.14706253 0.045472819
0.41758105 -0.14850836 0.045101069
0.41763663 -0.1499559 0.044729289
0.41721773 -0.15049373 0.044720728
0.41679886 -0.15103154 0.044712167
0.41637996 -0.15156937 0.044703607
0.41596106 -0.15210719 0.044695046
0.69479674 0.025634861 0.0052681668
0.46967766 -0.11916659 0.036189221
0.46924287 -0.11972484 0.036180336
0.46880805 -0.12028309 0.036171447
0.46783945 -0.12000847 0.036525562
0.46687219 -0.11973215 0.036879703
0.46590623 -0.11945412 0.037233874
0.46494153 -0.11917437 0.03758809
0.46397823 -0.11889294 0.037942313
0.46301627 -0.11860982 0.038296562
0.46205559 -0.11832498 0.038650841
0.46109623 -0.11803841 0.039005168
0.46013823 -0.11775018 0.039359499
0.45918158 -0.11746023 0.039713856
0.4582262 -0.1171686 0.040068243
0.45727217 -0.11687526 0.040422656
0.45631945 -0.11658018 0.040777117
0.45536807 -0.11628342 0.041131582
0.454418 -0.11598499 0.041486077
0.45346931 -0.11568484 0.041840598
0.45252189 -0.11538298 0.042195145
0.45157579 -0.1150794 0.042549741
0.45115292 -0.11562233 0.042541098
0.45020884 -0.11531623 0.042895716
0.44978663 -0.11585829 0.042887084
0.44884452 -0.11554964 0.043241743
0.44790378 -0.11523928 0.043596424
0.44748288 -0.11577966 0.043587822
0.44706202 -0.11632004 0.043579221
0.44612384 -0.11600623 0.04393398
0.44518706 -0.11569076 0.044288747
0.4442516 -0.1153736 0.044643536
0.4438327 -0.11591142 0.044634975
0.44289923 -0.1155917 0.044989809
0.44248098 -0.11612868 0.04498126
0.44206277 -0.11666565 0.044972714
0.44113195 -0.11634252 0.0453276
0.44071436 -0.11687864 0.045319065
0.4402968 -0.11741476 0.045310531
0.43936858 -0.1170882 0.045665495
0.43895167 -0.11762347 0.045656975
0.4380255 -0.11729439 0.046011955
0.43710065 -0.1169636 0.046366964
0.43668506 -0.11749718 0.04635847
0.43576217 -0.11716384 0.04671352
0.43534726 -0.11769656 0.046705041
0.43442634 -0.11736062 0.047060151
0.43401209 -0.1178925 0.047051687
0.43359783 -0.11842436 0.047043219
0.43318358 -0.11895623 0.047034752
0.43276933 -0.1194881 0.047026288
0.43235508 -0.12001996 0.04701782
0.43194082 -0.12055183 0.047009353
0.43152657 -0.1210837 0.047000889
0.43111232 -0.12161557 0.046992421
0.43069807 -0.12214744 0.046983954
0.43028384 -0.1226793 0.04697549
0.42986956 -0.12321118 0.046967022
0.42945534 -0.12374303 0.046958555
0.42904109 -0.12427489 0.046950091
0.42862684 -0.12480677 0.046941623
0.42821258 -0.12533863 0.046933156
0.42779833 -0.12587051 0.046924692
0.42738408 -0.12640236 0.046916224
0.42696983 -0.12693425 0.046907756
0.42655557 -0.1274661 0.046899293
0.42614132 -0.12799798 0.046890825
0.42572707 -0.12852983 0.046882357
0.42531282 -0.1290617 0.046873894
0.42489856 -0.12959358 0.046865426
0.42448431 -0.13012545 0.046856958
0.42407006 -0.1306573 0.046848491
0.42365581 -0.13118917 0.046840027
0.42324159 -0.13172103 0.046831559
0.4228273 -0.13225292 0.046823092
0.42241305 -0.13278477 0.046814628
0.4219988 -0.13331664 0.04680616
0.42158458 -0.1338485 0.046797693
0.42117029 -0.13438039 0.046789229
0.42075604 -0.13491224 0.046780761
0.42034182 -0.1354441 0.046772294
0.41992757 -0.13597597 0.04676383
0.41999546 -0.13740712 0.046391282
0.41958055 -0.13793983 0.046382803
0.41916561 -0.13847256 0.046374325
0.41923085 -0.13990706 0.046001744
0.41881526 -0.14044064 0.045993254
0.4188785 -0.14187771 0.045620631
0.41846225 -0.14241213 0.045612127
0.418046 -0.14294656 0.045603618
0.41762975 -0.14348097 0.045595113
0.41768965 -0.14492229 0.045222424
0.41727278 -0.14545757 0.045213904
0.41733071 -0.14690147 0.044841155
0.41738731 -0.14834705 0.044468403
0.41696909 -0.14888403 0.044459853
0.41702369 -0.15033217 0.04408706
0.41660482 -0.15086997 0.044078499
0.41618592 -0.15140779 0.044069938
0.41576701 -0.15194562 0.044061374
0.4158183 -0.15339801 0.043688513
0.69165939 0.032718077 0.0070801713
0.69270658 0.031027291 0.0063517359
0.46947625 -0.11899889 0.035531487
0.46904144 -0.11955713 0.035522602
0.46860665 -0.12011538 0.035513714
0.46763834 -0.11984102 0.035868831
0.46667138 -0.11956496 0.036223978
0.46517351 -0.11845285 0.036943201
0.46420985 -0.11817252 0.037298415
0.46324751 -0.11789049 0.037653651
0.4622865 -0.11760677 0.038008917
0.46132678 -0.1173213 0.038364232
0.46036842 -0.11703418 0.038719554
0.45941138 -0.11674535 0.039074901
0.45898321 -0.11729509 0.039066151
0.45802817 -0.1170037 0.03942154
0.45707446 -0.11671063 0.039776955
0.45612201 -0.11641581 0.040132418
0.45517096 -0.1161193 0.040487885
0.45422119 -0.11582112 0.040843382
0.45327279 -0.11552123 0.041198906
0.4523257 -0.11521963 0.041554458
0.4513799 -0.11491629 0.041910056
0.45095703 -0.11545923 0.041901413
0.45001325 -0.11515338 0.042257033
0.44959104 -0.11569545 0.042248406
0.44864926 -0.11538705 0.042604063
0.44770879 -0.11507694 0.04295975
0.44728792 -0.11561732 0.042951148
0.44686705 -0.1161577 0.042942546
0.44592917 -0.11584415 0.043298308
0.44499269 -0.11552894 0.043654077
0.44405752 -0.11521203 0.044009868
0.44363865 -0.11574985 0.044001307
0.44270548 -0.11543039 0.044357143
0.44228724 -0.11596737 0.044348594
0.44186902 -0.11650434 0.044340048
0.4409385 -0.11618146 0.044695936
0.44052094 -0.11671759 0.044687402
0.44010338 -0.11725371 0.044678867
0.43917546 -0.1169274 0.045034833
0.43875855 -0.11746267 0.045026314
0.43783268 -0.11713385 0.045382299
0.43690813 -0.11680331 0.04573831
0.43649253 -0.11733689 0.045729816
0.43556997 -0.11700381 0.046085868
0.43515506 -0.11753652 0.046077386
0.43423444 -0.11720084 0.046433501
0.43382019 -0.11773272 0.046425037
0.43340594 -0.11826458 0.04641657
0.43299168 -0.11879645 0.046408102
0.43257743 -0.11932832 0.046399638
0.43216318 -0.11986019 0.04639117
0.43174893 -0.12039205 0.046382703
0.43133467 -0.12092392 0.046374235
0.43092042 -0.12145579 0.046365771
0.43050617 -0.12198766 0.046357304
0.43009192 -0.12251952 0.046348836
0.42967767 -0.1230514 0.046340372
0.42926344 -0.12358326 0.046331905
0.42884919 -0.12411512 0.046323437
0.42843494 -0.12464699 0.046314973
0.42802069 -0.12517886 0.046306506
0.42760643 -0.12571073 0.046298038
0.42719218 -0.12624259 0.046289574
0.42677793 -0.12677446 0.046281107
0.42636368 -0.12730633 0.046272639
0.42594942 -0.12783819 0.046264175
0.42553517 -0.12837006 0.046255708
0.42512092 -0.12890191 0.04624724
0.42470667 -0.12943381 0.046238776
0.42429242 -0.12996566 0.046230309
0.42387816 -0.13049753 0.046221841
0.42346391 -0.13102938 0.046213377
0.42304966 -0.13156125 0.04620491
0.42263541 -0.13209313 0.046196442
0.42222115 -0.132625 0.046187978
0.4218069 -0.13315687 0.046179511
0.42139268 -0.13368872 0.046171043
0.4209784 -0.1342206 0.046162575
0.42056414 -0.13475247 0.046154112
0.42014989 -0.13528433 0.046145644
0.41973567 -0.13581619 0.04613718
0.41980326 -0.13724709 0.04576363
0.41938835 -0.1377798 0.045755152
0.41897342 -0.13831253 0.045746669
0.41903833 -0.13974677 0.04537309
0.41862273 -0.14028035 0.045364596
0.41868567 -0.14171717 0.044990975
0.41826943 -0.14225158 0.044982467
0.41785318 -0.14278601 0.044973962
0.41743693 -0.14332043 0.044965453
0.41749653 -0.14476149 0.044591766
0.41707963 -0.14529677 0.044583242
0.4171373 -0.14674042 0.044209491
0.41719359 -0.14818573 0.043835737
0.41677535 -0.14872272 0.043827187
0.41682965 -0.15017059 0.043453392
0.41641077 -0.15070841 0.043444831
0.41599187 -0.15124623 0.04343627
0.41557297 -0.15178406 0.043427706
0.41515407 -0.15232189 0.043419145
0.6952278 0.033232197 0.0052840728
0.69318908 0.033648513 0.0059942119
0.69269526 0.033014528 0.0059841201
0.47024548 -0.11910189 0.034517691
0.46927482 -0.11883119 0.034873758
0.46884003 -0.11938944 0.034864869
0.46840522 -0.11994768 0.034855984
0.46743724 -0.11967357 0.035212103
0.46593803 -0.11856456 0.035933271
0.4649733 -0.11828616 0.03628948
