# .PCD v0.7 - Point Cloud Data file format
VERSION 0.7
FIELDS x y z
SIZE 4 4 4
TYPE F F F
COUNT 1 1 1
WIDTH 1379
HEIGHT 1
VIEWPOINT 0 0 0 1 0 0 0
POINTS 1379
DATA ascii
0.58650976 0.048376087 0.041404765
0.58608228 0.047827203 0.041396026
0.58565474 0.047278315 0.04138729
0.58450317 0.0473167 0.041739658
0.61909652 0.096699417 0.042935733
0.61867166 0.096153937 0.042927049
0.61746669 0.096123137 0.043279324
0.61782193 0.095062971 0.042909682
0.61739707 0.094517484 0.042901002
0.61697221 0.093972005 0.042892318
0.61654741 0.093426518 0.042883635
0.61534572 0.093399972 0.043235976
0.6141454 0.093375131 0.043588344
0.61372185 0.092831351 0.043579686
0.6125235 0.092809089 0.043932118
0.61132646 0.092788503 0.044284552
0.61013079 0.092769615 0.044637013
0.60970926 0.09222839 0.0446284
0.60851556 0.092212051 0.044980902
0.60809463 0.091671675 0.044972301
0.60767376 0.0911313 0.044963699
0.60648268 0.091118403 0.045316279
0.60606247 0.090578876 0.045307688
0.60564226 0.09003935 0.045299102
0.60445386 0.090029828 0.045651712
0.6040343 0.089491151 0.04564314
0.60361475 0.088952474 0.045634564
0.60242897 0.08894635 0.04598723
0.60201013 0.08840853 0.045978669
0.60082632 0.088404961 0.046331376
0.60040814 0.087867983 0.046322826
0.59998989 0.087331012 0.04631428
0.59880877 0.087330848 0.046667039
0.59839123 0.086794727 0.046658505
0.59797364 0.086258605 0.04664997
0.59755611 0.085722484 0.046641435
0.59713852 0.085186362 0.046632905
0.59672093 0.084650241 0.04662437
0.5963034 0.084114119 0.046615835
0.59588581 0.083577991 0.046607301
0.59546828 0.083041869 0.046598766
0.59505069 0.082505748 0.046590231
0.5946331 0.081969626 0.046581697
0.59421557 0.081433505 0.046573166
0.59379798 0.080897383 0.046564631
0.59338045 0.080361262 0.046556097
0.59296286 0.079825141 0.046547562
0.59254533 0.079289019 0.046539027
0.59212774 0.078752898 0.046530493
0.59171015 0.078216776 0.046521958
0.59129262 0.077680655 0.046513427
0.59087503 0.077144533 0.046504892
0.5904575 0.076608412 0.046496358
0.59003991 0.076072291 0.046487823
0.58962238 0.075536169 0.046479288
0.58920479 0.075000048 0.046470754
0.5887872 0.074463919 0.046462219
0.58836967 0.073927797 0.046453688
0.58795208 0.073391676 0.046445154
0.58753455 0.072855555 0.046436619
0.58711696 0.072319433 0.046428084
0.58669937 0.071783312 0.04641955
0.58628184 0.07124719 0.046411015
0.58586425 0.070711069 0.04640248
0.58544672 0.070174947 0.04639395
0.58502913 0.069638826 0.046385415
0.58461159 0.069102705 0.04637688
0.584194 0.068566583 0.046368346
0.58377641 0.068030462 0.046359811
0.58409721 0.06692604 0.045989469
0.58367902 0.066389069 0.045980919
0.58399779 0.065282099 0.045610536
0.58357888 0.064744279 0.045601975
0.58389574 0.063634753 0.045231551
0.58421123 0.062523529 0.044861097
0.58379102 0.061984006 0.04485251
0.5833708 0.06144448 0.044843923
0.58368367 0.060329817 0.044473395
0.5832628 0.059789442 0.044464793
0.58357364 0.05867226 0.044094246
0.58388317 0.057553381 0.043723673
0.58346099 0.057011299 0.043715041
0.58376849 0.055889864 0.043344427
0.58334565 0.055346936 0.043335784
0.58365124 0.054222915 0.042965107
0.58395547 0.053097222 0.042594425
0.58425832 0.05196983 0.042223718
0.58455992 0.050840735 0.041852981
0.58558595 0.049125444 0.041120127
0.58588421 0.047992095 0.040749323
0.58545673 0.047443207 0.040740587
0.58430541 0.047481336 0.041093957
0.61811858 0.097376011 0.042654973
0.61847484 0.096317805 0.042284358
0.61727017 0.096286744 0.042637631
0.61762512 0.095226839 0.042266991
0.61720026 0.094681352 0.042258307
0.61677539 0.094135873 0.042249624
0.61557341 0.094108216 0.042602956
0.6151492 0.093563586 0.042594284
0.61394918 0.093538485 0.042947654
0.61275047 0.09351512 0.043301076
0.61155307 0.093493432 0.043654498
0.61035705 0.093473434 0.04400795
0.60993552 0.092932209 0.043999337
0.60951394 0.092390977 0.04399072
0.60832053 0.092374392 0.044344224
0.60789967 0.091834009 0.044335622
0.60670823 0.091820009 0.044689193
0.60628802 0.091280483 0.044680603
0.6058678 0.090740956 0.044672016
0.60544759 0.09020143 0.044663429
0.60425949 0.090191647 0.045017041
0.60383993 0.08965297 0.045008466
0.60342038 0.089114301 0.044999894
0.60223496 0.089107923 0.045353562
0.60181606 0.088570096 0.045344997
0.60063261 0.088566273 0.045698706
0.60021436 0.088029295 0.04569016
0.59979612 0.087492324 0.045681611
0.59861535 0.087491907 0.046035375
0.59819776 0.086955786 0.046026841
0.59778023 0.086419657 0.046018306
0.59736264 0.085883535 0.046009775
0.59694511 0.085347414 0.046001241
0.59652752 0.084811293 0.045992706
0.59610993 0.084275171 0.045984171
0.5956924 0.08373905 0.045975637
0.59527481 0.083202928 0.045967102
0.59485728 0.082666807 0.045958567
0.59443969 0.082130685 0.045950036
0.59402215 0.081594564 0.045941502
0.59360456 0.081058443 0.045932967
0.59318697 0.080522321 0.045924433
0.59276944 0.0799862 0.045915898
0.59235185 0.079450078 0.045907363
0.59193432 0.078913949 0.045898829
0.59151673 0.078377828 0.045890298
0.5910992 0.077841707 0.045881763
0.59068161 0.077305585 0.045873228
0.59026402 0.076769464 0.045864694
0.58984649 0.076233342 0.045856159
0.5894289 0.075697221 0.045847625
0.58901137 0.075161099 0.04583909
0.58859378 0.074624978 0.045830559
0.58817619 0.074088857 0.045822024
0.58775866 0.073552735 0.04581349
0.58734107 0.073016614 0.045804955
0.58692354 0.072480492 0.04579642
0.58650595 0.071944371 0.045787886
0.58608842 0.071408249 0.045779351
0.58567083 0.070872128 0.045770817
0.58525324 0.070336007 0.045762286
0.58483571 0.069799878 0.045753751
0.58441812 0.069263756 0.045745216
0.58400059 0.068727635 0.045736682
0.583583 0.068191513 0.045728147
0.58316547 0.067655392 0.045719612
0.58348525 0.066550381 0.045348253
0.58306706 0.066013411 0.045339707
0.58338487 0.064905845 0.044968307
0.58370137 0.06379658 0.044596877
0.58328182 0.063257903 0.044588305
0.58359635 0.062146086 0.044216838
0.58317614 0.06160656 0.044208247
0.58275592 0.061067034 0.04419966
0.58306783 0.059951779 0.043828115
0.58264697 0.059411399 0.043819513
0.58295679 0.058293626 0.043447949
0.58253527 0.057752397 0.043439336
0.58284318 0.056632068 0.043067731
0.58314973 0.055510037 0.0426961
0.5827269 0.054967105 0.042687457
0.58303148 0.053842489 0.042315766
0.58333474 0.052716203 0.041944068
0.58363664 0.051588215 0.04157234
0.58393729 0.050458524 0.041200589
0.58496135 0.048742041 0.040465705
0.58453453 0.048194006 0.04045698
0.5841077 0.047645971 0.040448256
0.62104541 0.095489711 0.040561523
0.61664951 0.095905729 0.041987274
0.6162253 0.095361099 0.041978605
0.6158011 0.094816461 0.041969933
0.61537689 0.094271831 0.041961264
0.61417651 0.094245628 0.042315625
0.61375302 0.093701847 0.042306967
0.61255455 0.093678229 0.042661391
0.61135751 0.093656272 0.043015819
0.61016178 0.093636021 0.043370273
0.6097402 0.093094796 0.043361656
0.6085465 0.093077101 0.043716151
0.60812557 0.092536725 0.04370755
0.60693377 0.092521615 0.044062108
0.60651356 0.091982089 0.044053517
0.60609335 0.091442563 0.04404493
0.60567313 0.090903036 0.04403634
0.60525292 0.09036351 0.044027753
0.60406512 0.090353474 0.044382371
0.60364556 0.089814797 0.044373795
0.60322601 0.08927612 0.04436522
0.60204089 0.089269489 0.04471989
0.60162199 0.088731661 0.044711329
0.60043883 0.088727579 0.04506604
0.60002065 0.088190608 0.045057494
0.5996024 0.087653637 0.045048948
0.59842193 0.087652959 0.045403711
0.59800434 0.087116838 0.045395177
0.59758675 0.086580716 0.045386642
0.59716922 0.086044595 0.045378111
0.59675163 0.085508473 0.045369577
0.5963341 0.084972352 0.045361042
0.59591651 0.08443623 0.045352507
0.59549898 0.083900109 0.045343973
0.59508139 0.083363988 0.045335438
0.5946638 0.082827866 0.045326903
0.59424627 0.082291745 0.045318373
0.59382868 0.081755623 0.045309838
0.59341115 0.081219494 0.045301303
0.59299356 0.080683373 0.045292769
0.59257603 0.080147251 0.045284234
0.59215844 0.07961113 0.045275699
0.59174085 0.079075009 0.045267165
0.59132332 0.078538887 0.045258634
0.59090573 0.078002766 0.045250099
0.5904882 0.077466644 0.045241565
0.59007061 0.076930523 0.04523303
0.58965302 0.076394401 0.045224495
0.58923548 0.07585828 0.045215961
0.58881789 0.075322159 0.045207426
0.58840036 0.074786037 0.045198895
0.58798277 0.074249916 0.04519036
0.58756524 0.073713787 0.045181826
0.58714765 0.073177665 0.045173291
0.58673006 0.072641544 0.045164756
0.58631253 0.072105423 0.045156222
0.58589494 0.071569301 0.045147687
0.58547741 0.07103318 0.045139156
0.58505982 0.070497058 0.045130622
0.58464229 0.069960937 0.045122087
0.5842247 0.069424815 0.045113552
0.58380711 0.068888694 0.045105018
0.58338958 0.068352573 0.045096483
0.58297199 0.067816451 0.045087948
0.58255446 0.06728033 0.045079418
0.58287328 0.066174723 0.044707041
0.5831908 0.06506741 0.044334639
0.5827719 0.06452959 0.044326074
0.58308744 0.063419729 0.043953631
0.58266789 0.062881052 0.043945059
0.58298147 0.06176864 0.043572575
0.58256125 0.061229113 0.043563984
0.58214104 0.060689587 0.043555398
0.582452 0.059573736 0.043182835
0.58203107 0.059033357 0.043174233
0.58234 0.057914987 0.042801656
0.58191848 0.057373758 0.042793039
0.58222538 0.056252833 0.042420421
0.58253098 0.055130206 0.042047773
0.58283532 0.054005846 0.041675076
0.58313823 0.052879814 0.041302375
0.58343983 0.051752083 0.040929649
0.58374017 0.050622649 0.040556893
0.58476365 0.048906676 0.039820004
0.58433682 0.048358642 0.03981128
0.58318675 0.048397142 0.040166691
0.61525095 0.096040323 0.041700903
0.61482739 0.095496543 0.041692249
0.61440384 0.094952762 0.041683592
0.61320442 0.094927184 0.042038992
0.61200631 0.094903275 0.042394392
0.61158413 0.094361201 0.042385764
0.61038804 0.09433984 0.042741209
0.60996652 0.093798615 0.042732593
0.6087724 0.09377981 0.043088075
0.60835153 0.093239434 0.043079473
0.6079306 0.092699058 0.043070871
0.6067391 0.092683695 0.043426432
0.60631889 0.092144169 0.043417845
0.60589868 0.091604635 0.043409254
0.60547847 0.091065116 0.043400668
0.60505825 0.09052559 0.043392081
0.60387081 0.090515293 0.043747697
0.60345125 0.089976624 0.043739125
0.60303169 0.089437947 0.04373055
0.60184687 0.089431055 0.044086222
0.60142797 0.088893227 0.044077661
0.60024512 0.088888891 0.044433374
0.59982687 0.08835192 0.044424828
0.59940869 0.087814949 0.044416279
0.59822845 0.087814018 0.044772048
0.59781092 0.087277897 0.044763513
0.59739333 0.086741775 0.044754982
0.5969758 0.086205654 0.044746447
0.59655821 0.085669532 0.044737913
0.59614062 0.085133404 0.044729378
0.59572309 0.084597282 0.044720843
0.5953055 0.084061161 0.044712309
0.59488797 0.083525039 0.044703774
0.59447038 0.082988918 0.044695243
0.59405285 0.082452796 0.044686709
0.59363526 0.081916675 0.044678174
0.59321767 0.081380554 0.044669639
0.59280014 0.080844432 0.044661105
0.59238255 0.080308311 0.04465257
0.59196502 0.079772189 0.044644035
0.59154743 0.079236068 0.044635504
0.5911299 0.078699946 0.04462697
0.59071231 0.078163825 0.044618435
0.59029472 0.077627704 0.044609901
0.58987719 0.077091575 0.044601366
0.5894596 0.076555453 0.044592831
0.58904207 0.076019332 0.044584297
0.58862448 0.07548321 0.044575766
0.58820689 0.074947089 0.044567231
0.58778936 0.074410968 0.044558696
0.58737177 0.073874846 0.044550162
0.58695424 0.073338725 0.044541627
0.58653665 0.072802603 0.044533093
0.58611912 0.072266482 0.044524558
0.58570153 0.07173036 0.044516027
0.58528394 0.071194239 0.044507492
0.5848664 0.070658118 0.044498958
0.58444881 0.070121996 0.044490423
0.58403128 0.069585875 0.044481888
0.58361369 0.069049746 0.044473354
0.58319616 0.068513624 0.044464819
0.58277857 0.067977503 0.044456288
0.58236098 0.067441382 0.044447754
0.58267957 0.066336036 0.044074375
0.58226132 0.065799057 0.044065826
0.58257788 0.064691156 0.043692406
0.58289313 0.063581549 0.043318961
0.58247358 0.063042879 0.043310385
0.58205402 0.062504202 0.043301813
0.58236659 0.06139119 0.042928312
0.58194637 0.060851667 0.042919721
0.58225697 0.059736069 0.042546161
0.5818361 0.059195694 0.042537559
0.58141524 0.058655314 0.042528957
0.58172315 0.057536349 0.042155359
0.58130163 0.05699512 0.042146746
0.58160758 0.055873603 0.041773111
0.58191222 0.054750379 0.041399445
0.58221555 0.053625423 0.041025735
0.58251756 0.052498795 0.040652018
0.58281821 0.051370468 0.040278275
0.58311749 0.050240438 0.039904501
0.58341551 0.04910871 0.039530702
0.58298934 0.048561525 0.039521992
0.61427712 0.096719079 0.041425232
0.61307734 0.096692361 0.041781597
0.61265516 0.096150279 0.041772969
0.61223292 0.095608205 0.041764341
0.61181074 0.095066123 0.04175571
0.6106143 0.095043659 0.042112142
0.61019278 0.094502434 0.042103529
0.60977119 0.093961202 0.042094912
0.60857743 0.093942143 0.0424514
0.60815656 0.093401767 0.042442799
0.60773563 0.092861392 0.042434197
0.60654444 0.092845768 0.042790759
0.60612422 0.092306241 0.042782169
0.60570401 0.091766715 0.042773582
0.6052838 0.091227196 0.042764995
0.60486358 0.090687662 0.042756405
0.60367644 0.09067712 0.043113027
0.60325688 0.090138443 0.043104451
0.60283732 0.089599766 0.043095879
0.6016528 0.089592621 0.043452553
0.6012339 0.089054801 0.043443993
0.6000514 0.089050204 0.043800708
0.59963316 0.088513233 0.043792162
0.59921491 0.087976262 0.043783613
0.59803504 0.08797507 0.044140384
0.59761745 0.087438948 0.044131853
0.59719992 0.086902827 0.044123318
0.59678233 0.086366706 0.044114783
0.5963648 0.085830584 0.044106249
0.59594721 0.085294463 0.044097714
0.59552968 0.084758341 0.044089179
0.59511209 0.08422222 0.044080645
0.5946945 0.083686098 0.044072114
0.59427696 0.083149977 0.044063579
0.59385937 0.082613856 0.044055045
0.59344184 0.082077734 0.04404651
0.59302425 0.081541613 0.044037975
0.59260672 0.081005484 0.044029441
0.59218913 0.080469362 0.044020906
0.59177154 0.079933241 0.044012375
0.59135401 0.07939712 0.044003841
0.59093642 0.078860998 0.043995306
0.59051889 0.078324877 0.043986771
0.5901013 0.077788755 0.043978237
0.58968371 0.077252634 0.043969702
0.58926618 0.076716512 0.043961167
0.58884859 0.076180391 0.043952636
0.58843106 0.07564427 0.043944102
0.58801347 0.075108148 0.043935567
0.58759594 0.074572027 0.043927033
0.58717835 0.074035905 0.043918498
0.58676076 0.073499784 0.043909963
0.58634323 0.072963662 0.043901429
0.58592564 0.072427534 0.043892898
0.58550811 0.071891412 0.043884363
0.58509052 0.071355291 0.043875828
0.58467299 0.070819169 0.043867294
0.5842554 0.070283048 0.043858759
0.58383781 0.069746926 0.043850224
0.58342028 0.069210805 0.04384169
0.58300269 0.068674684 0.043833159
0.58258516 0.068138562 0.043824624
0.58216757 0.067602441 0.04381609
0.5824858 0.066497348 0.043441709
0.58206761 0.06596037 0.04343316
0.58238381 0.064852722 0.043058738
0.58196491 0.064314902 0.043050177
0.58227921 0.063204698 0.042675715
0.58185965 0.062666021 0.042667139
0.58217192 0.06155327 0.042292636
0.5817517 0.061013743 0.042284049
0.58133149 0.060474217 0.042275462
0.58164114 0.059358027 0.041900881
0.58122027 0.058817647 0.041892279
0.58152789 0.057698939 0.041517682
0.58110636 0.05715771 0.041509066
0.58141202 0.056036446 0.041134428
0.5817163 0.05491348 0.040759761
0.58201939 0.053788777 0.040385049
0.58232105 0.05266241 0.040010326
0.5826214 0.051534336 0.03963558
0.58219653 0.050988853 0.039626896
0.58249485 0.049858231 0.03925211
0.61210519 0.097371161 0.041508924
0.61245954 0.096313126 0.041134287
0.61203736 0.095771044 0.041125659
0.61084056 0.095747478 0.041483078
0.61041903 0.095206253 0.041474465
0.60999745 0.094665021 0.041465849
0.60957593 0.094123796 0.041457232
0.60838246 0.094104484 0.041814722
0.60796154 0.093564108 0.04180612
0.60754067 0.093023725 0.041797519
0.60634983 0.093007848 0.042155083
0.60592955 0.092468321 0.042146496
0.60550934 0.091928795 0.042137906
0.60508913 0.091389269 0.042129319
0.60466892 0.090849742 0.042120732
0.60348207 0.090838939 0.042478357
0.60306251 0.090300269 0.042469781
0.60264295 0.089761592 0.042461205
0.60145873 0.089754187 0.042818885
0.60103989 0.089216366 0.042810325
0.59985763 0.089211516 0.043168042
0.59943938 0.088674545 0.043159496
0.5990212 0.088137574 0.043150946
0.59784162 0.088136129 0.043508723
0.59742403 0.087600008 0.043500189
0.5970065 0.087063886 0.043491654
0.59658891 0.086527765 0.043483119
0.59617132 0.085991643 0.043474585
0.59575379 0.085455522 0.04346605
0.5953362 0.084919393 0.043457516
0.59491867 0.084383272 0.043448985
0.59450108 0.08384715 0.04344045
0.59408355 0.083311029 0.043431915
0.59366596 0.082774907 0.043423381
0.59324837 0.082238786 0.043414846
0.59283084 0.081702664 0.043406311
0.59241325 0.081166543 0.043397777
0.59199572 0.080630422 0.043389246
0.59157813 0.0800943 0.043380711
0.5911606 0.079558179 0.043372177
0.59074301 0.079022057 0.043363642
0.59032542 0.078485936 0.043355107
0.58990788 0.077949814 0.043346573
0.58949029 0.077413693 0.043338038
0.58907276 0.076877572 0.043329507
0.58865517 0.07634145 0.043320972
0.58823758 0.075805321 0.043312438
0.58782005 0.0752692 0.043303903
0.58740246 0.074733078 0.043295369
0.58698493 0.074196957 0.043286834
0.58656734 0.073660836 0.043278299
0.58614981 0.073124714 0.043269768
0.58573222 0.072588593 0.043261234
0.58531463 0.072052471 0.043252699
0.5848971 0.07151635 0.043244164
0.58447951 0.070980228 0.04323563
0.58406198 0.070444107 0.043227095
0.58364439 0.069907986 0.043218561
0.58322686 0.069371864 0.04321003
0.58280927 0.068835743 0.043201495
0.58239168 0.068299621 0.04319296
0.58197415 0.067763492 0.043184426
0.58155656 0.067227371 0.043175891
0.58187383 0.066121683 0.042800494
0.58145559 0.065584712 0.042791948
0.5817709 0.064476468 0.042416509
0.58208483 0.063366525 0.042041045
0.58166528 0.062827848 0.042032469
0.58197725 0.06171535 0.041656964
0.58155704 0.061175823 0.041648373
0.58113682 0.060636297 0.041639786
0.58144617 0.05952036 0.041264206
0.5810253 0.058979984 0.041255601
0.58060443 0.058439609 0.041246999
0.5809111 0.0573203 0.040871385
0.58121639 0.056199294 0.040495746
0.58152044 0.05507658 0.040120076
0.58182317 0.053952135 0.039744359
0.58212453 0.052826021 0.039368637
0.58170033 0.052281391 0.039359968
0.58199972 0.051152721 0.038984206
0.58157486 0.050607238 0.038975522
0.58042777 0.050647493 0.039333958
0.58030027 0.048970792 0.038949471
0.61233145 0.09807498 0.040879861
0.61190993 0.097533748 0.040871248
0.61148834 0.096992522 0.040862631
0.61106682 0.096451297 0.040854014
0.61064529 0.095910065 0.040845402
0.61022377 0.09536884 0.040836785
0.60980219 0.094827615 0.040828168
0.60938066 0.094286382 0.040819556
0.6081875 0.094266817 0.041178048
0.60776657 0.093726441 0.041169446
0.6073457 0.093186058 0.041160841
0.60615516 0.093169928 0.041519411
0.60573494 0.092630401 0.04151082
0.60531473 0.092090875 0.041502234
0.60489446 0.091551349 0.041493647
0.60447425 0.091011822 0.041485056
0.6032877 0.091000766 0.041843686
0.60286814 0.090462089 0.041835111
0.60244858 0.089923412 0.041826535
0.60126472 0.08991576 0.042185217
0.60084581 0.089377932 0.042176656
0.59966391 0.089372829 0.042535376
0.59924567 0.088835858 0.04252683
0.59882742 0.088298887 0.04251828
0.59764814 0.088297188 0.042877059
0.59723061 0.087761059 0.042868525
0.59681302 0.087224938 0.04285999
0.59639549 0.086688817 0.042851456
0.5959779 0.086152695 0.042842921
0.59556037 0.085616574 0.042834386
0.59514278 0.085080452 0.042825855
0.59472519 0.084544331 0.042817321
0.59430766 0.084008209 0.042808786
0.59389007 0.083472088 0.042800251
0.59347254 0.082935967 0.042791717
0.59305495 0.082399845 0.042783182
0.59263742 0.081863724 0.042774647
0.59221983 0.081327602 0.042766117
0.59180224 0.080791481 0.042757582
0.59138471 0.080255359 0.042749047
0.59096712 0.079719231 0.042740513
0.59054959 0.079183109 0.042731978
0.590132 0.078646988 0.042723443
0.58971441 0.078110866 0.042714909
0.58929688 0.077574745 0.042706378
0.58887929 0.077038623 0.042697843
0.58846176 0.076502502 0.042689309
0.58804417 0.075966381 0.042680774
0.58762664 0.075430259 0.042672239
0.58720905 0.074894138 0.042663705
0.58679146 0.074358016 0.04265517
0.58637393 0.073821895 0.042646639
0.58595634 0.073285773 0.042638104
0.5855388 0.072749652 0.04262957
0.58512121 0.072213531 0.042621035
0.58470368 0.071677402 0.0426125
0.58428609 0.07114128 0.042603966
0.5838685 0.070605159 0.042595431
0.58345097 0.070069037 0.0425869
0.58303338 0.069532916 0.042578366
0.58261585 0.068996795 0.042569831
0.58219826 0.068460673 0.042561296
0.58178067 0.067924552 0.042552762
0.58136314 0.06738843 0.042544227
0.58168012 0.066282995 0.042167827
0.58126187 0.065746024 0.042159282
0.58157682 0.064638034 0.041782841
0.58115792 0.064100213 0.04177428
0.58147091 0.062989667 0.041397799
0.58105141 0.062450994 0.041389223
0.58136237 0.061337903 0.041012701
0.58094215 0.060798377 0.041004114
0.5812512 0.059682693 0.040627528
0.58083034 0.059142318 0.040618926
0.58040947 0.058601942 0.040610325
0.58071584 0.057482891 0.040233709
0.58102083 0.056362137 0.039857063
0.58132452 0.055239685 0.039480392
0.58162695 0.054115493 0.039103672
0.58120346 0.053571712 0.039095018
0.58150381 0.052445002 0.038718279
0.58107966 0.051900372 0.038709607
0.58065546 0.051355738 0.038700938
0.58010346 0.049134661 0.03830678
0.61135954 0.098752163 0.040610183
0.61093867 0.098211788 0.040601581
0.61129308 0.097155116 0.040224951
0.61087155 0.096613884 0.040216338
0.61045003 0.096072659 0.040207721
0.61002845 0.095531426 0.040199105
0.60960692 0.094990201 0.040190492
0.6091854 0.094448976 0.040181875
0.60799253 0.09442915 0.040541369
0.6075716 0.093888775 0.040532768
0.60715073 0.093348391 0.040524166
0.60596049 0.093332008 0.040883735
0.60554028 0.092792481 0.040875148
0.60512006 0.092252955 0.040866561
0.60469985 0.091713428 0.040857971
0.60427964 0.091173902 0.040849384
0.60309339 0.091162585 0.041209012
0.60267383 0.090623915 0.041200437
0.60225427 0.090085238 0.041191865
0.60107064 0.090077326 0.041551549
0.60065174 0.089539498 0.041542988
0.59947014 0.089534141 0.04190271
0.59905195 0.08899717 0.041894164
0.59863371 0.088460192 0.041885614
0.59745473 0.08845824 0.042245395
0.5970372 0.087922119 0.042236861
0.59661961 0.087385997 0.042228326
0.59620202 0.086849876 0.042219792
0.59578449 0.086313754 0.042211257
0.5953669 0.085777633 0.042202726
0.59494936 0.085241511 0.042194191
0.59453177 0.08470539 0.042185657
0.59411424 0.084169269 0.042177122
0.59369665 0.083633147 0.042168587
0.59327906 0.083097026 0.042160053
0.59286153 0.082560897 0.042151518
0.59244394 0.082024775 0.042142987
0.59202641 0.081488654 0.042134453
0.59160882 0.080952533 0.042125918
0.59119129 0.080416411 0.042117383
0.5907737 0.07988029 0.042108849
0.59035611 0.079344168 0.042100314
0.58993858 0.078808047 0.042091779
0.58952099 0.078271925 0.042083248
0.58910346 0.077735804 0.042074714
0.58868587 0.077199683 0.042066179
0.58826828 0.076663561 0.042057645
0.58785075 0.07612744 0.04204911
0.58743316 0.075591318 0.042040575
0.58701563 0.075055189 0.042032041
0.58659804 0.074519068 0.04202351
0.58618051 0.073982947 0.042014975
0.58576292 0.073446825 0.04200644
0.58534533 0.072910704 0.041997906
0.5849278 0.072374582 0.041989371
0.58451021 0.071838461 0.041980837
0.58409268 0.071302339 0.041972302
0.58367509 0.070766218 0.041963771
0.58325756 0.070230097 0.041955236
0.58283997 0.069693975 0.041946702
0.58242238 0.069157854 0.041938167
0.58200485 0.068621732 0.041929632
0.58158726 0.068085611 0.041921098
0.58116972 0.067549489 0.041912563
0.58075213 0.067013368 0.041904032
0.5810681 0.065907337 0.041526616
0.58138281 0.064799599 0.041149169
0.58096391 0.064261779 0.041140608
0.5812766 0.063151494 0.040763125
0.58085704 0.062612817 0.040754553
0.5811677 0.061499979 0.040377028
0.58074749 0.060960453 0.040368438
0.58105624 0.05984503 0.03999085
0.58063537 0.059304651 0.039982248
0.5802145 0.058764275 0.039973646
0.58052051 0.057645481 0.039596029
0.58082527 0.056524985 0.039218381
0.58112866 0.055402786 0.038840707
0.58143079 0.054278851 0.038462985
0.58100724 0.05373507 0.038454328
0.58130735 0.052608617 0.038076587
0.58088315 0.052063983 0.038067918
0.58045894 0.051519353 0.03805925
0.58003473 0.050974719 0.038050581
0.57990664 0.049298529 0.037664086
0.61080843 0.099968389 0.040351123
0.61116457 0.098914497 0.039973509
0.6107437 0.098374121 0.039964907
0.61109781 0.097317703 0.039587274
0.61067629 0.096776478 0.039578658
0.6102547 0.096235245 0.039570041
0.60983318 0.09569402 0.039561424
0.60941166 0.095152795 0.039552812
0.60899013 0.094611563 0.039544195
0.60779756 0.094591483 0.039904691
0.60737664 0.094051108 0.03989609
0.60695577 0.093510732 0.039887488
0.60576582 0.093494087 0.040248062
0.60534561 0.092954561 0.040239476
0.60492539 0.092415035 0.040230885
0.60450518 0.091875508 0.040222298
0.60408497 0.091335982 0.040213708
0.60289901 0.091324411 0.040574342
0.60247946 0.090785734 0.040565766
0.6020599 0.090247057 0.040557191
0.60087663 0.090238892 0.040917877
0.60045773 0.089701064 0.040909316
0.59927642 0.089695454 0.041270044
0.59885818 0.089158483 0.041261498
0.59843993 0.088621505 0.041252948
0.59726131 0.088619299 0.041613732
0.59684372 0.088083178 0.041605197
0.59642619 0.087547056 0.041596662
0.5960086 0.087010935 0.041588128
0.59559107 0.086474814 0.041579597
0.59517348 0.085938685 0.041571062
0.59475589 0.085402563 0.041562527
0.59433836 0.084866442 0.041553993
0.59392077 0.08433032 0.041545458
0.59350324 0.083794199 0.041536923
0.59308565 0.083258078 0.041528389
0.59266812 0.082721956 0.041519858
0.59225053 0.082185835 0.041511323
0.59183294 0.081649713 0.041502789
0.59141541 0.081113592 0.041494254
0.59099782 0.08057747 0.041485719
0.59058028 0.080041349 0.041477185
0.59016269 0.079505228 0.04146865
0.5897451 0.078969106 0.041460119
0.58932757 0.078432985 0.041451585
0.58890998 0.077896856 0.04144305
0.58849245 0.077360734 0.041434515
0.58807486 0.076824613 0.041425981
0.58765733 0.076288491 0.041417446
0.58723974 0.07575237 0.041408911
0.58682215 0.075216249 0.04140038
0.58640462 0.074680127 0.041391846
0.58598703 0.074144006 0.041383311
0.5855695 0.073607884 0.041374777
0.58515191 0.073071763 0.041366242
0.58473438 0.072535641 0.041357707
0.58431679 0.07199952 0.041349173
0.5838992 0.071463399 0.041340638
0.58348167 0.070927277 0.041332107
0.58306408 0.070391156 0.041323572
0.58264655 0.069855027 0.041315038
0.58222896 0.069318905 0.041306503
0.58181137 0.068782784 0.041297968
0.58139384 0.068246663 0.041289434
0.58097625 0.067710541 0.041280899
0.58055872 0.06717442 0.041272368
0.58087438 0.066068649 0.04089395
0.58118874 0.064961173 0.040515501
0.58076984 0.064423345 0.04050694
0.58108222 0.063313313 0.040128455
0.58066267 0.062774643 0.040119879
0.58097303 0.061662059 0.039741352
0.58055282 0.061122533 0.039732765
0.58086127 0.060007364 0.039354175
0.5804404 0.059466988 0.039345574
0.58001953 0.058926608 0.039336972
0.58032525 0.057808071 0.038958348
0.58062965 0.056687828 0.038579699
0.58093274 0.055565886 0.038201023
0.58123457 0.054442208 0.037822299
0.58081102 0.053898428 0.037813641
0.58111084 0.052772228 0.037434898
0.58068663 0.052227598 0.03742623
0.58026242 0.051682964 0.037417561
0.57911694 0.051723301 0.037779018
0.58013469 0.05000788 0.037030078
0.57898986 0.05004907 0.037391551
0.61061376 0.10013047 0.039715447
0.61019355 0.09959095 0.03970686
0.61054873 0.098536454 0.039328229
0.61090255 0.097480297 0.038949594
0.61048096 0.096939065 0.038940977
0.61005944 0.096397839 0.038932361
0.60963792 0.095856607 0.038923748
0.60921639 0.095315382 0.038915131
0.60879481 0.094774157 0.038906515
0.60760254 0.094753817 0.039268017
0.60718167 0.094213441 0.039259415
0.6067608 0.093673065 0.039250813
0.60557115 0.093656167 0.039612386
0.60515094 0.093116641 0.0396038
0.60473073 0.092577107 0.039595213
0.60431051 0.092037588 0.039586622
0.6038903 0.091498062 0.039578035
0.60270464 0.091486238 0.039939672
0.60228509 0.090947561 0.039931096
0.60186553 0.090408884 0.039922521
0.60068256 0.090400457 0.040284209
0.60026366 0.089862637 0.040275648
0.59908265 0.089856766 0.040637378
0.59866446 0.089319795 0.040628832
0.59824622 0.088782817 0.040620282
0.59706789 0.088780351 0.040982068
0.5966503 0.08824423 0.040973533
0.59623271 0.087708108 0.040964998
0.59581518 0.087171987 0.040956467
0.59539759 0.086635865 0.040947933
0.59498006 0.086099744 0.040939398
0.59456247 0.085563622 0.040930863
0.59414494 0.085027501 0.040922329
0.59372735 0.08449138 0.040913794
0.59330976 0.083955258 0.04090526
0.59289223 0.083419137 0.040896729
0.59247464 0.082883015 0.040888194
0.59205711 0.082346894 0.040879659
0.59163952 0.081810765 0.040871125
0.59122199 0.081274644 0.04086259
0.5908044 0.080738522 0.040854055
0.59038681 0.080202401 0.040845521
0.58996928 0.079666279 0.04083699
0.58955169 0.079130158 0.040828455
0.58913416 0.078594036 0.040819921
0.58871657 0.078057915 0.040811386
0.58829898 0.077521794 0.040802851
0.58788145 0.076985672 0.040794317
0.58746386 0.076449551 0.040785782
0.58704633 0.075913429 0.040777247
0.58662874 0.075377308 0.040768716
0.5862112 0.074841186 0.040760182
0.58579361 0.074305065 0.040751647
0.58537602 0.073768936 0.040743113
0.58495849 0.073232815 0.040734578
0.5845409 0.072696693 0.040726043
0.58412337 0.072160572 0.040717509
0.58370578 0.07162445 0.040708978
0.58328825 0.071088329 0.040700443
0.58287066 0.070552208 0.040691908
0.58245307 0.070016086 0.040683374
0.58203554 0.069479965 0.040674839
0.58161795 0.068943843 0.040666305
0.58120042 0.068407722 0.04065777
0.58078283 0.0678716 0.040649239
0.58036524 0.067335479 0.040640704
0.58068067 0.066229954 0.040261284
0.58099473 0.065122738 0.039881833
0.58057582 0.064584911 0.039873272
0.58088785 0.063475139 0.039493784
0.5804683 0.062936462 0.039485209
0.58077836 0.061824139 0.03910568
0.58035815 0.061284613 0.039097089
0.5806663 0.060169697 0.038717497
0.58024544 0.059629321 0.038708895
0.57982457 0.059088945 0.038700294
0.58012998 0.057970662 0.038320668
0.58043408 0.056850675 0.037941016
0.58073688 0.055728987 0.037561338
0.58103836 0.054605562 0.037181612
0.58061486 0.054061782 0.037172955
0.58091432 0.052935839 0.03679321
0.58049011 0.052391209 0.036784537
0.58006591 0.051846579 0.036775868
0.57892072 0.051886659 0.037138332
0.57921755 0.050757315 0.036758531
0.57951301 0.049626265 0.036378704
0.61041909 0.10029255 0.039079774
0.60999888 0.099753022 0.039071184
0.61035377 0.098698787 0.03869155
0.61070728 0.097642884 0.038311914
0.6102857 0.097101659 0.038303297
0.60986418 0.096560426 0.038294684
0.60944265 0.096019201 0.038286068
0.60902107 0.095477976 0.038277451
0.60859954 0.094936743 0.038268838
0.60740757 0.09491615 0.038631339
0.6069867 0.094375774 0.038622737
0.60656583 0.093835399 0.038614135
0.60537648 0.093818247 0.038976714
0.60495627 0.093278714 0.038968127
0.60453606 0.092739187 0.038959537
0.60411584 0.092199668 0.03895095
0.60369563 0.091660134 0.038942359
0.60251027 0.091648057 0.039304998
0.60209072 0.09110938 0.039296426
0.60167116 0.090570703 0.03928785
0.60048848 0.090562031 0.039650541
0.60006964 0.090024203 0.03964198
0.59888893 0.090018079 0.040004712
0.59847069 0.089481108 0.039996166
0.5980525 0.08894413 0.039987616
0.59687442 0.08894141 0.040350404
0.59645689 0.088405289 0.040341869
0.5960393 0.087869167 0.040333338
0.59562176 0.087333046 0.040324803
0.59520417 0.086796924 0.040316269
0.59478658 0.086260796 0.040307734
0.59436905 0.085724674 0.0402992
0.59395146 0.085188553 0.040290665
0.59353393 0.084652431 0.04028213
0.59311634 0.08411631 0.040273596
0.59269881 0.083580188 0.040265065
0.59228122 0.083044067 0.04025653
0.59186363 0.082507946 0.040247995
0.5914461 0.081971824 0.040239461
0.59102851 0.081435703 0.040230926
0.59061098 0.080899581 0.040222391
0.59019339 0.08036346 0.040213857
0.5897758 0.079827338 0.040205326
0.58935827 0.079291217 0.040196791
0.58894068 0.078755096 0.040188257
0.58852315 0.078218974 0.040179722
0.58810556 0.077682853 0.040171187
0.58768803 0.077146724 0.040162653
0.58727044 0.076610602 0.040154118
0.58685285 0.076074481 0.040145587
0.58643532 0.07553836 0.040137053
0.58601773 0.075002238 0.040128518
0.5856002 0.074466117 0.040119983
0.58518261 0.073929995 0.040111449
0.58476508 0.073393874 0.040102914
0.58434749 0.072857752 0.040094379
0.5839299 0.072321631 0.040085848
0.58351237 0.07178551 0.040077314
0.58309478 0.071249388 0.040068779
0.58267725 0.070713267 0.040060245
0.58225965 0.070177145 0.04005171
0.58184206 0.069641024 0.040043175
0.58142453 0.069104902 0.040034641
0.58100694 0.068568774 0.04002611
0.58058941 0.068032652 0.040017575
0.58017182 0.067496531 0.04000904
0.58048689 0.066391267 0.039628617
0.58080065 0.065284304 0.039248165
0.58038175 0.064746484 0.039239604
0.58069354 0.063636966 0.03885911
0.58027399 0.063098289 0.038850538
0.58058375 0.061986215 0.038470004
0.58016354 0.061446689 0.038461417
0.58047134 0.060332034 0.038080823
0.58005047 0.059791654 0.038072217
0.5796296 0.059251279 0.038063616
0.57993472 0.058133252 0.037682991
0.58023852 0.057013523 0.037302338
0.57981628 0.056471441 0.037293706
0.58011812 0.05534916 0.036913011
0.58041865 0.054225139 0.036532268
0.5807178 0.053099453 0.036151517
0.5802936 0.05255482 0.036142848
0.57986945 0.05201019 0.03613418
0.57944524 0.051465556 0.036125511
0.57830101 0.051506236 0.036488988
0.61022443 0.10045463 0.038444098
0.60980421 0.099915102 0.038435511
0.6101588 0.098861128 0.038054876
0.61051196 0.09780547 0.037674233
0.61009043 0.097264245 0.03766562
0.60966891 0.09672302 0.037657004
0.60924739 0.096181788 0.037648387
0.6088258 0.095640562 0.037639774
0.60840428 0.095099337 0.037631158
0.6072126 0.095078491 0.037994664
0.60679173 0.094538108 0.037986062
0.60637087 0.093997732 0.037977457
0.60518181 0.09398032 0.038341042
0.6047616 0.093440793 0.038332451
0.60434139 0.092901267 0.038323864
0.60392118 0.092361741 0.038315274
0.60350096 0.091822214 0.038306687
0.60231596 0.091809884 0.038670328
0.60189641 0.091271207 0.038661752
0.60147685 0.09073253 0.038653176
0.60029447 0.090723597 0.039016873
0.59987557 0.090185769 0.039008312
0.59869516 0.090179391 0.039372046
0.59827697 0.089642413 0.0393635
0.59785873 0.089105442 0.03935495
0.596681 0.089102462 0.03971874
0.59626341 0.088566341 0.039710205
0.59584588 0.088030219 0.039701674
0.59542829 0.087494098 0.039693139
0.59501076 0.086957976 0.039684605
0.59459317 0.086421855 0.03967607
0.59417564 0.085885733 0.039667536
0.59375805 0.085349612 0.039659001
0.59334046 0.084813491 0.039650466
0.59292293 0.084277369 0.039641935
0.59250534 0.083741248 0.039633401
0.59208781 0.083205126 0.039624866
0.59167022 0.082669005 0.039616331
0.59125262 0.082132883 0.039607797
0.59083509 0.081596762 0.039599262
0.5904175 0.081060633 0.039590728
0.58999997 0.080524512 0.039582197
0.58958238 0.07998839 0.039573662
0.58916485 0.079452269 0.039565127
0.58874726 0.078916147 0.039556593
0.58832967 0.078380026 0.039548058
0.58791214 0.077843904 0.039539523
0.58749455 0.077307783 0.039530989
0.58707702 0.076771662 0.039522458
0.58665943 0.07623554 0.039513923
0.5862419 0.075699419 0.039505389
0.58582431 0.075163297 0.039496854
0.58540672 0.074627176 0.039488319
0.58498919 0.074091054 0.039479785
0.5845716 0.073554933 0.03947125
0.58415407 0.073018812 0.039462719
0.58373648 0.072482683 0.039454184
0.58331895 0.071946561 0.03944565
0.58290136 0.07141044 0.039437115
0.58248377 0.070874318 0.039428581
0.58206624 0.070338197 0.039420046
0.58164865 0.069802076 0.039411511
0.58123112 0.069265954 0.03940298
0.58081353 0.068729833 0.039394446
0.58039594 0.068193711 0.039385911
0.57997841 0.06765759 0.039377376
0.58029318 0.066552579 0.038995951
0.57987493 0.066015609 0.038987402
0.58018774 0.06490805 0.038605936
0.58049917 0.063798785 0.03822444
0.58007962 0.063260108 0.038215864
0.58038908 0.062148295 0.037834331
0.57996887 0.061608769 0.037825741
0.58027637 0.060494367 0.037444144
0.5798555 0.059953991 0.037435543
0.57943463 0.059413612 0.037426941
0.57973945 0.058295839 0.037045311
0.57931787 0.057754613 0.037036695
0.57962072 0.056634288 0.036655024
0.5799222 0.055512261 0.036273327
0.58022243 0.054388497 0.035891581
0.58052129 0.053263064 0.035509828
0.58009714 0.052718434 0.03550116
0.57967293 0.052173801 0.035492491
0.57924873 0.051629171 0.035483819
0.57810479 0.051669594 0.035848301
0.57911938 0.049954001 0.035093319
0.61002976 0.10061671 0.037808426
0.60960954 0.10007718 0.037799839
0.60918933 0.099537656 0.037791248
0.60954291 0.098483086 0.037409596
0.60989517 0.097426839 0.03702794
0.60947365 0.096885607 0.037019324
0.60905206 0.096344382 0.037010711
0.60863054 0.095803149 0.037002094
0.60820901 0.095261924 0.036993477
0.60701764 0.095240824 0.037357986
0.60659677 0.094700448 0.037349384
0.6061759 0.094160065 0.037340783
0.60498714 0.0941424 0.037705366
0.60456693 0.093602873 0.037696779
0.60414672 0.093063347 0.037688188
0.60372651 0.092523821 0.037679601
0.60330629 0.091984294 0.037671015
0.60212159 0.091971703 0.038035657
0.60170203 0.091433026 0.038027082
0.60128248 0.090894349 0.038018506
0.6001004 0.090885162 0.038383204
0.5996815 0.090347335 0.038374644
0.59850144 0.090340704 0.038739379
0.5980832 0.089803725 0.038730834
0.59766501 0.089266755 0.038722284
0.59648758 0.089263521 0.039087076
0.59606999 0.0887274 0.039078545
0.59565246 0.088191278 0.03907001
0.59523487 0.087655157 0.039061476
0.59481728 0.087119035 0.039052941
0.59439975 0.086582914 0.039044406
0.59398216 0.086046793 0.039035872
0.59356463 0.085510671 0.039027337
0.59314704 0.08497455 0.039018806
0.59272951 0.084438428 0.039010271
0.59231192 0.083902299 0.039001737
0.59189433 0.083366178 0.038993202
0.5914768 0.082830057 0.038984668
0.59105921 0.082293935 0.038976133
0.59064168 0.081757814 0.038967598
0.59022409 0.081221692 0.038959067
0.5898065 0.080685571 0.038950533
0.58938897 0.080149449 0.038941998
0.58897138 0.079613328 0.038933463
0.58855385 0.079077207 0.038924929
0.58813626 0.078541085 0.038916394
0.58771873 0.078004964 0.038907859
0.58730114 0.077468842 0.038899329
0.58688354 0.076932721 0.038890794
0.58646601 0.076396592 0.038882259
0.58604842 0.075860471 0.038873725
0.58563089 0.075324349 0.03886519
0.5852133 0.074788228 0.038856655
0.58479577 0.074252106 0.038848121
0.58437818 0.073715985 0.03883959
0.58396059 0.073179863 0.038831055
0.58354306 0.072643742 0.038822521
0.58312547 0.072107621 0.038813986
0.58270794 0.071571499 0.038805451
0.58229035 0.071035378 0.038796917
0.58187276 0.070499256 0.038788382
0.58145523 0.069963135 0.038779851
0.58103764 0.069427013 0.038771316
0.58062011 0.068890892 0.038762782
0.58020252 0.068354771 0.038754247
0.57978499 0.067818649 0.038745712
0.5800994 0.066713892 0.038363282
0.57968122 0.066176921 0.038354736
0.57999367 0.065069616 0.037972264
0.57957476 0.064531788 0.037963703
0.57988524 0.063421935 0.037581194
0.58019441 0.062310375 0.037198655
0.5797742 0.061770849 0.037190069
0.5800814 0.0606567 0.036807466
0.57966053 0.060116325 0.036798865
0.57923961 0.059575949 0.036790263
0.57954413 0.058458429 0.036407631
0.5791226 0.057917204 0.036399014
0.57942516 0.056797132 0.036016341
0.57972634 0.055675361 0.035633642
0.58002627 0.054551855 0.035250895
0.57960272 0.054008074 0.035242237
0.57990062 0.052882046 0.034859471
0.57947642 0.052337416 0.034850799
0.57905221 0.051792782 0.03484213
0.57790858 0.051832952 0.035207614
0.57892257 0.050117869 0.034450624
0.60983509 0.10077879 0.037172753
0.60941488 0.10023926 0.037164163
0.60976887 0.099185795 0.036781523
0.61012143 0.098130651 0.036398876
0.6096999 0.097589426 0.03639026
0.60927832 0.097048201 0.036381643
0.60808533 0.097024284 0.036747113
0.60766447 0.096483909 0.036738511
0.60724354 0.095943533 0.036729909
0.60682267 0.095403157 0.036721308
0.6064018 0.094862781 0.036712706
0.60598093 0.094322398 0.036704104
0.60479248 0.09430448 0.037069693
0.60437226 0.093764953 0.037061103
0.60395205 0.093225427 0.037052516
0.60353184 0.092685901 0.037043929
0.60311162 0.092146374 0.037035339
0.60192722 0.092133529 0.037400983
0.60150766 0.091594853 0.037392411
0.60108811 0.091056176 0.037383836
0.59990638 0.091046728 0.037749536
0.59948748 0.090508901 0.037740976
0.59830773 0.090502009 0.038106713
0.59788948 0.089965038 0.038098168
0.59747124 0.089428067 0.038089618
0.59705299 0.088891096 0.038081072
0.59663481 0.088354118 0.038072523
0.59545898 0.088352337 0.038438346
0.59504145 0.087816216 0.038429812
0.59462386 0.087280095 0.038421277
0.59420633 0.086743966 0.038412742
0.59378874 0.086207844 0.038404208
0.59337115 0.085671723 0.038395677
0.59295362 0.085135601 0.038387142
0.59253603 0.08459948 0.038378607
0.5921185 0.084063359 0.038370073
0.59170091 0.083527237 0.038361538
0.59128338 0.082991116 0.038353004
0.59086579 0.082454994 0.038344469
0.5904482 0.081918873 0.038335938
0.59003067 0.081382751 0.038327403
0.58961308 0.08084663 0.038318869
0.58919555 0.080310509 0.038310334
0.58877796 0.079774387 0.038301799
0.58836037 0.079238258 0.038293265
0.58794284 0.078702137 0.03828473
0.58752525 0.078166015 0.038276199
0.58710772 0.077629894 0.038267665
0.58669013 0.077093773 0.03825913
0.5862726 0.076557651 0.038250595
0.58585501 0.07602153 0.038242061
0.58543742 0.075485408 0.038233526
0.58501989 0.074949287 0.038224991
0.5846023 0.074413165 0.03821646
0.58418477 0.073877044 0.038207926
0.58376718 0.073340923 0.038199391
0.58334959 0.072804801 0.038190857
0.58293205 0.07226868 0.038182322
0.58251446 0.071732558 0.038173787
0.58209693 0.071196429 0.038165253
0.58167934 0.070660308 0.038156722
0.58126181 0.070124187 0.038148187
0.58084422 0.069588065 0.038139652
0.58042663 0.069051944 0.038131118
0.5800091 0.068515822 0.038122583
0.57959151 0.067979701 0.038114049
0.57990569 0.066875204 0.037730616
0.57948744 0.066338234 0.03772207
0.57979959 0.065231182 0.037338596
0.57938069 0.064693362 0.037330035
0.57969087 0.063583754 0.036946524
0.57927132 0.063045084 0.036937948
0.57957953 0.061932925 0.036554392
0.57988644 0.060819037 0.036170792
0.57946557 0.060278658 0.03616219
0.57904464 0.059738282 0.036153588
0.57934886 0.058621019 0.035769951
0.57892734 0.058079794 0.035761338
0.57922953 0.056959979 0.035377663
0.57880735 0.056417901 0.035369031
0.57910758 0.055295534 0.034985315
0.5794065 0.054171432 0.034601551
0.57970411 0.05304566 0.034217779
0.5792799 0.052501027 0.03420911
0.57885569 0.051956397 0.034200441
0.57771242 0.051996306 0.034566924
0.57800734 0.050867133 0.0341831
0.60957384 0.099348128 0.036144845
0.60992616 0.098293245 0.035761196
0.60950464 0.097752012 0.03575258
0.60831124 0.097727001 0.03611904
0.60789037 0.097186625 0.036110438
0.6074695 0.096646242 0.036101837
0.60704857 0.096105866 0.036093235
0.6066277 0.09556549 0.036084633
0.60620683 0.095025115 0.036076032
0.60578597 0.094484732 0.03606743
0.60459781 0.09446656 0.036434017
0.60417759 0.093927033 0.03642543
0.60375738 0.093387507 0.03641684
0.60333717 0.092847981 0.036408253
0.60291696 0.092308454 0.036399666
0.60173285 0.092295349 0.036766313
0.60131329 0.091756672 0.036757737
0.60089374 0.091218002 0.036749166
0.59971231 0.091208294 0.037115864
0.59929341 0.090670474 0.037107304
0.59811395 0.090663321 0.037474047
0.59769571 0.090126351 0.037465502
0.59727752 0.08958938 0.037456952
0.59685928 0.089052409 0.037448406
0.59644103 0.088515431 0.037439857
0.59602284 0.08797846 0.037431311
0.59484798 0.087977268 0.037798148
0.59443045 0.087441146 0.037789613
0.59401286 0.086905025 0.037781078
0.59359533 0.086368904 0.037772547
0.59317774 0.085832782 0.037764013
0.59276021 0.085296661 0.037755478
0.59234262 0.084760539 0.037746944
0.59192502 0.084224418 0.037738409
0.59150749 0.083688296 0.037729874
0.5910899 0.083152175 0.03772134
0.59067237 0.082616046 0.037712809
0.59025478 0.082079925 0.037704274
0.58983719 0.081543803 0.037695739
0.58941966 0.081007682 0.037687205
0.58900207 0.08047156 0.03767867
0.58858454 0.079935439 0.037670135
0.58816695 0.079399318 0.037661601
0.58774942 0.078863196 0.03765307
0.58733183 0.078327075 0.037644535
0.58691424 0.077790953 0.037636001
0.58649671 0.077254832 0.037627466
0.58607912 0.07671871 0.037618931
0.58566159 0.076182589 0.037610397
0.585244 0.075646468 0.037601862
0.58482647 0.075110339 0.037593331
0.58440888 0.074574217 0.037584797
0.58399129 0.074038096 0.037576262
0.58357376 0.073501974 0.037567727
0.58315617 0.072965853 0.037559193
0.58273864 0.072429731 0.037550658
0.58232105 0.07189361 0.037542123
0.58190346 0.071357489 0.037533592
0.58148593 0.070821367 0.037525058
0.58106834 0.070285246 0.037516523
0.58065081 0.069749124 0.037507989
0.58023322 0.069213003 0.037499454
0.57981569 0.068676881 0.037490919
0.5793981 0.06814076 0.037482385
0.57971191 0.067036517 0.03709795
0.57929373 0.066499546 0.037089404
0.57960558 0.065392748 0.036704928
0.57918668 0.064854927 0.036696367
0.57949656 0.063745581 0.03631185
0.57907701 0.063206904 0.036303278
0.57938486 0.062095005 0.03591872
0.57969147 0.060981371 0.035534114
0.5792706 0.060440995 0.035525512
0.57884967 0.059900615 0.03551691
0.5791536 0.058783609 0.035132274
0.57873207 0.058242384 0.035123657
0.57903397 0.057122827 0.03473898
0.57861179 0.056580745 0.034730349
0.57891166 0.055458635 0.034345631
0.57921034 0.054334786 0.033960864
0.57878679 0.053791005 0.033952206
0.57836324 0.053247225 0.033943549
0.57793975 0.052703444 0.033934895
0.5775162 0.052159663 0.033926237
0.57781082 0.051030744 0.033541411
0.60937887 0.099510461 0.035508167
0.6097309 0.098455831 0.035123516
0.60853714 0.09842971 0.035490964
0.60734469 0.098405316 0.035858463
0.6076954 0.097348958 0.03547376
0.60727453 0.096808575 0.035465159
0.6068536 0.096268199 0.035456557
0.60643274 0.095727824 0.035447955
0.60601187 0.095187448 0.035439353
0.60482341 0.095168158 0.035806932
0.6044032 0.09462864 0.035798345
0.60398299 0.094089113 0.035789754
0.60356271 0.093549579 0.035781167
0.6031425 0.09301006 0.035772581
0.60272229 0.092470534 0.03576399
0.60153854 0.092457175 0.036131643
0.60111898 0.091918498 0.036123067
0.60069942 0.091379821 0.036114492
0.59951824 0.091369867 0.036482196
0.5990994 0.09083204 0.036473636
0.5986805 0.090294212 0.036465075
0.59826159 0.089756392 0.036456514
0.59784269 0.089218564 0.036447953
0.59742379 0.088680744 0.036439393
0.59624732 0.088676743 0.036807191
0.59582907 0.088139772 0.036798645
0.59541088 0.087602802 0.036790095
0.59423703 0.087602206 0.037157949
0.59381944 0.087066077 0.037149418
0.59340185 0.086529955 0.037140884
0.59298432 0.085993834 0.037132349
0.59256673 0.085457712 0.037123814
0.5921492 0.084921591 0.03711528
0.59173161 0.08438547 0.037106745
0.59131408 0.083849348 0.03709821
0.59089649 0.083313227 0.037089679
0.5904789 0.082777105 0.037081145
0.59006137 0.082240984 0.03707261
0.58964378 0.081704862 0.037064075
0.58922625 0.081168741 0.037055541
0.58880866 0.08063262 0.037047006
0.58839107 0.080096498 0.037038472
0.58797354 0.079560377 0.037029941
0.58755594 0.079024255 0.037021406
0.58713841 0.078488126 0.037012871
0.58672082 0.077952005 0.037004337
0.58630329 0.077415884 0.036995802
0.5858857 0.076879762 0.036987267
0.58546811 0.076343641 0.036978733
0.58505058 0.075807519 0.036970202
0.58463299 0.075271398 0.036961667
0.58421546 0.074735276 0.036953133
0.58379787 0.074199155 0.036944598
0.58338028 0.073663034 0.036936063
0.58296275 0.073126912 0.036927529
0.58254516 0.072590791 0.036918994
0.58212763 0.072054669 0.036910463
0.58171004 0.071518548 0.036901928
0.58129251 0.070982426 0.036893394
0.58087492 0.070446305 0.036884859
0.58045733 0.069910176 0.036876325
0.5800398 0.069374055 0.03686779
0.57962221 0.068837933 0.036859255
0.57920468 0.068301812 0.036850721
0.5795182 0.067197829 0.036465283
0.57909995 0.066660859 0.036456738
0.57941151 0.065554321 0.03607126
0.57899261 0.065016493 0.036062699
0.57930219 0.0639074 0.03567718
0.57888263 0.06336873 0.035668604
0.57919019 0.062257085 0.035283048
0.57876998 0.061717559 0.035274457
0.57907563 0.060603328 0.034888837
0.57865471 0.060062952 0.034880236
0.57895833 0.0589462 0.034494594
0.57853675 0.058404971 0.034485977
0.57883841 0.05728567 0.034100298
0.57841617 0.056743592 0.034091666
0.5787158 0.055621736 0.033705946
0.57901412 0.054498143 0.033320174
0.57859057 0.053954363 0.03331152
0.57816708 0.053410582 0.033302862
0.57774353 0.052866802 0.033294208
0.57761431 0.051194359 0.032899722
0.60960484 0.10021317 0.034880094
0.60918391 0.099672794 0.034871493
0.60876304 0.099132419 0.034862891
