# .PCD v0.7 - Point Cloud Data file format
VERSION 0.7
FIELDS x y z
SIZE 4 4 4
TYPE F F F
COUNT 1 1 1
WIDTH 1341
HEIGHT 1
VIEWPOINT 0 0 0 1 0 0 0
POINTS 1341
DATA ascii
0.34702492 -0.028257608 0.020289352
0.34624088 -0.027826622 0.02077079
0.34589687 -0.028268281 0.02076376
0.34511477 -0.027834712 0.021245254
0.34477141 -0.028275523 0.021238238
0.34399134 -0.027839428 0.021719756
0.34364867 -0.028279396 0.021712752
0.34287059 -0.027840747 0.022194305
0.34252858 -0.028279858 0.022187315
0.3417525 -0.027838649 0.022668917
0.34141114 -0.028276915 0.022661939
0.340637 -0.027833125 0.023143603
0.3402963 -0.02827053 0.02313664
0.33995563 -0.028707936 0.023129677
0.33918417 -0.028260784 0.023611367
0.33884415 -0.028697344 0.023604417
0.33807468 -0.028247632 0.024086153
0.33773533 -0.028683335 0.024079217
0.33739597 -0.029119037 0.024072282
0.33705661 -0.02955474 0.024065346
0.33671725 -0.029990455 0.024058411
0.33595178 -0.029535633 0.024540227
0.33518758 -0.029079117 0.025022071
0.33484957 -0.029513128 0.025015162
0.33451152 -0.029947128 0.025008254
0.3341735 -0.030381128 0.025001345
0.33383548 -0.030815139 0.024994437
0.33349743 -0.031249138 0.024987528
0.33273786 -0.030786632 0.025469482
0.3324005 -0.031219786 0.025462588
0.33206314 -0.031652927 0.025455693
0.33172578 -0.032086082 0.025448797
0.33096954 -0.031619355 0.025930805
0.33063287 -0.032051653 0.025923923
0.33029616 -0.032483961 0.025917042
0.32954258 -0.03201383 0.026399096
0.32920653 -0.032445278 0.026392227
0.32887051 -0.03287673 0.026385359
0.32853445 -0.033308178 0.026378492
0.32819843 -0.03373963 0.026371624
0.32786238 -0.034171078 0.026364757
0.32752633 -0.03460253 0.026357889
0.32719031 -0.035033979 0.02635102
0.32685426 -0.03546543 0.026344152
0.32651821 -0.035896879 0.026337285
0.32618219 -0.036328331 0.026330417
0.32584614 -0.036759783 0.026323549
0.32551008 -0.037191231 0.02631668
0.32517406 -0.037622683 0.026309812
0.32483801 -0.038054131 0.026302945
0.32450196 -0.038485583 0.026296077
0.32416594 -0.038917031 0.02628921
0.32382989 -0.039348483 0.02628234
0.32349387 -0.039779931 0.026275473
0.32315782 -0.040211383 0.026268605
0.32282177 -0.040642831 0.026261738
0.32248574 -0.041074283 0.02625487
0.32214969 -0.041505735 0.026248001
0.32181364 -0.041937184 0.026241133
0.32147762 -0.042368636 0.026234265
0.32114157 -0.042800084 0.026227398
0.32080552 -0.043231536 0.02622053
0.3204695 -0.043662984 0.026213663
0.32013345 -0.044094436 0.026206793
0.31979743 -0.044525884 0.026199926
0.31946138 -0.044957347 0.026193058
0.31912532 -0.045388784 0.026186191
0.31878927 -0.045820247 0.026179321
0.31845325 -0.046251688 0.026172454
0.3181172 -0.046683148 0.026165586
0.31778118 -0.047114588 0.026158718
0.31744513 -0.047546048 0.026151851
0.31710908 -0.047977488 0.026144983
0.31677303 -0.048408948 0.026138114
0.31643701 -0.048840389 0.026131246
0.31610096 -0.049271852 0.026124379
0.3161546 -0.050640631 0.025628019
0.31581792 -0.051072918 0.025621139
0.31548122 -0.051505227 0.025614256
0.31514451 -0.051937532 0.025607375
0.3148078 -0.052369818 0.025600495
0.3144711 -0.052802127 0.025593612
0.31413439 -0.053234432 0.025586732
0.31379768 -0.053666741 0.025579849
0.31346101 -0.054099027 0.025572969
0.3131243 -0.054531332 0.025566086
0.31278756 -0.054963641 0.025559206
0.31245086 -0.05539595 0.025552323
0.31211418 -0.055828232 0.025545442
0.31177747 -0.056260541 0.02553856
0.31144077 -0.05669285 0.025531679
0.31110406 -0.057125133 0.025524797
0.31076735 -0.057557441 0.025517916
0.31043065 -0.05798975 0.025511034
0.31009394 -0.058422059 0.025504153
0.30975726 -0.058854342 0.025497273
0.30942056 -0.05928665 0.02549039
0.30908385 -0.059718959 0.02548351
0.30874714 -0.060151264 0.025476627
0.30841044 -0.06058355 0.025469746
0.30807373 -0.061015859 0.025462864
0.30773702 -0.061448164 0.025455983
0.30740035 -0.061880451 0.025449101
0.30706364 -0.062312759 0.02544222
0.35588163 -0.026607478 0.016463038
0.35553232 -0.027055951 0.016455898
0.35518304 -0.027504412 0.016448759
0.35483372 -0.027952887 0.016441621
0.35448444 -0.02840136 0.016434481
0.35413513 -0.028849833 0.016427342
0.35378584 -0.029298294 0.016420204
0.35343656 -0.029746767 0.016413065
0.35308725 -0.030195242 0.016405925
0.3522929 -0.029778127 0.016888151
0.35149986 -0.029359307 0.017370395
0.35115188 -0.029806077 0.017363284
0.35036087 -0.029384697 0.017845569
0.35001355 -0.02983062 0.017838471
0.34922445 -0.029406657 0.018320825
0.34843674 -0.028981037 0.018803185
0.34765035 -0.0285537 0.019285565
0.34686527 -0.028124673 0.019767979
0.3465206 -0.028567191 0.019760935
0.34573752 -0.028135601 0.020243384
0.34539351 -0.028577272 0.020236352
0.34461239 -0.0281431 0.020718871
0.34426904 -0.028583914 0.020711854
0.34348994 -0.028147228 0.021194389
0.34314728 -0.028587183 0.021187386
0.34237015 -0.028147945 0.021669956
0.34159437 -0.027706992 0.022152552
0.34125301 -0.028145256 0.022145577
0.34091169 -0.028583508 0.022138599
0.34013849 -0.028139127 0.02262128
0.33979782 -0.028576534 0.022614317
0.33902666 -0.028129639 0.023097016
0.33868665 -0.0285662 0.023090066
0.33791748 -0.02811674 0.023572799
0.33757812 -0.028552445 0.023565862
0.33723876 -0.028988147 0.023558928
0.3368994 -0.02942385 0.023551991
0.33656004 -0.029859565 0.023545057
0.33579487 -0.029404998 0.024027877
0.33545616 -0.029839855 0.024020955
0.33469296 -0.029382749 0.024503816
0.33435494 -0.029816749 0.024496907
0.33401692 -0.030250749 0.024489999
0.33367887 -0.03068476 0.02448309
0.33334085 -0.03111876 0.024476182
0.33300284 -0.031552758 0.024469273
0.33266479 -0.031986769 0.024462365
0.33190686 -0.031522803 0.024945349
0.33156949 -0.031955957 0.024938455
0.33123213 -0.032389112 0.024931559
0.33047688 -0.031921785 0.025414582
0.33014017 -0.032354094 0.025407702
0.32980347 -0.032786388 0.025400819
0.32905087 -0.032315668 0.025883891
0.32871482 -0.032747116 0.025877023
0.3283788 -0.033178568 0.025870156
0.32804275 -0.033610016 0.025863286
0.32770672 -0.034041468 0.025856419
0.32737067 -0.034472916 0.025849551
0.32703462 -0.034904368 0.025842683
0.3266986 -0.03533582 0.025835816
0.32636255 -0.035767268 0.025828946
0.3260265 -0.03619872 0.025822079
0.32569048 -0.036630169 0.025815211
0.32535443 -0.037061621 0.025808344
0.32501838 -0.037493069 0.025801476
0.32468235 -0.037924521 0.025794607
0.3243463 -0.038355969 0.025787739
0.32401025 -0.038787421 0.025780872
0.32367423 -0.039218873 0.025774004
0.32333818 -0.039650321 0.025767136
0.32300216 -0.040081773 0.025760269
0.32266611 -0.040513221 0.025753399
0.32233006 -0.040944673 0.025746532
0.32199404 -0.041376121 0.025739664
0.32165799 -0.041807573 0.025732797
0.32132193 -0.042239022 0.025725929
0.32098591 -0.042670473 0.02571906
0.32064986 -0.043101922 0.025712192
0.32031381 -0.043533374 0.025705324
0.31997779 -0.043964826 0.025698457
0.31964174 -0.044396274 0.025691589
0.31930569 -0.044827737 0.02568472
0.31896967 -0.045259174 0.025677852
0.31863362 -0.045690637 0.025670985
0.31829759 -0.046122074 0.025664117
0.31796154 -0.046553537 0.02565725
0.31762549 -0.046984974 0.025650382
0.31728944 -0.047416437 0.025643513
0.31695342 -0.047847874 0.025636645
0.31661737 -0.048279338 0.025629777
0.31628135 -0.048710778 0.02562291
0.3159453 -0.049142238 0.02561604
0.31599861 -0.050510764 0.025118679
0.31566194 -0.050943051 0.025111798
0.31532523 -0.051375359 0.025104916
0.31498852 -0.051807664 0.025098035
0.31465185 -0.052239951 0.025091153
0.31431511 -0.05267226 0.025084272
0.3139784 -0.053104565 0.02507739
0.3136417 -0.053536873 0.025070509
0.31330502 -0.05396916 0.025063628
0.31296831 -0.054401465 0.025056746
0.31263161 -0.054833774 0.025049863
0.3122949 -0.055266082 0.025042983
0.31195819 -0.055698365 0.025036102
0.31162149 -0.056130674 0.02502922
0.31128478 -0.056562982 0.025022339
0.3109481 -0.056995265 0.025015457
0.3106114 -0.057427574 0.025008576
0.31027469 -0.057859883 0.025001694
0.30993798 -0.058292191 0.024994813
0.30960128 -0.058724474 0.02498793
0.30926457 -0.059156783 0.02498105
0.30892786 -0.059589092 0.024974167
0.30859116 -0.060021397 0.024967287
0.30825448 -0.060453683 0.024960406
0.30791777 -0.060885992 0.024953524
0.30758104 -0.061318297 0.024946643
0.30724436 -0.061750583 0.024939761
0.30690765 -0.062182892 0.02493288
0.35537052 -0.026921228 0.015927508
0.35502121 -0.027369689 0.015920369
0.35467193 -0.027818162 0.015913231
0.35432261 -0.028266635 0.015906092
0.35397333 -0.028715109 0.015898952
0.35362405 -0.029163571 0.015891815
0.35327473 -0.029612044 0.015884675
0.35292545 -0.030060517 0.015877536
0.3521314 -0.029643657 0.016360758
0.35133865 -0.029225092 0.016844004
0.35099068 -0.029671863 0.016836893
0.35019997 -0.029250739 0.01732019
0.34985265 -0.029696664 0.017313091
0.34906387 -0.029272955 0.017796442
0.34827647 -0.02884759 0.018279806
0.34749037 -0.02842051 0.018763188
0.34714505 -0.028863885 0.018756131
0.34636095 -0.028434256 0.019239562
0.34557816 -0.028002921 0.019723013
0.34523416 -0.028444592 0.019715983
0.34489018 -0.028886251 0.019708952
0.34411001 -0.028451491 0.020192487
0.34333119 -0.028015058 0.020676019
0.34298852 -0.028455013 0.020669015
0.34221172 -0.028016031 0.021152589
0.34186971 -0.028455129 0.021145599
0.34109488 -0.0280136 0.02162922
0.34075356 -0.028451853 0.021622242
0.33998066 -0.028007727 0.022105927
0.33963999 -0.028445134 0.022098964
0.33886915 -0.027998492 0.022582659
0.33852911 -0.028435053 0.02257571
0.33776027 -0.027985852 0.023059452
0.33742091 -0.028421555 0.023052515
0.33708155 -0.028857257 0.023045581
0.33674222 -0.029292962 0.023038644
0.33640283 -0.029728675 0.02303171
0.33563796 -0.029274363 0.023515526
0.33529928 -0.02970922 0.023508605
0.33453637 -0.029252371 0.023992468
0.33419836 -0.029686371 0.023985559
0.33386034 -0.030120369 0.023978651
0.33352229 -0.03055438 0.023971742
0.33318427 -0.03098838 0.023964833
0.33284625 -0.03142238 0.023957925
0.33250821 -0.031856392 0.023951016
0.33217019 -0.032290392 0.023944108
0.33141321 -0.031825833 0.024428111
0.33107585 -0.032258987 0.024421215
0.33032089 -0.031791918 0.024905242
0.32998419 -0.032224227 0.024898361
0.32964751 -0.032656521 0.024891479
0.3293108 -0.033088829 0.024884598
0.32855916 -0.032617506 0.025368685
0.32822311 -0.033048958 0.025361817
0.32788709 -0.033480406 0.02535495
0.32755104 -0.033911858 0.025348082
0.32721502 -0.034343306 0.025341215
0.32687896 -0.034774758 0.025334345
0.32654291 -0.035206206 0.025327478
0.32620689 -0.035637658 0.02532061
0.32587084 -0.036069106 0.025313742
0.32553479 -0.036500558 0.025306875
0.32519877 -0.036932006 0.025300005
0.32486272 -0.037363458 0.025293138
0.32452667 -0.03779491 0.02528627
0.32419065 -0.038226359 0.025279403
0.3238546 -0.038657811 0.025272535
0.32351854 -0.039089259 0.025265666
0.32318252 -0.039520711 0.025258798
0.32284647 -0.039952159 0.025251931
0.32251045 -0.040383611 0.025245063
0.3221744 -0.040815059 0.025238195
0.32183835 -0.041246511 0.025231326
0.32150233 -0.041677959 0.025224458
0.32116628 -0.042109411 0.025217591
0.32083023 -0.042540863 0.025210723
0.3204942 -0.042972311 0.025203856
0.32015815 -0.043403763 0.025196988
0.3198221 -0.043835212 0.025190119
0.31948608 -0.044266663 0.025183251
0.31915003 -0.044698123 0.025176384
0.31881401 -0.045129564 0.025169516
0.31847796 -0.045561027 0.025162647
0.31814191 -0.045992464 0.025155779
0.31780586 -0.046423927 0.025148911
0.31746984 -0.046855364 0.025142044
0.31713378 -0.047286827 0.025135176
0.31679776 -0.047718264 0.025128309
0.31646171 -0.048149727 0.025121439
0.31612566 -0.048581164 0.025114572
0.31578961 -0.049012627 0.025107704
0.31584266 -0.050380897 0.024609338
0.31550595 -0.050813183 0.024602458
0.31516925 -0.051245492 0.024595575
0.31483254 -0.051677797 0.024588695
0.31449586 -0.052110083 0.024581812
0.31415915 -0.052542392 0.024574932
0.31382245 -0.052974697 0.024568049
0.31348574 -0.053407006 0.024561169
0.31314903 -0.053839292 0.024554286
0.31281233 -0.054271597 0.024547406
0.31247562 -0.054703906 0.024540523
0.31213892 -0.055136215 0.024533642
0.31180224 -0.055568498 0.024526762
0.31146553 -0.056000806 0.024519879
0.31112882 -0.056433115 0.024512997
0.31079212 -0.056865398 0.024506116
0.31045541 -0.057297707 0.024499236
0.31011871 -0.057730015 0.024492353
0.309782 -0.058162324 0.024485473
0.30944529 -0.058594607 0.02447859
0.30910859 -0.059026916 0.02447171
0.30877188 -0.059459224 0.024464827
0.30843517 -0.059891529 0.024457946
0.3080985 -0.060323816 0.024451064
0.30776179 -0.060756125 0.024444183
0.30742508 -0.06118843 0.024437301
0.30708838 -0.061620716 0.02443042
0.35485941 -0.027234962 0.015391973
0.3545101 -0.027683437 0.015384834
0.35416082 -0.02813191 0.015377696
0.3538115 -0.028580382 0.015370556
0.35346222 -0.029028844 0.015363418
0.35311294 -0.029477317 0.015356279
0.35276362 -0.029925792 0.01534914
0.3519699 -0.029509189 0.01583337
0.35117748 -0.029090879 0.016317623
0.35082951 -0.02953765 0.016310511
0.35003909 -0.029116781 0.016794803
0.34969178 -0.029562704 0.016787704
0.3489033 -0.029139254 0.017272066
0.34811619 -0.028714145 0.017756425
0.34777021 -0.029158352 0.017749354
0.34698507 -0.028730692 0.018233754
0.34620127 -0.028301319 0.018718189
0.34585661 -0.028743837 0.018711144
0.3450748 -0.028311912 0.019195613
0.34473082 -0.028753573 0.019188583
0.34395096 -0.028319066 0.01967312
0.34360763 -0.02875988 0.019666104
0.34282979 -0.028322846 0.020150652
0.34248713 -0.028762801 0.020143649
0.34171128 -0.028323218 0.020628238
0.34093678 -0.027881945 0.021112863
0.34059542 -0.028320197 0.021105886
0.33982286 -0.027876325 0.021590566
0.33948219 -0.028313732 0.021583604
0.33871162 -0.027867345 0.022068301
0.3383716 -0.028303906 0.022061352
0.33803159 -0.028740456 0.022054404
0.3372637 -0.028290665 0.022539163
0.33692434 -0.028726367 0.022532227
0.33658502 -0.02916207 0.022525292
0.33624566 -0.029597785 0.022518355
0.33548108 -0.029143728 0.023003176
0.33514237 -0.029578585 0.022996254
0.33437979 -0.029121991 0.023481121
0.33404177 -0.029555991 0.023474213
0.33370373 -0.029989991 0.023467304
0.33336571 -0.030424003 0.023460396
0.33302766 -0.030858003 0.023453487
0.33268964 -0.031292003 0.023446579
0.33235162 -0.031726014 0.02343967
0.33201358 -0.032160014 0.023432761
0.33167556 -0.03259401 0.023425853
0.33091956 -0.032128867 0.023910871
0.3305822 -0.032562017 0.023903975
0.32982823 -0.032094359 0.024389019
0.32949153 -0.032526653 0.024382139
0.32915482 -0.032958962 0.024375256
0.32881811 -0.03339126 0.024368376
0.32806745 -0.032919344 0.024853474
0.3277314 -0.033350792 0.024846606
0.32739538 -0.033782244 0.024839737
0.32705933 -0.034213692 0.024832869
0.32672328 -0.034645144 0.024826001
0.32638726 -0.035076592 0.024819134
0.32605121 -0.035508044 0.024812266
0.32571518 -0.035939496 0.024805399
0.32537913 -0.036370944 0.024798529
0.32504308 -0.036802396 0.024791662
0.32470706 -0.037233844 0.024784794
0.32437101 -0.037665296 0.024777927
0.32403496 -0.038096745 0.024771059
0.32369894 -0.038528197 0.024764189
0.32336289 -0.038959645 0.024757322
0.32302684 -0.039391097 0.024750454
0.32269081 -0.039822545 0.024743587
0.32235476 -0.040253997 0.024736719
0.32201871 -0.040685449 0.02472985
0.32168269 -0.041116897 0.024722982
0.32134664 -0.041548349 0.024716115
0.32101062 -0.041979797 0.024709247
0.32067457 -0.042411249 0.024702379
0.32033852 -0.042842697 0.024695512
0.3200025 -0.043274149 0.024688642
0.31966645 -0.043705598 0.024681775
0.31933039 -0.044137049 0.024674907
0.31899434 -0.044568513 0.02466804
0.31865832 -0.04499995 0.024661172
0.31832227 -0.045431413 0.024654303
0.31798625 -0.04586285 0.024647435
0.3176502 -0.046294313 0.024640568
0.31731418 -0.04672575 0.0246337
0.31697813 -0.047157213 0.024626832
0.31664208 -0.04758865 0.024619963
0.31630602 -0.048020113 0.024613095
0.31597 -0.04845155 0.024606228
0.31602338 -0.049818724 0.024106879
0.31568667 -0.050251029 0.024099998
0.31535 -0.050683316 0.024093116
0.31501329 -0.051115625 0.024086235
0.31467658 -0.05154793 0.024079353
0.31433988 -0.051980216 0.024072472
0.31400317 -0.052412525 0.024065591
0.31366646 -0.05284483 0.024058709
0.31332976 -0.053277139 0.024051828
0.31299308 -0.053709425 0.024044946
0.31265637 -0.05414173 0.024038065
0.31231964 -0.054574039 0.024031183
0.31198293 -0.055006348 0.024024302
0.31164625 -0.05543863 0.02401742
0.31130955 -0.055870939 0.024010539
0.31097284 -0.056303248 0.024003657
0.31063613 -0.05673553 0.023996776
0.31029943 -0.057167839 0.023989893
0.30996272 -0.057600148 0.023983013
0.30962601 -0.058032457 0.02397613
0.30928934 -0.058464739 0.02396925
0.30895263 -0.058897048 0.023962369
0.30861592 -0.059329357 0.023955487
0.30827922 -0.059761662 0.023948606
0.30794251 -0.060193948 0.023941724
0.3076058 -0.060626257 0.023934843
0.3072691 -0.061058562 0.023927961
0.30693242 -0.061490849 0.02392108
0.35514638 -0.027959105 0.014371312
0.3543483 -0.027548712 0.014856445
0.35399899 -0.027997185 0.014849306
0.35364971 -0.028445659 0.014842167
0.35330042 -0.028894121 0.014835028
0.35295111 -0.029342594 0.014827889
0.35260183 -0.029791066 0.014820751
0.3518084 -0.029374719 0.015305978
0.35101628 -0.028956665 0.015791232
0.35066831 -0.029403435 0.01578412
0.35032034 -0.029850205 0.015777009
0.34953088 -0.029428748 0.016262325
0.34874272 -0.029005552 0.016747683
0.34795591 -0.028580697 0.017233046
0.34760994 -0.029024906 0.017225975
0.34682509 -0.028597504 0.017711384
0.34604162 -0.028168384 0.018196816
0.34569696 -0.028610902 0.018189771
0.34491545 -0.028179234 0.018675243
0.34457147 -0.028620893 0.018668212
0.34422746 -0.029062552 0.018661182
0.34344858 -0.028627457 0.019146737
0.34310526 -0.029068258 0.01913972
0.3423284 -0.028630633 0.019625286
0.34155285 -0.028191306 0.020110879
0.34121084 -0.028630415 0.020103889
0.34043729 -0.028188538 0.020589523
0.34009597 -0.028626801 0.020582546
0.33932436 -0.02818233 0.021068243
0.33898368 -0.028619736 0.021061281
0.3382141 -0.028172761 0.021547003
0.33787408 -0.028609311 0.021540053
0.3371065 -0.028159773 0.022025809
0.33676717 -0.028595477 0.022018872
0.33642781 -0.02903118 0.022011938
0.33608845 -0.029466895 0.022005001
0.33532417 -0.029013094 0.022490826
0.33498549 -0.02944795 0.022483904
0.33422321 -0.028991612 0.022969775
0.33388516 -0.029425612 0.022962866
0.33354715 -0.029859612 0.022955958
0.3332091 -0.030293623 0.022949049
0.33287108 -0.030727623 0.022942141
0.33253306 -0.031161623 0.022935232
0.33219501 -0.031595632 0.022928324
0.331857 -0.032029632 0.022921415
0.33151898 -0.032463633 0.022914506
0.33076328 -0.031998742 0.023400526
0.33042592 -0.032431897 0.023393633
0.33008856 -0.032865051 0.023386737
0.32933554 -0.032396786 0.023872798
0.32899883 -0.032829095 0.023865916
0.32866213 -0.033261392 0.023859035
0.32791179 -0.03278973 0.024345135
0.32757574 -0.033221181 0.024338268
0.32723969 -0.03365263 0.0243314
0.32690367 -0.034084082 0.024324533
0.32656762 -0.034515534 0.024317665
0.32623157 -0.034946982 0.024310796
0.32589555 -0.035378434 0.024303928
0.3255595 -0.035809882 0.02429706
0.32522348 -0.036241334 0.024290193
0.32488742 -0.036672782 0.024283325
0.32455137 -0.037104234 0.024276456
0.32421535 -0.037535682 0.024269588
0.3238793 -0.037967134 0.024262721
0.32354325 -0.038398586 0.024255853
0.32320723 -0.038830034 0.024248986
0.32287118 -0.039261486 0.024242118
0.32253513 -0.039692935 0.024235249
0.32219911 -0.040124387 0.024228381
0.32186306 -0.040555835 0.024221513
0.321527 -0.040987287 0.024214646
0.32119098 -0.041418735 0.024207778
0.32085493 -0.041850187 0.024200909
0.32051891 -0.042281635 0.024194041
0.32018286 -0.042713087 0.024187174
0.31984681 -0.043144539 0.024180306
0.31951079 -0.043575987 0.024173439
0.31917474 -0.044007439 0.024166569
0.31883869 -0.044438899 0.024159702
0.31850266 -0.044870339 0.024152834
0.31816661 -0.045301799 0.024145966
0.31783056 -0.04573324 0.024139099
0.31749454 -0.046164703 0.024132229
0.31715849 -0.04659614 0.024125362
0.31682244 -0.047027603 0.024118494
0.31648642 -0.04745904 0.024111627
0.31615037 -0.047890503 0.024104759
0.31581435 -0.04832194 0.024097892
0.31586742 -0.049688857 0.023597538
0.31553069 -0.050121162 0.023590658
0.31519401 -0.050553448 0.023583775
0.3148573 -0.050985757 0.023576895
0.3145206 -0.051418062 0.023570012
0.31418392 -0.051850349 0.023563132
0.31384718 -0.052282657 0.023556249
0.31351048 -0.052714963 0.023549369
0.31317377 -0.053147271 0.023542486
0.31283709 -0.053579558 0.023535606
0.31250039 -0.054011863 0.023528725
0.31216368 -0.054444171 0.023521842
0.31182697 -0.05487648 0.023514962
0.31149027 -0.055308763 0.023508079
0.31115356 -0.055741072 0.023501199
0.31081685 -0.05617338 0.023494316
0.31048018 -0.056605663 0.023487436
0.31014347 -0.057037972 0.023480553
0.30980676 -0.057470281 0.023473673
0.30947006 -0.057902589 0.02346679
0.30913335 -0.058334872 0.023459909
0.30879664 -0.058767181 0.023453027
0.30845994 -0.05919949 0.023446146
0.30812323 -0.059631795 0.023439264
0.30778655 -0.060064081 0.023432383
0.30744985 -0.06049639 0.023425503
0.30711311 -0.060928695 0.02341862
0.35533422 -0.027374806 0.013849071
0.35418651 -0.027413987 0.014328055
0.35383719 -0.027862461 0.014320916
0.35348791 -0.028310934 0.014313777
0.3531386 -0.028759396 0.014306638
0.35278931 -0.029207869 0.0142995
0.35244 -0.029656343 0.014292361
0.35164687 -0.029240249 0.014778592
0.35085508 -0.028822454 0.015264849
0.35050711 -0.029269222 0.015257738
0.35015914 -0.029715993 0.015250626
0.34937 -0.029294789 0.015736938
0.34858212 -0.028871849 0.016223298
0.34823549 -0.029316915 0.016216215
0.34744966 -0.028891461 0.016702602
0.34666514 -0.028464312 0.017189007
0.34631982 -0.028907675 0.01718195
0.3455373 -0.028477967 0.017668398
0.34519264 -0.028920472 0.017661354
0.34441212 -0.028488213 0.018147843
0.34406811 -0.028929872 0.018140811
0.34372413 -0.029371532 0.018133782
0.3429462 -0.028935833 0.018620346
0.34216964 -0.028498465 0.019106923
0.34182698 -0.028938433 0.019099919
0.34105241 -0.028498502 0.019586522
0.3407104 -0.028937612 0.019579532
0.33993784 -0.028495146 0.020066189
0.33916655 -0.028050929 0.020552889
0.33882585 -0.028488336 0.020545926
0.33805659 -0.028041616 0.021032644
0.33771658 -0.028478164 0.021025697
0.33737656 -0.028914725 0.021018747
0.33660996 -0.028464586 0.02150552
0.3362706 -0.02890029 0.021498583
0.33593124 -0.029336004 0.021491649
0.33516729 -0.028882461 0.021978483
0.33482859 -0.029317318 0.021971559
0.3340666 -0.028861234 0.022458427
0.33372858 -0.029295234 0.022451518
0.33339056 -0.029729232 0.02244461
0.33305252 -0.030163243 0.022437701
0.3327145 -0.030597243 0.022430792
0.33237648 -0.031031244 0.022423884
0.33203843 -0.031465255 0.022416975
0.33170041 -0.031899255 0.022410067
0.3313624 -0.032333255 0.022403158
0.330607 -0.031868618 0.022890184
0.33026963 -0.032301772 0.022883289
0.32993227 -0.032734927 0.022876393
0.32917956 -0.032266919 0.023363451
0.32884285 -0.032699227 0.023356568
0.32850617 -0.033131521 0.023349687
0.32775611 -0.032660119 0.023836799
0.32742009 -0.033091571 0.023829931
0.32708403 -0.033523019 0.023823064
0.32674798 -0.033954471 0.023816194
0.32641196 -0.03438592 0.023809327
0.32607591 -0.034817372 0.023802459
0.32573986 -0.03524882 0.023795592
0.32540384 -0.035680272 0.023788724
0.32506779 -0.03611172 0.023781855
0.32473177 -0.036543172 0.023774987
0.32439572 -0.036974624 0.02376812
0.32405967 -0.037406072 0.023761252
0.32372364 -0.037837524 0.023754384
0.32338759 -0.038268972 0.023747515
0.32305154 -0.038700424 0.023740647
0.32271552 -0.039131872 0.02373378
0.32237947 -0.039563324 0.023726912
0.32204342 -0.039994773 0.023720045
0.3217074 -0.040426224 0.023713175
0.32137135 -0.040857673 0.023706308
0.3210353 -0.041289125 0.02369944
0.32069927 -0.041720577 0.023692572
0.32036322 -0.042152025 0.023685705
0.3200272 -0.042583477 0.023678837
0.31969115 -0.043014925 0.023671968
0.3193551 -0.043446377 0.0236651
0.31901908 -0.043877825 0.023658233
0.31868303 -0.044309288 0.023651365
0.31834698 -0.044740725 0.023644498
0.31801093 -0.045172188 0.023637628
0.31767491 -0.045603625 0.023630761
0.31733885 -0.046035089 0.023623893
0.31700283 -0.046466529 0.023617025
0.31666678 -0.046897989 0.023610158
0.31633076 -0.04732943 0.023603288
0.31599471 -0.047760889 0.023596421
0.31565866 -0.04819233 0.023589553
0.31571144 -0.049558986 0.023088191
0.31537473 -0.049991295 0.02308131
0.31503803 -0.050423577 0.023074428
0.31470132 -0.050855886 0.023067547
0.31436461 -0.051288195 0.023060665
0.31402794 -0.051720478 0.023053784
0.31369123 -0.052152786 0.023046903
0.31335452 -0.052585095 0.023040021
0.31301782 -0.053017404 0.02303314
0.31268111 -0.053449687 0.023026258
0.3123444 -0.053881995 0.023019377
0.3120077 -0.054314304 0.023012495
0.31167099 -0.054746609 0.023005614
0.31133431 -0.055178896 0.022998732
0.31099761 -0.055611204 0.022991851
0.31066087 -0.056043509 0.022984968
0.31032419 -0.056475796 0.022978088
0.30998749 -0.056908105 0.022971205
0.30965078 -0.05734041 0.022964325
0.30931407 -0.057772718 0.022957442
0.30897737 -0.058205005 0.022950562
0.30864066 -0.05863731 0.022943681
0.30830395 -0.059069619 0.022936799
0.30796725 -0.059501927 0.022929918
0.30725765 -0.058978599 0.023417855
0.30654937 -0.058453575 0.023905819
0.35482213 -0.027689142 0.01331252
0.35402468 -0.027279263 0.013799665
0.3536754 -0.027727736 0.013792527
0.35332608 -0.028176211 0.013785387
0.3529768 -0.028624671 0.013778249
0.35262749 -0.029073145 0.01377111
0.3522782 -0.029521618 0.013763972
0.35148537 -0.029105781 0.014251205
0.35069388 -0.028688239 0.014738459
0.35034591 -0.029135009 0.014731348
0.34999794 -0.029581778 0.014724236
0.3492091 -0.029160831 0.015211551
0.34842154 -0.028738147 0.015698923
0.34807491 -0.029183215 0.015691839
0.34728938 -0.028758014 0.016179221
0.34650517 -0.028331121 0.016666632
0.34615985 -0.028774485 0.016659575
0.34537765 -0.028345032 0.017147025
0.34503299 -0.028787537 0.017139981
0.34468833 -0.029230053 0.017132936
0.34390876 -0.028797192 0.017620442
0.34356478 -0.029238852 0.017613411
0.34278715 -0.02880341 0.018100979
0.34244382 -0.029244222 0.018093962
0.34166825 -0.028806264 0.018581549
0.34132558 -0.02924622 0.018574545
0.34055197 -0.028805699 0.019062173
0.3397797 -0.028363489 0.019549826
0.33943838 -0.028801741 0.019542849
0.33866805 -0.028356934 0.020030566
0.33832735 -0.028794341 0.020023603
0.33755907 -0.028347021 0.020511346
0.33721906 -0.02878358 0.020504396
0.33687904 -0.02922013 0.020497447
0.33611339 -0.0287694 0.020985236
0.33577403 -0.029205116 0.020978302
0.33501038 -0.028751826 0.02146613
0.33467168 -0.029186683 0.021459209
0.334333 -0.02962154 0.021452287
0.3339943 -0.030056396 0.021445366
0.33323395 -0.029598854 0.021933263
0.33289593 -0.030032866 0.021926355
0.33255792 -0.030466866 0.021919446
0.33221987 -0.030900864 0.021912538
0.33188185 -0.031334877 0.021905629
0.33154383 -0.031768877 0.02189872
0.33120579 -0.032202873 0.021891812
0.33086777 -0.032636885 0.021884903
0.33011335 -0.032171648 0.022372944
0.32977599 -0.032604802 0.022366049
0.3294386 -0.033037957 0.022359155
0.32868689 -0.03256936 0.022847228
0.32835019 -0.033001654 0.022840347
0.32801348 -0.033433963 0.022833465
0.3272644 -0.032961957 0.023321593
0.32692838 -0.033393409 0.023314726
0.32659233 -0.033824857 0.023307858
0.32625628 -0.034256309 0.02330099
0.32592025 -0.034687757 0.023294121
0.3255842 -0.035119209 0.023287253
0.32524815 -0.035550661 0.023280386
0.32491213 -0.03598211 0.023273518
0.32457608 -0.036413562 0.023266651
0.32424006 -0.03684501 0.023259781
0.32390401 -0.037276462 0.023252914
0.32356796 -0.03770791 0.023246046
0.32323194 -0.038139362 0.023239179
0.32289588 -0.03857081 0.023232311
0.32255983 -0.039002262 0.023225443
0.32222381 -0.039433714 0.023218574
0.32188776 -0.039865162 0.023211706
0.32155171 -0.040296614 0.023204839
0.32121569 -0.040728062 0.023197971
0.32087964 -0.041159514 0.023191104
0.32054359 -0.041590963 0.023184234
0.32020757 -0.042022415 0.023177367
0.31987152 -0.042453863 0.023170499
0.31953549 -0.042885315 0.023163632
0.31919944 -0.043316763 0.023156764
0.31886339 -0.043748215 0.023149895
0.31852734 -0.044179678 0.023143027
0.31819132 -0.044611115 0.023136159
0.31785527 -0.045042578 0.023129292
0.31751925 -0.045474015 0.023122424
0.3171832 -0.045905478 0.023115555
0.31684715 -0.046336915 0.023108687
0.31651112 -0.046768378 0.02310182
0.31617507 -0.047199816 0.023094952
0.31583902 -0.047631279 0.023088085
0.315503 -0.048062716 0.023081217
0.31555545 -0.049429119 0.02257885
0.31521875 -0.049861427 0.02257197
0.31488207 -0.05029371 0.022565087
0.31454536 -0.050726019 0.022558207
0.31420866 -0.051158328 0.022551324
0.31387195 -0.05159061 0.022544444
0.31353524 -0.052022919 0.022537561
0.31319854 -0.052455228 0.022530681
0.31286183 -0.052887537 0.022523798
0.31252512 -0.053319819 0.022516917
0.31218842 -0.053752128 0.022510037
0.31185171 -0.054184437 0.022503154
0.311515 -0.054616742 0.022496274
0.31117833 -0.055049028 0.022489391
0.31084162 -0.055481337 0.022482511
0.31050491 -0.055913642 0.022475628
0.30979031 -0.055397384 0.022964461
0.30945426 -0.055828821 0.022957593
0.30911821 -0.056260284 0.022950726
0.30878219 -0.056691721 0.022943858
0.30844614 -0.057123184 0.022936989
0.30811012 -0.057554625 0.022930121
0.30777407 -0.057986084 0.022923253
0.30743802 -0.058417547 0.022916386
0.30672938 -0.057893626 0.02340534
0.35555577 -0.029270392 0.011792541
0.35431007 -0.028003482 0.012775974
0.3539601 -0.028452812 0.012768822
0.35361013 -0.028902132 0.012761669
0.35326019 -0.029351451 0.012754517
0.35246569 -0.028938418 0.013242714
0.35211638 -0.029386893 0.013235575
0.35132387 -0.028971311 0.013723812
0.35097525 -0.029418927 0.013716687
0.35018471 -0.029000796 0.014204965
0.34983674 -0.029447565 0.014197853
0.34904823 -0.029026873 0.014686172
0.34826097 -0.028604444 0.01517454
0.34791434 -0.029049512 0.015167455
0.34712911 -0.028624566 0.015655842
0.34634522 -0.028197931 0.016144255
0.3459999 -0.028641293 0.016137198
0.34565458 -0.029084656 0.01613014
0.34487334 -0.028654601 0.016618608
0.34452868 -0.029097117 0.016611563
0.34418401 -0.029539635 0.016604519
0.34340543 -0.029106174 0.017093042
0.34306142 -0.029547844 0.01708601
0.34228477 -0.029111799 0.017574595
0.34194145 -0.029552612 0.017567579
0.34116682 -0.029114053 0.018056182
0.34082416 -0.029554008 0.018049179
0.34005153 -0.029112898 0.018537821
0.33928025 -0.028670084 0.019026494
0.33893889 -0.029108349 0.019019516
0.33816954 -0.02866294 0.01950825
0.33782887 -0.029100347 0.019501287
0.33706152 -0.028652435 0.01999004
0.33672151 -0.029088983 0.01998309
0.33595619 -0.02863851 0.020471882
0.33561683 -0.029074226 0.020464947
0.3348535 -0.028621191 0.02095378
0.3345148 -0.029056048 0.020946858
0.33417609 -0.029490905 0.020939937
0.33383739 -0.029925762 0.020933013
0.33349872 -0.030360607 0.020926092
0.33273935 -0.029902486 0.021415006
0.33240131 -0.030336486 0.021408098
0.33206329 -0.030770486 0.021401189
0.33172527 -0.031204497 0.021394281
0.33138722 -0.031638496 0.021387372
0.3310492 -0.032072496 0.021380464
0.33071116 -0.032506507 0.021373555
0.33037314 -0.032940507 0.021366647
0.32961971 -0.032474682 0.021855706
0.32928231 -0.032907832 0.021848811
0.32894495 -0.033340987 0.021841915
0.3281942 -0.032871787 0.022331007
0.32785749 -0.033304095 0.022324124
0.32752082 -0.033736393 0.022317244
0.32718408 -0.034168702 0.022310361
0.32643667 -0.033695247 0.02279952
0.32610062 -0.034126699 0.022792652
0.32576457 -0.034558147 0.022785785
0.32542855 -0.034989599 0.022778917
0.32509249 -0.035421047 0.02277205
0.32475644 -0.035852499 0.02276518
0.32442042 -0.036283948 0.022758313
0.32408437 -0.036715399 0.022751445
0.32374835 -0.037146848 0.022744577
0.3234123 -0.0375783 0.02273771
0.32307625 -0.038009752 0.02273084
0.32274023 -0.0384412 0.022723973
0.32240418 -0.038872652 0.022717105
0.32206813 -0.0393041 0.022710238
0.3217321 -0.039735552 0.02270337
0.32139605 -0.040167 0.022696501
0.32106 -0.040598452 0.022689633
0.32072398 -0.0410299 0.022682765
0.32038793 -0.041461352 0.022675898
0.32005188 -0.0418928 0.02266903
0.31971586 -0.042324252 0.022662163
0.31937981 -0.042755704 0.022655293
0.31904379 -0.043187153 0.022648426
0.31870773 -0.043618605 0.022641558
0.31837168 -0.044050064 0.022634691
0.31803566 -0.044481505 0.022627823
0.31769961 -0.044912964 0.022620954
0.31736356 -0.045344405 0.022614086
0.31702751 -0.045775868 0.022607218
0.31669149 -0.046207305 0.022600351
0.31635544 -0.046638768 0.022593483
0.31601942 -0.047070205 0.022586614
0.31568336 -0.047501668 0.022579746
0.31534734 -0.047933105 0.022572879
0.31539947 -0.049299251 0.02206951
0.31506276 -0.04973156 0.022062629
0.31472608 -0.050163843 0.022055747
0.31438938 -0.050596152 0.022048866
0.31405267 -0.05102846 0.022041984
0.31371596 -0.051460743 0.022035103
0.31337926 -0.051893052 0.022028221
0.31304255 -0.05232536 0.02202134
0.31270584 -0.052757669 0.022014458
0.31236917 -0.053189952 0.022007577
0.31203246 -0.053622261 0.022000695
0.31169575 -0.054054569 0.021993814
0.31135905 -0.054486874 0.021986932
0.31102234 -0.054919161 0.021980051
0.31030673 -0.054404873 0.02246986
0.30997068 -0.05483631 0.022462992
0.30963463 -0.055267774 0.022456124
0.3092986 -0.055699211 0.022449257
0.30896255 -0.056130674 0.022442387
0.30862653 -0.056562111 0.02243552
0.30829048 -0.056993574 0.022428652
0.30795443 -0.057425011 0.022421785
0.30724478 -0.056903064 0.022911714
0.30690941 -0.057333656 0.02290486
0.35539305 -0.029134901 0.011261142
0.35459486 -0.028727235 0.011750261
0.35424426 -0.029177401 0.011743095
0.35344803 -0.028767152 0.012232277
0.35309806 -0.02921647 0.012225124
0.35230389 -0.028803695 0.012714325
0.35195458 -0.029252168 0.012707185
0.35116237 -0.028836843 0.013196426
0.35081375 -0.029284459 0.013189301
0.35002354 -0.028866582 0.013678575
0.34967557 -0.029313352 0.013671463
0.34888732 -0.028892916 0.014160785
0.34810039 -0.028470742 0.014650157
0.34775373 -0.028915808 0.014643072
0.34696883 -0.028491119 0.015132462
0.34662285 -0.028935339 0.01512539
0.34583992 -0.028508103 0.015614821
0.3454946 -0.028951464 0.015607763
0.34471366 -0.028521666 0.016097235
0.34436902 -0.028964182 0.01609019
0.34402436 -0.0294067 0.016083146
0.3436797 -0.029849205 0.016076103
0.34290206 -0.029415164 0.016565641
0.34255809 -0.029856823 0.01655861
0.34178239 -0.02942019 0.017048212
0.34143907 -0.029861003 0.017041195
0.34066543 -0.02942184 0.017530814
0.3398931 -0.028980983 0.018020455
0.33955109 -0.029420095 0.018013464
0.33878076 -0.02897669 0.018503152
0.33843943 -0.029414942 0.018496176
0.33767104 -0.028968945 0.018985927
0.33733037 -0.029406363 0.018978965
0.336564 -0.028957836 0.019468732
0.33622399 -0.029394398 0.019461785
0.33545962 -0.028943334 0.019951593
0.33512026 -0.029379038 0.019944659
0.33435789 -0.028925413 0.020434508
0.33401921 -0.02936027 0.020427587
0.33368051 -0.029795127 0.020420663
0.33334184 -0.030229973 0.020413741
0.33300313 -0.03066483 0.02040682
0.33266443 -0.031099686 0.020399898
0.33232573 -0.031534545 0.020392975
0.33198705 -0.031969402 0.020386053
0.33123064 -0.031508118 0.020876026
0.33089262 -0.031942118 0.020869117
0.33055457 -0.032376129 0.020862209
0.33021656 -0.032810129 0.0208553
0.32987854 -0.033244129 0.020848392
0.32912606 -0.032777712 0.021338467
0.32878867 -0.033210866 0.021331571
0.32845131 -0.033644017 0.021324677
0.32770154 -0.033174228 0.021814784
0.32736483 -0.033606526 0.021807903
0.32702813 -0.034038834 0.021801021
0.32669142 -0.034471128 0.02179414
0.32635471 -0.034903437 0.021787258
0.32601801 -0.035335734 0.021780377
0.32568133 -0.035768028 0.021773495
0.32534459 -0.036200337 0.021766614
0.32500792 -0.036632635 0.021759732
0.32467121 -0.03706494 0.021752851
0.3243345 -0.037497237 0.02174597
0.3239978 -0.037929546 0.021739088
0.32325661 -0.037448686 0.022229364
0.32292059 -0.037880138 0.022222497
0.32258454 -0.038311586 0.022215629
0.32224852 -0.038743038 0.022208761
0.32191247 -0.039174486 0.022201894
0.32157642 -0.039605938 0.022195024
0.3212404 -0.040037386 0.022188157
0.32090434 -0.040468838 0.022181289
0.32056829 -0.04090029 0.022174422
0.32023227 -0.041331738 0.022167554
0.31989622 -0.04176319 0.022160685
0.31956017 -0.042194638 0.022153817
0.31922415 -0.04262609 0.02214695
0.3188881 -0.043057539 0.022140082
0.31855205 -0.043488991 0.022133214
0.31821603 -0.043920454 0.022126345
0.31787997 -0.044351891 0.022119477
0.31754392 -0.044783354 0.02211261
0.3172079 -0.045214791 0.022105742
0.31687185 -0.045646254 0.022098875
0.31653583 -0.046077691 0.022092007
0.31619978 -0.046509154 0.022085138
0.31586373 -0.046940591 0.02207827
0.31552768 -0.047372054 0.022071403
0.31519166 -0.047803491 0.022064535
0.31524351 -0.049169384 0.02156017
0.31490681 -0.049601693 0.021553287
0.3145701 -0.050033979 0.021546407
0.31423339 -0.050466284 0.021539526
0.31389669 -0.050898593 0.021532644
0.31356001 -0.051330876 0.021525763
0.3132233 -0.051763184 0.021518881
0.3128866 -0.052195493 0.021512
0.31254989 -0.052627802 0.021505117
0.31221318 -0.053060085 0.021498237
0.31187648 -0.053492393 0.021491354
0.31153977 -0.053924702 0.021484474
0.31120306 -0.054357011 0.021477591
0.31048709 -0.053843796 0.021968383
0.31015104 -0.054275259 0.021961516
0.30981502 -0.054706696 0.021954648
0.30947897 -0.05513816 0.021947781
0.30876631 -0.054620717 0.022438645
0.30843091 -0.055051312 0.022431791
0.30809554 -0.055481903 0.022424938
0.30776015 -0.055912521 0.022418082
0.30742478 -0.056343112 0.022411229
0.30708942 -0.056773704 0.022404375
0.30675405 -0.057204299 0.02239752
0.35683 -0.02980913 0.0097495792
0.35567755 -0.029856997 0.010232454
0.35487902 -0.029450431 0.010722563
0.35408184 -0.029042164 0.011212699
0.35373122 -0.029492341 0.011205533
0.35293594 -0.02908149 0.011695731
0.35214207 -0.02866897 0.012185935
0.35179278 -0.029117443 0.012178795
0.35100088 -0.028702375 0.01266904
0.35065225 -0.029149989 0.012661914
0.35030362 -0.029597605 0.012654789
0.34951437 -0.029179139 0.01314508
0.34916639 -0.029625896 0.013137968
0.34837914 -0.029204872 0.013628308
0.34759316 -0.028782107 0.014118696
0.34680855 -0.028357673 0.014609082
0.34646258 -0.028801894 0.01460201
0.34567994 -0.02837491 0.015092444
0.34533462 -0.028818274 0.015085386
0.3449893 -0.029261637 0.015078329
0.34464401 -0.029704999 0.015071271
0.34386468 -0.029273765 0.015561773
0.34352005 -0.02971627 0.015554729
0.34317538 -0.030158786 0.015547684
0.34239873 -0.029724145 0.016038241
0.34205472 -0.030165805 0.016031209
0.34128001 -0.029728578 0.016521828
0.3405067 -0.029289672 0.017012451
0.34016401 -0.02972964 0.017005447
0.33939266 -0.029288182 0.017496105
0.33905068 -0.029727291 0.017489115
0.3382813 -0.029283287 0.017979819
0.33793995 -0.029721551 0.017972844
0.33717254 -0.029274963 0.01846361
0.33683187 -0.02971237 0.018456647
0.33606648 -0.029263252 0.018947434
0.33530241 -0.028812446 0.019438246
0.33496305 -0.029248148 0.019431312
0.33462372 -0.029683853 0.019424375
0.3338623 -0.029229635 0.019915236
0.3335236 -0.029664492 0.019908313
0.33318493 -0.030099338 0.019901391
0.33284622 -0.030534195 0.01989447
0.33250755 -0.030969052 0.019887546
0.33216885 -0.03140391 0.019880624
0.33183014 -0.031838767 0.019873703
0.33149147 -0.032273613 0.019866781
0.33115277 -0.03270847 0.019859858
0.33039799 -0.032245748 0.02035086
0.33005998 -0.032679748 0.020343952
0.32972193 -0.033113748 0.020337043
0.32938391 -0.033547759 0.020330135
0.32863238 -0.033080742 0.020821229
0.32829502 -0.033513896 0.020814333
0.32795766 -0.033947051 0.020807438
0.32720885 -0.033476658 0.021298563
0.32687214 -0.033908967 0.021291681
0.32653543 -0.034341261 0.0212848
0.32619873 -0.03477357 0.021277918
0.32586205 -0.035205867 0.021271037
0.32552534 -0.035638161 0.021264154
0.32518864 -0.03607047 0.021257274
0.32485193 -0.036502767 0.021250391
0.32451522 -0.036935072 0.021243511
0.32417852 -0.03736737 0.021236628
0.32384181 -0.037799679 0.021229748
0.3235051 -0.038231973 0.021222865
0.3227649 -0.037750524 0.02171416
0.32242888 -0.038181975 0.021707293
0.32209283 -0.038613427 0.021700423
0.32175681 -0.039044876 0.021693556
0.32142076 -0.039476328 0.021686688
0.32108471 -0.039907776 0.02167982
0.32074869 -0.040339228 0.021672953
0.32041264 -0.040770676 0.021666083
0.32007658 -0.041202128 0.021659216
0.31974056 -0.041633576 0.021652348
0.31940451 -0.042065028 0.021645481
0.31906846 -0.042496476 0.021638613
0.31873244 -0.042927928 0.021631744
0.31839639 -0.04335938 0.021624876
0.31806034 -0.04379084 0.021618009
0.31772432 -0.04422228 0.021611141
0.31738827 -0.04465374 0.021604273
0.31705225 -0.045085181 0.021597404
0.31671619 -0.04551664 0.021590536
0.31638014 -0.045948081 0.021583669
0.31604409 -0.046379544 0.021576801
0.31570807 -0.046810981 0.021569934
0.31537202 -0.047242444 0.021563064
0.315036 -0.047673881 0.021556197
0.31508753 -0.049039517 0.021050829
0.31475082 -0.049471825 0.021043947
0.31441414 -0.049904112 0.021037066
0.31407744 -0.050336417 0.021030184
0.31374073 -0.050768726 0.021023303
0.31340402 -0.051201008 0.021016423
0.31306732 -0.051633317 0.02100954
0.31273061 -0.052065626 0.02100266
0.3123939 -0.052497935 0.020995777
0.3120572 -0.052930217 0.020988896
0.31172049 -0.053362526 0.020982014
0.31138378 -0.053794835 0.020975133
0.31066746 -0.053282745 0.021466915
0.31033143 -0.053714186 0.021460047
0.30999538 -0.054145645 0.021453178
0.30965936 -0.054577086 0.02144631
0.30894631 -0.054060746 0.021938166
0.30861095 -0.054491363 0.021931311
0.30827555 -0.054921955 0.021924458
0.30794019 -0.05535255 0.021917604
0.30760479 -0.055783164 0.021910749
0.30689573 -0.055261668 0.022402707
0.30693406 -0.05664435 0.02189704
0.35666665 -0.029673129 0.0092161801
0.35631406 -0.030125843 0.0092089744
0.3547163 -0.029314941 0.010191164
0.35436502 -0.029765964 0.010183984
0.35356879 -0.029357105 0.010675137
0.35277385 -0.02894651 0.011166338
0.35198027 -0.028534245 0.011657538
0.35207391 -0.029845148 0.011152034
0.35128167 -0.02943119 0.01164326
0.35049075 -0.029015519 0.012134521
0.35014212 -0.029463135 0.012127396
0.34935316 -0.029044924 0.012618691
0.34900519 -0.029491682 0.012611579
0.34821826 -0.029070912 0.013102921
0.34743258 -0.028648404 0.013594312
0.34708592 -0.02909347 0.013587227
0.3463023 -0.028668448 0.014078638
0.34551999 -0.02824172 0.014570068
0.34517467 -0.028685082 0.01456301
0.34482935 -0.029128445 0.014555953
0.34448403 -0.029571809 0.014548895
0.34370503 -0.029140828 0.0150404
0.34336036 -0.029583335 0.015033355
0.34301573 -0.030025851 0.015026311
0.34223938 -0.029591465 0.01551787
0.34189537 -0.030033125 0.015510839
0.34155139 -0.030474784 0.015503809
0.34077764 -0.030036969 0.015995445
0.34000528 -0.029597472 0.016487084
0.33966261 -0.030037427 0.016480081
0.33889222 -0.029595381 0.016971756
0.33812317 -0.029151628 0.017463455
0.33778185 -0.029589893 0.017456479
0.33744049 -0.030028146 0.017449504
0.33667403 -0.029580968 0.017941287
0.33590898 -0.029132107 0.018433077
0.33556893 -0.029568667 0.018426128
0.33480588 -0.029117258 0.018917957
0.33446652 -0.029552961 0.018911021
0.33412716 -0.029988663 0.018904086
0.33336672 -0.029533859 0.01939597
0.33302802 -0.029968705 0.019389048
0.33268934 -0.030403562 0.019382125
0.33235064 -0.030838419 0.019375203
0.33201194 -0.031273276 0.019368282
0.33167326 -0.031708132 0.019361358
0.33133456 -0.032142978 0.019354437
0.33099589 -0.032577835 0.019347515
0.33065718 -0.033012696 0.019340593
0.33031848 -0.033447552 0.01933367
0.32956535 -0.03298337 0.019825697
0.3292273 -0.033417381 0.019818788
0.32888928 -0.033851381 0.01981188
0.32813874 -0.033383772 0.020303989
0.32780138 -0.033816926 0.020297093
0.32746401 -0.034250081 0.020290198
0.32671615 -0.0337791 0.02078234
0.32637948 -0.034211393 0.020775458
0.32604277 -0.034643702 0.020768577
0.32570606 -0.035076 0.020761697
0.32536936 -0.035508294 0.020754814
0.32503265 -0.035940602 0.020747934
0.32469594 -0.0363729 0.020741051
0.32435924 -0.036805205 0.02073417
0.32402256 -0.037237503 0.020727288
0.32368585 -0.037669811 0.020720407
0.32334915 -0.038102105 0.020713525
0.32301244 -0.038534414 0.020706644
0.32267573 -0.038966712 0.020699762
0.32233903 -0.039399017 0.020692881
0.32200232 -0.039831314 0.020685999
0.32166561 -0.040263612 0.020679118
0.32132891 -0.040695917 0.020672236
0.32099223 -0.041128214 0.020665355
0.32065552 -0.041560523 0.020658474
0.32031882 -0.041992817 0.020651592
0.31998211 -0.042425126 0.020644711
0.3196454 -0.042857423 0.020637829
0.3193087 -0.043289728 0.020630948
0.31897199 -0.043722026 0.020624066
0.31863528 -0.044154335 0.020617185
0.31829858 -0.044586644 0.020610303
0.3179619 -0.045018926 0.020603422
0.31762519 -0.045451235 0.02059654
0.31728849 -0.045883544 0.020589659
0.31695178 -0.046315826 0.020582778
0.31661507 -0.046748135 0.020575896
0.31627837 -0.047180444 0.020569013
0.31594166 -0.047612749 0.020562133
0.31560498 -0.048045035 0.020555252
0.31526828 -0.048477344 0.02054837
0.31493154 -0.048909649 0.020541489
0.31459484 -0.049341958 0.020534607
0.31425816 -0.049774244 0.020527726
0.31392145 -0.050206549 0.020520844
0.31358474 -0.050638858 0.020513963
0.31324804 -0.051071141 0.02050708
0.31291133 -0.05150345 0.0205002
0.31257463 -0.051935758 0.020493317
0.31223792 -0.052368067 0.020486437
0.31190124 -0.05280035 0.020479556
0.31156453 -0.053232659 0.020472674
0.31122783 -0.053664967 0.020465791
0.3105118 -0.053153135 0.020958576
0.31017575 -0.053584572 0.020951709
0.3098397 -0.054016035 0.020944841
0.30950367 -0.054447472 0.020937974
0.30916762 -0.054878935 0.020931106
0.30845559 -0.054362006 0.021423979
0.30812019 -0.054792602 0.021417124
0.30778483 -0.055223193 0.02141027
0.30707538 -0.054702822 0.021903219
0.30674067 -0.055132572 0.021896377
0.35659805 -0.030846104 0.0081762718
0.35420227 -0.029630471 0.0096525848
0.35385099 -0.030081494 0.0096454052
0.35349971 -0.030532517 0.0096382257
0.35270512 -0.030122209 0.010130402
0.35191181 -0.029710166 0.010622634
0.35156184 -0.030159486 0.010615481
0.35077056 -0.029744929 0.011107732
0.34998059 -0.029328667 0.01160001
0.34919196 -0.028910711 0.012092307
0.34884399 -0.029357469 0.012085196
0.34849602 -0.029804239 0.012078084
0.34771004 -0.029382879 0.012570443
0.34692535 -0.028959768 0.013062844
0.34614202 -0.028535001 0.013555258
0.34579605 -0.02897921 0.013548186
0.34501469 -0.028551893 0.01404064
0.34466937 -0.028995257 0.014033582
0.34432405 -0.029438619 0.014026524
0.34397873 -0.029881982 0.014019467
0.34320071 -0.0294504 0.014511982
0.34285605 -0.029892916 0.014504937
0.34251139 -0.030335434 0.014497894
0.34173602 -0.029900445 0.014990469
0.34139204 -0.030342104 0.014983439
0.34061861 -0.029904544 0.015476078
0.34027529 -0.030345347 0.01546906
0.33950388 -0.029905258 0.01596171
0.33916119 -0.030345226 0.015954707
0.33839178 -0.029902576 0.016447399
0.33762372 -0.029458236 0.016940122
0.33728236 -0.029896488 0.016933147
0.33651623 -0.029449565 0.017425934
0.33617553 -0.029886972 0.017418971
0.33541143 -0.029437521 0.017911769
0.33507141 -0.02987407 0.017904822
0.33430931 -0.029422071 0.018397668
0.33396995 -0.029857773 0.018390732
0.33320981 -0.029403225 0.018883619
0.33287114 -0.02983807 0.018876698
0.33253244 -0.030272927 0.018869774
0.33219373 -0.030707784 0.018862853
0.33185506 -0.031142643 0.018855931
0.33151636 -0.031577498 0.018849008
0.33117768 -0.032012343 0.018842086
0.33083898 -0.0324472 0.018835165
0.33050027 -0.032882061 0.018828243
0.3301616 -0.033316918 0.01882132
0.3298229 -0.033751763 0.018814398
0.32907072 -0.033287004 0.01930744
0.3287327 -0.033721004 0.019300532
0.32839468 -0.034155 0.019293623
0.32764509 -0.033686802 0.019786749
0.32730773 -0.034119956 0.019779855
0.32697037 -0.034553099 0.01977296
0.32663301 -0.034986254 0.019766064
0.32588679 -0.034513835 0.020259237
0.32555008 -0.034946132 0.020252354
0.3252134 -0.035378426 0.020245474
0.32487667 -0.035810735 0.020238591
0.32453999 -0.036243033 0.020231711
0.32420328 -0.036675338 0.020224828
0.32386658 -0.037107635 0.020217948
0.32352987 -0.037539944 0.020211067
0.32319316 -0.037972238 0.020204185
0.32285646 -0.038404547 0.020197304
0.32251975 -0.038836844 0.020190421
0.32218304 -0.039269149 0.020183541
0.32184637 -0.039701447 0.020176658
0.32150966 -0.040133744 0.020169778
0.32117295 -0.04056605 0.020162895
0.32083625 -0.040998347 0.020156015
0.32049954 -0.041430656 0.020149132
0.32016283 -0.04186295 0.020142252
0.31982613 -0.042295258 0.020135369
0.31948942 -0.042727556 0.020128489
