# .PCD v0.7 - Point Cloud Data file format
VERSION 0.7
FIELDS x y z
SIZE 4 4 4
TYPE F F F
COUNT 1 1 1
WIDTH 1367
HEIGHT 1
VIEWPOINT 0 0 0 1 0 0 0
POINTS 1367
DATA ascii
0.63361651 -0.064785868 0.10399294
0.63474059 -0.064316384 0.10434154
0.63586402 -0.063848965 0.10469016
0.63698679 -0.063383609 0.10503881
0.63724214 -0.062546454 0.10502806
0.64009696 -0.06283401 0.10609567
0.64035141 -0.061999965 0.10608495
0.64060587 -0.06116591 0.10607423
0.64605343 -0.062599868 0.10822049
0.64630598 -0.061772015 0.10820985
0.64655852 -0.060944166 0.1081992
0.64681107 -0.060116321 0.10818856
0.64792788 -0.05967062 0.10853749
0.64818013 -0.058843806 0.10852686
0.6501596 -0.058785386 0.10923538
0.65041119 -0.057960644 0.10922477
0.64807373 -0.05597708 0.10813535
0.65005171 -0.055923849 0.10884395
0.6503036 -0.055098068 0.10883334
0.64969349 -0.053882919 0.10846308
0.64994568 -0.053056099 0.10845245
0.65019792 -0.052229285 0.10844181
0.65045011 -0.051402472 0.10843119
0.64984155 -0.050182145 0.10806084
0.65181506 -0.050143383 0.10876964
0.65206695 -0.049317602 0.10875902
0.65145904 -0.048095219 0.10838867
0.64569449 -0.044484936 0.10585977
0.64594889 -0.043650888 0.10584905
0.63761425 -0.038819794 0.10224055
0.63787186 -0.037975404 0.10222969
0.63812941 -0.037131026 0.10221884
0.63752908 -0.035883844 0.10184816
0.63864464 -0.035442255 0.10219713
0.64061683 -0.035407614 0.10290596
0.64087379 -0.034565292 0.10289513
0.64027405 -0.033316039 0.10252444
0.6405313 -0.032472685 0.10251359
0.64078856 -0.031629339 0.10250275
0.64275742 -0.031606078 0.10321172
0.64301401 -0.03076479 0.10320091
0.62899554 -0.022058837 0.097060114
0.62925756 -0.021199983 0.097049072
0.62951952 -0.020341128 0.097038031
0.62978154 -0.019482274 0.097026989
0.62919003 -0.018206147 0.096655957
0.63115877 -0.018182877 0.097364925
0.63909668 -0.021099135 0.10059416
0.63935554 -0.020250605 0.10058326
0.61745495 -0.0084454678 0.091210864
0.62224728 -0.0088120606 0.092988782
0.62421548 -0.0087908739 0.093697794
0.62448031 -0.0079227062 0.093686625
0.62559581 -0.0074811243 0.094035588
0.62756115 -0.0074692359 0.09474472
0.62782508 -0.0066041872 0.094733596
0.62893867 -0.0061688004 0.095082641
0.63344949 -0.0074583297 0.096872412
0.63456064 -0.0070312163 0.097221553
0.63567114 -0.0066061676 0.097570732
0.63593251 -0.0057493784 0.097559713
0.63025659 -0.0018486971 0.095027097
0.63052016 -0.00098467362 0.095015995
0.63078374 -0.00012066444 0.095004886
0.63104731 0.00074335904 0.094993778
0.63300472 0.00072943186 0.095703222
0.63326764 0.0015913905 0.095692143
0.63353062 0.0024533491 0.095681064
0.63548553 0.0024311324 0.096390635
0.63574785 0.003291026 0.096379586
0.63516474 0.0045950664 0.096008167
0.63373733 0.0063463394 0.095276378
0.6390689 0.0045320508 0.097427532
0.63933027 0.0053888401 0.09741652
0.63705939 0.0075904662 0.09632431
0.63732171 0.0084503461 0.096313253
0.63758403 0.0093102399 0.096302196
0.63784635 0.010170119 0.096291147
0.63810867 0.011030013 0.096280091
0.64005595 0.010982991 0.096989959
0.64031768 0.011840819 0.096978933
0.64226305 0.011787619 0.097688891
0.64252412 0.012643368 0.097677894
0.64278519 0.013499117 0.097666889
0.64388722 0.013896238 0.098016433
0.64414793 0.014750962 0.098005444
0.64524901 0.015145009 0.098355018
0.64634937 0.015536977 0.098704614
0.64660949 0.016389636 0.098693654
0.65022707 0.015387165 0.10012509
0.65132493 0.01577086 0.1004748
0.65242219 0.01615249 0.10082453
0.6526804 0.016998954 0.10081365
0.6529386 0.017845405 0.10080276
0.65403461 0.018222902 0.10115255
0.65512997 0.018598322 0.10150237
0.65538758 0.019442709 0.10149151
0.65564513 0.020287095 0.10148066
0.65673923 0.0206584 0.10183053
0.65699655 0.021501746 0.10181969
0.65474612 0.023770561 0.10072659
0.65500432 0.024617011 0.1007157
0.65526253 0.025463462 0.10070483
0.65552074 0.026309913 0.10069394
0.65744823 0.026197782 0.10140467
0.65770584 0.027042167 0.10139381
0.65712941 0.028367909 0.10102213
0.65738732 0.029213334 0.10101126
0.65764523 0.030058745 0.10100039
0.65790313 0.030904155 0.10098952
0.65732825 0.032235067 0.10061777
0.65592164 0.034054566 0.099885099
0.65784466 0.03392797 0.100596
0.66059828 0.033308651 0.1016679
0.66085553 0.034151997 0.10165706
0.66111284 0.034995358 0.10164621
0.6613701 0.035838705 0.10163537
0.66162735 0.036682051 0.10162453
0.66188461 0.037525412 0.10161369
0.66214192 0.038368758 0.10160284
0.66239917 0.039212104 0.101592
0.66265643 0.040055465 0.10158116
0.66291368 0.040898811 0.10157032
0.66317099 0.041742161 0.10155948
0.66342825 0.042585507 0.10154863
0.66451353 0.042927887 0.10189886
0.66477048 0.043770209 0.10188804
0.66420007 0.04511556 0.10151611
0.66445732 0.045958921 0.10150526
0.66471457 0.046802267 0.10149442
0.66497183 0.047645614 0.10148358
0.66522914 0.048488975 0.10147274
0.6654864 0.049332321 0.10146189
0.66574365 0.050175667 0.10145105
0.6660009 0.051019013 0.10144021
0.66625822 0.051862374 0.10142937
0.66651547 0.05270572 0.10141852
0.66677272 0.053549066 0.10140768
0.66785389 0.053878006 0.10175809
0.66811085 0.054720327 0.10174726
0.6683678 0.055562649 0.10173643
0.66862476 0.056404967 0.1017256
0.66805911 0.057765827 0.10135347
0.66831636 0.058609173 0.10134263
0.66857362 0.059452519 0.10133179
0.66800922 0.060817532 0.10095959
0.66826677 0.061661918 0.10094874
0.66852438 0.062506303 0.10093788
0.66878194 0.063350692 0.10092703
0.66821909 0.064720877 0.10055477
0.668477 0.065566286 0.1005439
0.66873491 0.066411696 0.10053303
0.66899282 0.067257121 0.10052216
0.66925073 0.068102539 0.1005113
0.66950864 0.068947963 0.10050043
0.66976649 0.069793373 0.10048956
0.67002439 0.070638798 0.10047869
0.6702823 0.071484208 0.10046782
0.67054021 0.072329633 0.10045695
0.67079812 0.073175043 0.10044608
0.67105597 0.074020453 0.10043521
0.67131388 0.074865885 0.10042434
0.67075539 0.076250538 0.10005189
0.67019761 0.07763724 0.099679433
0.67045611 0.078484729 0.099668533
0.67071468 0.079332225 0.09965764
0.67097318 0.080179699 0.099646747
0.67041695 0.081571586 0.099274211
0.67067581 0.082420103 0.099263303
0.67093468 0.08326862 0.099252395
0.67119348 0.084117129 0.099241488
0.67145234 0.084965661 0.09923058
0.67171121 0.085814178 0.099219672
0.67197007 0.086662695 0.099208757
0.67222887 0.087511212 0.09919785
0.67248774 0.088359728 0.099186942
0.6727466 0.089208253 0.099176034
0.6730054 0.09005677 0.099165127
0.67326427 0.090905286 0.099154219
0.67271215 0.092310585 0.098781519
0.59927619 -0.091342784 0.093878888
0.59954101 -0.090474628 0.093867727
0.59892547 -0.089278176 0.093496665
0.59831053 -0.088079646 0.093125559
0.59945577 -0.0875398 0.093474314
0.59972095 -0.086670615 0.093463138
0.60086524 -0.086133853 0.093811922
0.60113007 -0.085265696 0.093800761
0.60139489 -0.084397539 0.0937896
0.60253793 -0.08386492 0.094138436
0.60368031 -0.083334364 0.094487302
0.60394448 -0.082468271 0.094476171
0.60508597 -0.081940837 0.094825074
0.60710371 -0.081755109 0.095534064
0.60824358 -0.081232823 0.095883027
0.61025918 -0.081054352 0.096592121
0.61139745 -0.08053723 0.096941151
0.61253512 -0.080022171 0.097290218
0.61367214 -0.079509184 0.0976393
0.6148085 -0.07899826 0.097988419
0.61594433 -0.078489423 0.098337568
0.6170795 -0.077982642 0.098686747
0.61821395 -0.077477925 0.099035949
0.61934787 -0.076975271 0.099385157
0.62048113 -0.076474704 0.099734426
0.62074065 -0.075624116 0.099723488
0.6218729 -0.075126633 0.10007278
0.62300462 -0.074631214 0.10042209
0.62326342 -0.073782697 0.10041118
0.62439418 -0.073290385 0.10076053
0.62552422 -0.07280013 0.10110992
0.62665373 -0.072311968 0.10145934
0.62778258 -0.071825847 0.10180878
0.62804019 -0.070981465 0.10179792
0.62829775 -0.070137076 0.10178706
0.62942535 -0.069655098 0.10213655
0.6296826 -0.068811744 0.1021257
0.63167864 -0.068697356 0.10283562
0.63193524 -0.067856066 0.1028248
0.63306063 -0.067381322 0.10317439
0.63331693 -0.066541068 0.10316359
0.63444138 -0.066069424 0.10351321
0.63556516 -0.065599844 0.10386284
0.63582081 -0.064761668 0.10385207
0.6369437 -0.06429518 0.10420176
0.63806593 -0.063830793 0.10455149
0.63832098 -0.062994674 0.10454074
0.63944227 -0.062533364 0.1048905
0.63969702 -0.061698277 0.10487976
0.64081734 -0.061240062 0.10522955
0.64193702 -0.060783923 0.10557938
0.64219111 -0.059950907 0.10556866
0.64158064 -0.058737922 0.10519738
0.64702094 -0.060189925 0.10735016
0.64727348 -0.05936208 0.10733952
0.64838976 -0.058917318 0.10768951
0.65036869 -0.058858711 0.10840011
0.65062028 -0.058033969 0.10838951
0.65087187 -0.057209224 0.10837891
0.65112346 -0.056384474 0.10836831
0.65051299 -0.055171486 0.10799703
0.64990312 -0.05395643 0.10762573
0.65015531 -0.05312961 0.1076151
0.65040755 -0.052302796 0.10760447
0.6506598 -0.051475983 0.10759384
0.65005141 -0.050255746 0.10722245
0.64944375 -0.049033463 0.10685105
0.64969659 -0.048204578 0.10684039
0.64651108 -0.04578964 0.10538661
0.64590597 -0.044559088 0.10501509
0.64616036 -0.04372504 0.10500437
0.63868701 -0.03929447 0.10174623
0.63722765 -0.037649844 0.10101371
0.63748556 -0.036804426 0.10100284
0.63774341 -0.035959009 0.10099197
0.63885868 -0.035517327 0.10134199
0.63911629 -0.034672942 0.10133113
0.6393739 -0.033828564 0.10132027
0.64048791 -0.033391017 0.10167033
0.64074516 -0.032547664 0.10165949
0.64100242 -0.031704318 0.10164865
0.64297068 -0.031680875 0.10235973
0.64408249 -0.031250566 0.10270988
0.64433885 -0.030410316 0.10269908
0.62921333 -0.022135194 0.096190318
0.6294753 -0.02127634 0.096179277
0.62888342 -0.020002371 0.095807225
0.62914574 -0.01914249 0.095796168
0.6285547 -0.017865399 0.095424049
0.62881732 -0.017004481 0.095412977
0.62737465 -0.015305084 0.094679765
0.6242286 -0.012760957 0.093224309
0.62619716 -0.012736481 0.09393537
0.62646109 -0.011871418 0.093924254
0.6244356 -0.0088680582 0.092818581
0.62470043 -0.0079998905 0.09280742
0.62496525 -0.0071317377 0.092796259
0.6277805 -0.0075461455 0.093868643
0.62804443 -0.0066810967 0.093857527
0.62915778 -0.0062456178 0.094207615
0.63366729 -0.0075346879 0.096002616
0.63647586 -0.0079707801 0.097075284
0.63673693 -0.0071150307 0.097064279
0.63699794 -0.0062592807 0.097053275
0.63471526 -0.0040992713 0.095958449
0.63497728 -0.003240417 0.095947407
0.63523924 -0.0023815627 0.095936365
0.62872541 0.0019801036 0.093034796
0.63237661 0.001091696 0.094468966
0.63263988 0.0019546798 0.094457872
0.6329031 0.0028176638 0.094446778
0.63570356 0.0023546824 0.095519796
0.63596588 0.0032145763 0.095508747
0.63369292 0.0054066298 0.094413497
0.63395613 0.0062696137 0.094402403
0.63337499 0.0075787152 0.094029889
0.63448268 0.0079955962 0.094380207
0.63558972 0.008410383 0.094730556
0.63585269 0.0092723416 0.094719477
0.63780206 0.0092337895 0.095431358
0.63806438 0.010093669 0.095420308
0.6383267 0.010953563 0.095409252
0.63943124 0.01136009 0.095759697
0.64053518 0.011764553 0.096110187
0.64248008 0.011711536 0.096822239
0.64274108 0.012567285 0.096811242
0.6446842 0.012508056 0.097523376
0.64494461 0.013361741 0.097512402
0.64436466 0.014674972 0.097139835
0.64546543 0.01506911 0.097490452
0.64656556 0.015461171 0.097841106
0.64682567 0.01631383 0.097830139
0.65044218 0.015311726 0.099265769
0.6515398 0.015695512 0.099616513
0.65263677 0.016077233 0.099967301
0.65289503 0.0169237 0.099956416
0.65315324 0.017770151 0.09994553
0.65424901 0.018147739 0.10029637
0.65450692 0.01899315 0.1002855
0.65476483 0.019838575 0.10027463
0.65585923 0.020212023 0.10062552
0.65611684 0.021056408 0.10061467
0.65637445 0.021900795 0.10060381
0.65496069 0.023695305 0.099869356
0.65521896 0.024541756 0.099858478
0.65547717 0.025388207 0.099847592
0.65573537 0.026234658 0.099836715
0.65682799 0.026601907 0.10018768
0.6570859 0.027447334 0.10017681
0.6573438 0.028292743 0.10016594
0.65760171 0.02913817 0.10015508
0.65785962 0.029983582 0.10014421
0.65728468 0.031313363 0.099771418
0.65754288 0.032159813 0.09976054
0.65780109 0.033006266 0.099749655
0.6580593 0.033852715 0.099738777
0.66081214 0.033233672 0.10081379
0.66106939 0.034077018 0.10080295
0.66132665 0.03492038 0.10079211
0.66075337 0.036255326 0.10041926
0.66184121 0.036607072 0.10077042
0.66209847 0.037450433 0.10075958
0.66318536 0.037799101 0.10111079
0.66344231 0.038641408 0.10109996
0.66369927 0.03948373 0.10108913
0.66395622 0.040326051 0.1010783
0.66421318 0.041168373 0.10106748
0.66447014 0.04201068 0.10105664
0.66472709 0.042853002 0.10104582
0.66498405 0.043695319 0.10103498
0.66441387 0.045040578 0.100662
0.66549796 0.045379948 0.10101333
0.66575491 0.04622227 0.1010025
0.66601187 0.047064591 0.10099167
0.66544294 0.048413992 0.10061863
0.66570026 0.049257338 0.10060779
0.66595751 0.050100684 0.10059695
0.66621476 0.05094403 0.10058611
0.66647202 0.051787391 0.10057526
0.66672933 0.052630737 0.10056442
0.66698658 0.053474084 0.10055358
0.66806746 0.053803116 0.10090504
0.66832441 0.054645438 0.10089421
0.66858137 0.055487759 0.10088338
0.66883832 0.056330081 0.10087255
0.66827291 0.057690844 0.10049937
0.66853017 0.05853419 0.10048853
0.66878748 0.059377536 0.10047768
0.66822332 0.06074246 0.10010445
0.66848087 0.061586849 0.1000936
0.66873848 0.062431235 0.10008274
0.66899604 0.06327562 0.10007188
0.66843349 0.064645715 0.099698581
0.6686914 0.065491125 0.099687718
0.66894925 0.066336535 0.099676847
0.66920716 0.06718196 0.099665977
0.66946507 0.06802737 0.099655107
0.66972297 0.068872795 0.099644236
0.66998088 0.069718204 0.099633373
0.67023879 0.070563637 0.099622503
0.67049664 0.071409047 0.099611633
0.67075455 0.072254471 0.099600762
0.67101246 0.073099881 0.099589892
0.67127037 0.073945291 0.099579029
0.67071182 0.075328819 0.099205546
0.67097002 0.07617528 0.099194668
0.67041248 0.077561893 0.098821148
0.67067105 0.078409381 0.098810256
0.67011446 0.079799116 0.098436706
0.67037326 0.080647632 0.098425798
0.67063212 0.081496149 0.09841489
0.67089099 0.082344659 0.098403983
0.67114979 0.083193175 0.098393075
0.67140865 0.084041692 0.09838216
0.67166752 0.084890224 0.098371252
0.67192638 0.085738741 0.098360345
0.67218518 0.086587258 0.098349437
0.67244405 0.087435767 0.098338529
0.67270291 0.088284284 0.098327622
0.67296171 0.089132816 0.098316714
0.67322057 0.089981332 0.098305799
0.6726684 0.091385499 0.09793207
0.60037708 -0.091746107 0.093360595
0.60064161 -0.090878986 0.093349449
0.60002601 -0.089683659 0.092977345
0.60029083 -0.088815503 0.092966184
0.60055566 -0.087947346 0.092955023
0.60082048 -0.087079197 0.092943862
0.60196424 -0.086543381 0.093293712
0.6022287 -0.08567626 0.093282565
0.60249323 -0.084809139 0.093271412
0.60451365 -0.084612906 0.093982369
0.60477757 -0.083747856 0.093971245
0.60591871 -0.083220311 0.094321199
0.6070593 -0.082694821 0.094671175
0.60907584 -0.082510978 0.095382273
0.61021489 -0.081990689 0.095732331
0.61222923 -0.08181408 0.096443526
0.61336666 -0.081298932 0.096793637
0.61450338 -0.080785848 0.097143777
0.61563957 -0.080274858 0.097493947
0.6167751 -0.079765916 0.097844139
0.61790997 -0.079259031 0.098194353
0.61904418 -0.078754224 0.09854459
0.62017787 -0.078251496 0.098894872
0.62131083 -0.077750817 0.099245168
0.62156999 -0.076901264 0.099234246
0.62270206 -0.076403692 0.099584579
0.62296087 -0.075555168 0.099573672
0.62409198 -0.075060695 0.099924043
0.62435049 -0.074213214 0.09991315
0.62548065 -0.073721834 0.10026357
0.62661022 -0.073232554 0.10061402
0.62773913 -0.072745301 0.10096449
0.62886733 -0.072260126 0.10131498
0.62912464 -0.07141678 0.10130414
0.63025194 -0.070934705 0.10165468
0.6305089 -0.070092387 0.10164385
0.6325047 -0.069976769 0.10235584
0.632761 -0.069136523 0.10234503
0.63301736 -0.068296276 0.10233423
0.63327366 -0.067456022 0.10232343
0.63353002 -0.066615775 0.10231262
0.63465416 -0.066144042 0.1026633
0.63577765 -0.065674365 0.10301398
0.64817429 -0.070024334 0.1080642
0.64842558 -0.069200613 0.10805361
0.65041006 -0.06912221 0.10876607
0.65066069 -0.068300568 0.10875551
0.65091133 -0.067478925 0.10874495
0.65202761 -0.067033015 0.10909595
0.65314329 -0.066589184 0.10944698
0.65339327 -0.065769605 0.10943644
0.65364331 -0.064950019 0.1094259
0.65389335 -0.06413044 0.10941537
0.65414333 -0.063310862 0.10940483
0.6483472 -0.059817638 0.10686278
0.64859939 -0.058990825 0.10685216
0.65057784 -0.058932036 0.10756486
0.65082943 -0.058107298 0.10755426
0.65108103 -0.057282548 0.10754365
0.65133262 -0.056457799 0.10753305
0.6498605 -0.054856755 0.10679901
0.63718969 -0.048192143 0.1013623
0.64175272 -0.049300916 0.10316022
0.64803445 -0.051202539 0.10568182
0.64828765 -0.05037263 0.10567115
0.64768052 -0.049149398 0.10529869
0.64793402 -0.048318453 0.10528801
0.64818752 -0.047487505 0.10527732
0.64844102 -0.046656556 0.10526665
0.64697641 -0.045030683 0.10453226
0.64637184 -0.043799192 0.1041597
0.6423344 -0.040967539 0.10233963
0.64173234 -0.03972777 0.10196695
0.63941538 -0.037682753 0.10087045
0.63795781 -0.036034171 0.10013579
0.63907284 -0.0355924 0.10048684
0.6401872 -0.0351527 0.10083792
0.64044446 -0.034309346 0.10082708
0.64070171 -0.033466 0.10081623
0.64095896 -0.032622647 0.10080539
0.64121628 -0.0317793 0.10079455
0.64061832 -0.030526098 0.10042171
0.64429557 -0.031325269 0.10185892
0.64455187 -0.030485021 0.10184813
0.62857682 -0.021798594 0.094958492
0.62883914 -0.020938713 0.094947435
0.62910146 -0.020078821 0.094936378
0.62851036 -0.018802876 0.094563223
0.62791997 -0.017524866 0.094190061
0.62818295 -0.016662909 0.094178982
0.62759352 -0.015381809 0.093805782
0.62615263 -0.013678439 0.093070418
0.6264165 -0.01281339 0.093059301
0.62668037 -0.011948328 0.093048178
0.6269443 -0.011083279 0.093037054
0.62720817 -0.010218216 0.093025938
0.62747204 -0.0093531664 0.093014814
0.62773597 -0.0084881037 0.09300369
0.63479877 -0.011042449 0.095890403
0.63590968 -0.010614126 0.096241631
0.63617074 -0.0097583625 0.096230634
0.63728076 -0.0093331477 0.096581906
0.63754147 -0.0084784366 0.096570916
0.63695389 -0.0071911127 0.096197627
0.63721496 -0.0063353633 0.096186623
0.63662833 -0.0050449376 0.095813304
0.6368897 -0.0041881483 0.095802285
0.63715106 -0.0033313732 0.095791273
0.62894529 0.0019030103 0.092156626
0.63090265 0.0018925385 0.092870235
0.63116652 0.0027576014 0.092859112
0.63143045 0.0036226502 0.092847995
0.63338518 0.0036039362 0.093561701
0.63364846 0.0044669202 0.093550608
0.63391173 0.0053299041 0.093539514
0.634175 0.0061928881 0.09352842
0.6352824 0.0066098459 0.093879782
0.63554537 0.0074718045 0.093868703
0.63580829 0.0083337491 0.093857624
0.63607126 0.0091957077 0.093846537
0.6380201 0.0091573391 0.094560511
0.63828242 0.010017219 0.094549462
0.64022928 0.009972644 0.095263496
0.64049101 0.010830459 0.095252469
0.64159435 0.011234003 0.095604017
0.64185572 0.012090792 0.095592998
0.64211708 0.012947567 0.095581986
0.64490062 0.012432157 0.096658818
0.64516103 0.013285843 0.096647844
0.64290118 0.015517935 0.095548943
0.64400232 0.015914217 0.09590058
0.64426333 0.016769966 0.095889576
0.6445244 0.01762573 0.095878579
0.64814079 0.016627084 0.097318351
0.6484006 0.017478704 0.097307399
0.64866042 0.018330324 0.097296454
0.6497581 0.018715225 0.097648256
0.65253025 0.018162621 0.09872555
0.65362608 0.018541345 0.099077411
0.65388429 0.019387797 0.099066533
0.65497917 0.019763412 0.099418446
0.65607333 0.020136951 0.099770375
0.65633094 0.020981336 0.099759519
0.65658855 0.021825723 0.099748664
0.65517533 0.02362005 0.099012122
0.65543354 0.0244665 0.099001236
0.6556918 0.025312951 0.098990358
0.65595001 0.026159402 0.098979473
0.65704238 0.026526744 0.099331491
0.65730023 0.02737217 0.099320628
0.65755814 0.02821758 0.099309757
0.65781605 0.029063007 0.099298887
0.65807396 0.029908417 0.099288017
0.65833187 0.030753829 0.099277146
0.65858978 0.031599253 0.099266283
0.65967953 0.031958327 0.099618398
0.65993714 0.032802712 0.099607542
0.66019469 0.033647098 0.099596687
0.66045231 0.034491483 0.099585831
0.66154051 0.034845401 0.099938013
0.66179776 0.035688747 0.099927172
0.66122502 0.03702464 0.099553265
0.66148263 0.037869025 0.099542409
0.66339892 0.037724216 0.10025774
0.66365588 0.038566522 0.10024691
0.66391283 0.03940884 0.10023608
0.66416979 0.040251162 0.10022525
0.66442674 0.041093484 0.10021442
0.6646837 0.04193579 0.1002036
0.66494066 0.042778112 0.10019276
0.66519761 0.043620434 0.10018194
0.66462773 0.044965599 0.099807911
0.66571152 0.045305062 0.10016028
0.66596848 0.04614738 0.10014945
0.66622543 0.046989702 0.10013862
0.66565681 0.048339013 0.099764541
0.66591406 0.049182359 0.099753693
0.66617131 0.050025705 0.099742852
0.66642863 0.050869051 0.099732012
0.66668588 0.051712412 0.099721171
0.66694313 0.052555759 0.09971033
0.66720039 0.053399105 0.099699482
0.66828108 0.05372823 0.10005198
0.66853803 0.054570548 0.10004116
0.66879499 0.05541287 0.10003033
0.66905195 0.056255192 0.1000195
0.66848677 0.057615865 0.099645272
0.66874403 0.058459211 0.099634431
0.66900128 0.059302557 0.099623591
0.66843742 0.060667388 0.099249311
0.66869497 0.061511777 0.099238455
0.66895258 0.062356163 0.0992276
0.66921014 0.063200548 0.099216744
0.66946775 0.06404493 0.099205889
0.6697253 0.064889319 0.099195033
0.66998291 0.065733694 0.099184178
0.67024046 0.066578075 0.099173322
0.67049807 0.067422464 0.099162467
0.67075568 0.068266846 0.099151611
0.67019522 0.069643043 0.098777182
0.67045313 0.070488468 0.098766312
0.67071104 0.071333878 0.098755442
0.67096895 0.07217931 0.098744579
0.6712268 0.07302472 0.098733708
0.67066824 0.074407108 0.098359197
0.67011034 0.075791582 0.097984664
0.67036885 0.076639071 0.097973764
0.67062736 0.077486545 0.097962871
0.67088592 0.078334033 0.097951978
0.67032957 0.079723679 0.097577378
0.67058843 0.080572188 0.097566471
0.6708473 0.081420705 0.097555555
0.6711061 0.082269222 0.097544648
0.67136496 0.083117738 0.09753374
0.67162383 0.083966255 0.097522832
0.67269564 0.084266424 0.097875707
0.67295414 0.08511392 0.097864814
0.67240036 0.086511813 0.09749011
0.67265922 0.08736033 0.097479194
0.67291802 0.088208847 0.097468287
0.67317688 0.089057378 0.097457379
0.60323846 -0.092801355 0.093568362
0.60350204 -0.091937333 0.093557253
0.60112602 -0.090088956 0.092460133
0.60139054 -0.089221835 0.092448987
0.60165501 -0.088354714 0.092437834
0.60191953 -0.087487593 0.092426687
0.60218406 -0.086620472 0.092415541
0.60244858 -0.085753351 0.092404395
0.60359108 -0.085220538 0.092755325
0.60473299 -0.084689818 0.093106292
0.60587424 -0.084161147 0.093457282
0.60701483 -0.083634533 0.093808286
0.6090315 -0.08344844 0.094521448
0.61104697 -0.083266504 0.095234677
0.61218506 -0.082748167 0.095585801
0.61419827 -0.082573444 0.096299119
0.61533481 -0.082060285 0.09665031
0.61647069 -0.081549183 0.097001515
0.61760592 -0.081040144 0.097352758
0.61874056 -0.080533177 0.097704016
0.6198746 -0.080028288 0.098055318
0.62100792 -0.079525448 0.098406643
0.62214065 -0.079024687 0.098757975
0.62239951 -0.078176163 0.098747067
0.62353128 -0.077678502 0.099098451
0.6246624 -0.077182889 0.099449858
0.62492061 -0.076336443 0.099438973
0.62517887 -0.07548999 0.099428095
0.6263088 -0.074998543 0.099779569
0.62743801 -0.074509144 0.10013106
0.62769562 -0.073664762 0.1001202
0.62882394 -0.073178455 0.10047173
0.6299516 -0.072694227 0.10082329
0.63107872 -0.072212078 0.10117488
0.63133532 -0.071370795 0.10116406
0.63246143 -0.07089173 0.10151569
0.63358688 -0.070414737 0.10186733
0.63384289 -0.069575518 0.10185654
0.63409889 -0.0687363 0.10184576
0.63435495 -0.067897089 0.10183497
0.63547879 -0.067425251 0.10218668
0.63660204 -0.066955484 0.10253842
0.64726466 -0.070551828 0.10687805
0.6483832 -0.070097566 0.10722999
0.64950109 -0.069645368 0.10758197
0.65061837 -0.069195263 0.10793396
0.65086907 -0.068373621 0.1079234
0.65111971 -0.067551978 0.10791284
0.65223569 -0.067105971 0.10826489
0.65335107 -0.066662051 0.10861696
0.65360111 -0.065842472 0.10860642
0.65385109 -0.065022886 0.10859589
0.65410113 -0.064203307 0.10858534
0.65435117 -0.063383728 0.10857481
0.64855683 -0.059891149 0.10602544
0.64880908 -0.059064336 0.1060148
0.64819837 -0.057853583 0.10564145
0.64931351 -0.057410702 0.10599355
0.64956576 -0.056583889 0.10598291
0.64981794 -0.055757076 0.10597229
0.65007019 -0.054930262 0.10596166
0.64946109 -0.053714339 0.10558823
0.64971364 -0.052886494 0.10557759
0.64824492 -0.051276326 0.10484134
0.64849806 -0.050446413 0.10483067
0.64789122 -0.049223274 0.10445715
0.64814472 -0.048392333 0.10444647
0.64839822 -0.047561381 0.10443579
0.64865172 -0.046730433 0.10442511
0.64718765 -0.045104746 0.10368863
0.64658332 -0.043873347 0.10331502
0.64254719 -0.041042153 0.10148972
0.64194536 -0.039802473 0.10111599
0.64048672 -0.038159229 0.1003793
0.63817215 -0.036109336 0.099279597
0.63671631 -0.034456778 0.098542787
0.64040101 -0.035227679 0.099983826
0.64065832 -0.034384325 0.099972986
0.64177144 -0.033947643 0.10032516
0.64202839 -0.033105321 0.10031433
0.63544315 -0.028993169 0.097399205
0.64168739 -0.031010926 0.099929616
0.64194465 -0.030167572 0.099918775
0.6396389 -0.028088726 0.098818697
0.62879485 -0.021875042 0.094087653
0.62820339 -0.020601256 0.093713477
0.62846601 -0.019740336 0.093702406
0.62787563 -0.018463446 0.093328215
0.62813854 -0.017601501 0.093317129
0.62754905 -0.016321519 0.092942901
0.63207299 -0.017553847 0.094747648
0.63233465 -0.016696034 0.094736621
0.63174486 -0.015417092 0.094362393
0.63200682 -0.014558238 0.094351351
0.63141799 -0.013276177 0.093977101
0.63338137 -0.013264746 0.094692506
0.63364303 -0.012406931 0.094681479
0.63475466 -0.011975412 0.09503372
0.63501602 -0.011118623 0.095022701
0.63612664 -0.010690209 0.095374972
0.63638771 -0.0098344451 0.095363975
0.63749748 -0.009409138 0.095716298
0.6377582 -0.0085544279 0.095705308
0.63801897 -0.0076997173 0.095694318
0.63827968 -0.0068449932 0.095683329
0.64023519 -0.0068593938 0.096399076
0.6404953 -0.0060067484 0.096388116
0.64414251 -0.0069006304 0.097830735
0.64440137 -0.0060521145 0.097819827
0.64381409 -0.0047648987 0.097445503
0.6432274 -0.003475619 0.097071148
0.64348692 -0.0026250244 0.097060211
0.63275886 0.0039689862 0.092324264
0.63302243 0.0048330096 0.092313156
0.633286 0.0056970329 0.092302047
0.63439381 0.0061161621 0.092654437
0.63550097 0.0065332125 0.093006849
0.63576394 0.0073951711 0.09299577
0.63602686 0.0082571153 0.092984691
0.63797581 0.0082209958 0.093700729
0.63823813 0.0090808896 0.093689673
0.63765806 0.010391873 0.09331502
0.64044678 0.0098963771 0.094394743
0.64070851 0.010754192 0.094383717
0.64181155 0.011157828 0.094736315
0.64207292 0.012014617 0.094725296
0.64233428 0.012871393 0.094714284
0.6451171 0.012356258 0.095794253
0.64537752 0.013209943 0.095783278
0.64563793 0.014063628 0.095772304
0.64673787 0.014456912 0.096125029
0.64699799 0.015309557 0.096114069
0.6472581 0.016162217 0.096103109
0.65422678 0.013306807 0.099002086
0.65448439 0.014151192 0.09899123
0.65474194 0.014995579 0.098980375
0.65499955 0.015839964 0.098969519
0.65525711 0.01668435 0.098958664
0.65551472 0.017528737 0.098947808
0.65577227 0.018373108 0.098936953
0.65602988 0.019217493 0.098926097
0.65628743 0.02006188 0.098915242
0.65570933 0.02137907 0.098540522
0.65596724 0.022224495 0.098529652
0.65538996 0.023544794 0.098154888
0.65564817 0.024391245 0.098144002
0.65590638 0.025237696 0.098133117
0.65616459 0.026084146 0.098122239
0.65725672 0.02645158 0.098475307
0.65751463 0.027297005 0.098464437
0.65693927 0.028623499 0.098089591
0.65719748 0.02946995 0.098078713
0.6582883 0.029833253 0.098431833
0.65854621 0.030678665 0.098420963
0.65880412 0.031524092 0.098410092
0.65989363 0.031883255 0.098763257
0.66015124 0.03272764 0.098752402
0.66040879 0.033572026 0.098741546
0.66066641 0.034416411 0.098730691
0.66175437 0.034770418 0.099083923
0.66201162 0.035613764 0.099073075
0.66143912 0.036949571 0.098698124
0.66169673 0.037793957 0.098687269
0.66278344 0.038143821 0.099040553
0.6638695 0.038491633 0.099393867
0.66495496 0.038837351 0.099747203
0.66521162 0.039678644 0.099736392
0.66464031 0.041018598 0.099361375
0.66489726 0.041860905 0.099350549
0.66515422 0.042703222 0.099339716
0.66541117 0.043545544 0.09932889
0.66566813 0.044387851 0.099318065
0.66592509 0.045230173 0.099307232
0.66618204 0.046072494 0.099296406
0.666439 0.046914816 0.099285573
0.66587067 0.048264034 0.098910443
0.66612792 0.04910738 0.098899603
0.66638517 0.049950726 0.098888762
0.66664243 0.050794072 0.098877914
0.66689974 0.051637433 0.098867074
0.66715699 0.05248078 0.098856233
0.66741425 0.053324126 0.098845392
0.66849464 0.053653341 0.099198945
0.6687516 0.054495662 0.099188112
0.66900855 0.055337984 0.099177286
0.66926551 0.056180306 0.099166453
0.66870058 0.057540886 0.098791182
0.66895789 0.058384232 0.098780334
0.66921514 0.059227578 0.098769493
0.66865152 0.06059232 0.09839417
0.66890907 0.061436705 0.098383315
0.66916668 0.062281091 0.098372459
0.66942424 0.063125476 0.098361604
0.66968185 0.063969865 0.098350748
0.6699394 0.064814247 0.098339893
0.67019701 0.065658621 0.098329037
0.67045456 0.066503003 0.098318182
0.67071217 0.067347392 0.098307326
0.67096978 0.068191774 0.098296471
0.67040962 0.069567882 0.097920999
0.67066747 0.070413306 0.097910129
0.67092538 0.071258716 0.097899258
0.67118329 0.072104141 0.097888388
0.67062461 0.073485404 0.097512841
0.67088288 0.074331857 0.097501956
0.67032522 0.075716235 0.09712638
0.67058372 0.076563723 0.097115487
0.67002702 0.077951193 0.096739866
0.67028588 0.07879971 0.096728958
0.67054474 0.079648234 0.096718043
0.67080361 0.080496751 0.096707135
0.67106241 0.081345268 0.096696228
0.67132127 0.082193784 0.09668532
0.67158014 0.083042301 0.096674412
0.67183894 0.083890818 0.096663505
0.67291051 0.084191076 0.09701743
0.67316902 0.085038573 0.09700653
0.67261547 0.086436376 0.096630774
0.67368609 0.086733535 0.096984744
0.67394465 0.087581024 0.096973844
0.67339206 0.088981934 0.096598051
0.60345757 -0.09287817 0.092693329
0.60372114 -0.092014149 0.09268222
0.60134584 -0.090166055 0.091581963
0.60161036 -0.089298934 0.091570817
0.60187489 -0.088431805 0.091559671
0.60213941 -0.087564684 0.091548525
0.60328227 -0.087029718 0.091900475
0.6035465 -0.086163633 0.091889337
0.60644388 -0.086300224 0.092967585
0.60670716 -0.085437238 0.092956491
0.60784745 -0.084910542 0.093308546
0.609864 -0.084723242 0.094023816
0.61100274 -0.084201716 0.094375931
0.61214089 -0.083682254 0.094728082
0.61415422 -0.083505273 0.095443465
0.61616635 -0.083332449 0.096158907
0.61730194 -0.082821257 0.096511163
0.61843693 -0.082312129 0.096863441
0.61957133 -0.08180508 0.097215764
0.62070501 -0.081300087 0.097568102
0.62183809 -0.080797158 0.097920462
0.62297058 -0.080296293 0.09827286
0.62322909 -0.079448812 0.09826196
0.62436062 -0.078951053 0.098614395
0.62549156 -0.078455381 0.098966859
0.62662178 -0.07796175 0.099319339
0.62687939 -0.077117369 0.099308483
0.62713695 -0.076272979 0.099297628
0.62739456 -0.075428605 0.099286772
0.62852323 -0.074940138 0.099639319
0.62965125 -0.074453749 0.099991895
0.6299082 -0.073611438 0.09998107
0.63103539 -0.073128156 0.10033369
0.63216186 -0.072646931 0.10068633
0.63241816 -0.071806684 0.10067553
0.63354367 -0.071328565 0.10102821
0.63466859 -0.070852503 0.10138091
0.63579285 -0.070378512 0.10173365
0.6360482 -0.069541357 0.1017229
0.63803953 -0.069436759 0.10243922
0.63916188 -0.068968967 0.10279203
0.63941634 -0.068134919 0.10278131
0.64747375 -0.070625149 0.10604279
0.64859205 -0.070170797 0.10639579
0.64970964 -0.06971851 0.1067488
0.64996064 -0.068895832 0.10673822
0.65107739 -0.068446666 0.10709129
0.65132803 -0.067625023 0.10708072
0.65244377 -0.067178935 0.10743382
0.65355891 -0.066734917 0.10778694
0.65380889 -0.065915339 0.1077764
0.65405893 -0.065095752 0.10776586
0.65430892 -0.064276174 0.10775533
0.64851427 -0.060791474 0.10519872
0.64876646 -0.059964661 0.10518809
0.6490187 -0.059137847 0.10517745
0.65013349 -0.058694866 0.1055306
0.65038538 -0.057869084 0.10551998
0.64977539 -0.0566574 0.10514557
0.64744264 -0.054669775 0.10404352
0.64769584 -0.053839859 0.10403285
0.64967102 -0.053787943 0.10474984
0.6499235 -0.052960098 0.10473919
0.64845532 -0.051350113 0.10400084
0.64870852 -0.0505202 0.10399017
0.64810193 -0.049297154 0.10361562
0.64921486 -0.048860371 0.10396884
0.649468 -0.048030455 0.10395817
0.64972121 -0.047200538 0.1039475
0.64997435 -0.046370625 0.10393682
0.6407876 -0.04115938 0.099922694
0.64104426 -0.040318102 0.099911876
0.64130092 -0.039476812 0.099901065
0.64070028 -0.038234115 0.099526249
0.63838655 -0.036184497 0.098423414
0.63693118 -0.034532126 0.097684503
0.63633347 -0.033280142 0.097309574
0.64087212 -0.034459304 0.099118888
0.64198506 -0.034022532 0.099472106
0.64224201 -0.033180211 0.09946128
0.63822383 -0.030294701 0.097630031
0.6419012 -0.031085905 0.099075526
0.64215845 -0.030242551 0.099064678
0.62875056 -0.022811379 0.093227863
0.62815905 -0.021538716 0.092852652
0.62842172 -0.020677797 0.092841588
0.62783122 -0.019402038 0.092466354
0.62809414 -0.018540079 0.092455275
0.62750459 -0.017261229 0.092080012
0.62691569 -0.0159803 0.091704711
0.63229048 -0.017630113 0.093878902
0.63255215 -0.0167723 0.093867876
0.6319626 -0.01549345 0.093492605
0.63222462 -0.014634595 0.093481563
0.63418782 -0.01462194 0.094199061
0.63444918 -0.013765152 0.094188042
0.63471055 -0.012908362 0.09417703
0.63497192 -0.012051587 0.094166018
0.63947999 -0.013331005 0.095976606
0.63973981 -0.012479385 0.095965661
0.63999957 -0.011627765 0.095954709
0.63771421 -0.0094851283 0.094850689
0.63882303 -0.009061778 0.09520407
0.63908345 -0.0082080923 0.095193096
0.63934386 -0.0073544076 0.095182121
0.64045143 -0.0069352007 0.095535561
0.64071149 -0.0060825553 0.095524602
0.64435768 -0.0069760699 0.0969714
0.64461648 -0.006127554 0.096960492
0.6440295 -0.0048404303 0.096585125
0.64428866 -0.0039908895 0.096574202
0.64370257 -0.0027006476 0.09619879
0.64311707 -0.0014083387 0.095823333
0.63493067 0.0038707166 0.092167154
0.63519365 0.0047326749 0.092156075
0.63545656 0.0055946195 0.092144996
0.63571954 0.0064565782 0.092133909
0.63598245 0.0073185368 0.09212283
0.63624543 0.0081804814 0.092111751
0.63819385 0.0081445463 0.092829891
0.63845617 0.0090044392 0.092818834
0.63871849 0.0098643191 0.092807785
0.63982254 0.010272162 0.093161359
0.640926 0.010677926 0.093514971
0.64371115 0.010173406 0.094597951
0.64565355 0.010117834 0.095316328
0.64591366 0.010970495 0.095305361
0.64533353 0.01228036 0.094929695
0.645594 0.013134045 0.09491872
0.64585441 0.013987729 0.094907746
0.64695406 0.014381104 0.095261514
0.64721417 0.01523375 0.095250554
0.64747429 0.016086409 0.095239595
0.65444088 0.013231735 0.098146938
0.65469849 0.01407612 0.098136082
0.65495604 0.014920507 0.098125227
0.65521365 0.015764892 0.098114371
0.65547121 0.016609278 0.098103516
0.65572882 0.017453665 0.09809266
0.65598637 0.018298035 0.098081805
0.65624398 0.019142421 0.098070949
0.65650159 0.019986808 0.098060094
0.65592366 0.021303907 0.097684331
0.65618157 0.022149332 0.097673461
0.6556046 0.023469539 0.097297654
0.65586281 0.024315991 0.097286768
0.65612102 0.02516244 0.09727589
0.65637922 0.026008891 0.097265005
0.65747106 0.026376417 0.097619116
0.65772897 0.027221842 0.097608253
0.6571539 0.028548244 0.097232364
0.65824479 0.028912678 0.097586513
0.6585027 0.02975809 0.097575642
0.65876061 0.030603502 0.097564772
0.65901846 0.031448927 0.097553909
0.66010773 0.031808183 0.097908117
0.66036534 0.032652568 0.097897261
0.66228437 0.032520525 0.098616615
0.66254133 0.033362847 0.098605789
0.66196817 0.034695439 0.098229825
0.66222543 0.035538785 0.098218985
0.66165322 0.036874499 0.097842984
0.66191083 0.037718885 0.097832128
0.66299725 0.038068838 0.098186456
0.66408306 0.038416743 0.098540813
0.66516829 0.038762555 0.098895207
0.66542488 0.039603848 0.098884389
0.66568154 0.04044513 0.098873571
0.6659382 0.041286413 0.09886276
0.6661948 0.042127695 0.098851942
0.66645145 0.042968977 0.098841123
0.66588175 0.044312965 0.098465011
0.66613871 0.045155283 0.098454185
0.6663956 0.045997605 0.098443352
0.66665256 0.046839926 0.098432526
0.66608447 0.048189051 0.098056346
0.66634172 0.049032398 0.098045506
0.66659904 0.049875747 0.098034665
0.66685629 0.050719094 0.098023824
0.66711354 0.051562451 0.098012984
0.6673708 0.052405801 0.098002136
0.66762811 0.053249147 0.097991295
0.66870821 0.053578451 0.098345891
0.66896516 0.054420773 0.098335065
0.66922212 0.055263095 0.098324232
0.66865718 0.056622561 0.097947925
0.66891444 0.057465907 0.097937085
0.66917169 0.058309253 0.097926244
0.66942894 0.059152599 0.097915404
0.66886562 0.060517248 0.09753903
0.66912317 0.061361633 0.097528175
0.66938078 0.062206019 0.097517319
0.66963834 0.063050404 0.097506464
0.66989595 0.063894793 0.097495608
0.6701535 0.064739175 0.097484753
0.67041111 0.065583549 0.097473897
0.67066866 0.066427931 0.097463042
0.67010814 0.067801878 0.097086549
0.67036605 0.068647303 0.097075678
0.67062396 0.06949272 0.097064808
0.67088187 0.070338145 0.097053938
0.67113978 0.071183555 0.097043067
0.67058104 0.0725637 0.096666493
0.67002302 0.073945917 0.096289888
0.67028159 0.074793413 0.096278995
0.67054009 0.075640887 0.096268103
0.66998333 0.077027239 0.095891438
0.67024219 0.077875748 0.095880531
0.67050105 0.078724265 0.095869623
0.67075986 0.079572797 0.095858715
0.67101872 0.080421314 0.095847808
0.67127758 0.08126983 0.0958369
0.67153645 0.082118347 0.095825993
0.67179525 0.082966857 0.095815077
0.67205411 0.083815373 0.09580417
0.67231297 0.084663905 0.095793262
0.67338395 0.084963225 0.096148252
0.67364246 0.085810699 0.096137352
0.67390096 0.086658187 0.09612646
0.67415953 0.087505676 0.096115567
0.60183024 -0.089376025 0.090692647
0.60209477 -0.088508897 0.090681501
0.60235929 -0.087641776 0.090670355
0.60438001 -0.087438799 0.091387503
0.60464388 -0.086573742 0.091376387
0.60754013 -0.086711086 0.092457771
0.60868019 -0.086184286 0.092810877
0.60981971 -0.085659586 0.093164027
0.61095852 -0.085136928 0.093517177
0.61297292 -0.084954605 0.094234586
0.61411011 -0.08443711 0.094587818
0.61524683 -0.083921708 0.094941072
0.61725801 -0.083749719 0.095658615
0.61839306 -0.083239466 0.096011922
0.61952752 -0.082731284 0.096365288
0.62066126 -0.082225174 0.096718654
0.6217944 -0.08172112 0.097072043
0.62292695 -0.081219129 0.097425468
0.62405878 -0.08071921 0.097778916
0.62519014 -0.080221385 0.098132409
0.62632072 -0.079725593 0.098485902
0.6274507 -0.079231881 0.098839439
0.62770796 -0.078388527 0.098828599
0.62796527 -0.077545173 0.098817751
0.62822253 -0.07670182 0.09880691
0.62847978 -0.075858474 0.09879607
0.62960792 -0.07537096 0.099149682
0.6307354 -0.074885525 0.099503323
0.63186222 -0.074402139 0.099856988
0.63298845 -0.073920824 0.10021067
0.63324445 -0.073081613 0.10019989
0.63436973 -0.07260339 0.10055361
0.63462543 -0.071765207 0.10054284
0.6357497 -0.071290091 0.1008966
0.63687348 -0.070817068 0.10125041
0.63886452 -0.070711218 0.1019688
0.63911891 -0.06987717 0.10195807
0.64024073 -0.069410317 0.10231195
0.64136189 -0.068945549 0.10266585
0.64248246 -0.068482846 0.10301979
0.64880091 -0.070244037 0.10556157
0.64991826 -0.069791652 0.10591564
0.65016925 -0.068968974 0.10590506
0.65128571 -0.068519719 0.10625917
0.65153635 -0.067698076 0.10624861
0.65265185 -0.067251891 0.10660274
0.65290219 -0.066431277 0.10659219
0.65401673 -0.065988205 0.10694638
0.65426672 -0.065168619 0.10693584
0.64847165 -0.061691795 0.104372
0.6487239 -0.060864981 0.10436138
0.64897615 -0.060038168 0.10435075
0.64922833 -0.059211355 0.10434011
0.65034288 -0.058768284 0.10469429
0.65059477 -0.057942502 0.10468367
0.6473999 -0.055573478 0.10321371
0.6476531 -0.054743558 0.10320304
0.64790624 -0.053913642 0.10319237
0.64815944 -0.053083733 0.1031817
0.64841259 -0.052253813 0.10317103
0.64866579 -0.051423896 0.10316036
0.64891893 -0.050593987 0.10314969
0.64831263 -0.04937103 0.10277408
0.64942527 -0.048934158 0.10312835
0.64967847 -0.048104241 0.10311768
0.64993161 -0.047274321 0.10310701
0.65018481 -0.046444412 0.10309634
0.63756931 -0.039641328 0.097610705
0.64125758 -0.040392898 0.09905988
0.64151424 -0.039551608 0.099049062
0.64091384 -0.038309004 0.09867321
0.64031416 -0.037064336 0.098297328
0.63714606 -0.034607474 0.096826218
0.63654858 -0.033355579 0.096450247
0.63680744 -0.032507062 0.096439339
0.63877708 -0.032471489 0.097158641
0.63903528 -0.03162504 0.097147755
0.63843876 -0.030370049 0.096771739
0.64296949 -0.031570464 0.098586574
0.64322644 -0.03072815 0.098575749
0.6289686 -0.02288783 0.092357017
0.62837738 -0.021615257 0.091980763
0.62778682 -0.020340631 0.091604501
0.62804979 -0.019478671 0.091593422
0.62746018 -0.01820094 0.091217123
0.62687123 -0.016921142 0.090840794
0.6271348 -0.016057117 0.090829685
0.62314034 -0.013098686 0.088992268
0.63191837 -0.016428662 0.092633851
0.63218039 -0.015569808 0.092622809
0.63244236 -0.014710953 0.092611767
0.63440502 -0.014698115 0.093331359
0.63466638 -0.013841326 0.09332034
0.63492775 -0.012984537 0.093309328
0.63518912 -0.012127762 0.093298316
0.63969594 -0.01340672 0.095114142
0.6399557 -0.0125551 0.095103197
0.64021552 -0.01170348 0.095092244
0.63369024 -0.0074098636 0.092158034
0.64073509 -0.010000254 0.095070347
0.64099491 -0.009148634 0.095059402
0.6404075 -0.0078636669 0.094683006
0.64659578 -0.0100517 0.097230293
0.64685369 -0.0092062894 0.097219422
0.64711159 -0.0083608637 0.097208552
0.63891011 -0.0031405974 0.09354265
0.64424491 -0.0049159615 0.095724754
0.64450407 -0.0040664207 0.095713831
0.64391822 -0.0027762703 0.095337369
0.64333302 -0.0014840534 0.094960861
0.63514924 0.0037940829 0.091294222
0.63625622 0.0042123562 0.09164872
0.63651884 0.0050732754 0.091637649
0.63678145 0.0059341942 0.091626585
0.63704413 0.0067951134 0.091615513
0.63730675 0.0076560327 0.091604449
0.63756937 0.0085169515 0.091593377
0.63783199 0.0093778707 0.091582313
0.63893652 0.0097878687 0.091936938
0.64004034 0.010195804 0.092291564
0.6403023 0.011054657 0.092280522
0.64392787 0.010097415 0.093732342
0.64586973 0.010042028 0.094452806
0.64612985 0.010894688 0.094441846
0.64555001 0.012204461 0.094065137
0.64581043 0.013058146 0.094054163
0.64607084 0.013911831 0.094043188
0.64717025 0.014305297 0.094397999
0.64743036 0.015157943 0.09438704
0.64769047 0.016010603 0.094376072
0.64795059 0.016863247 0.094365112
0.65323704 0.014929761 0.096549235
0.65433276 0.015310822 0.096904226
0.65542775 0.01568982 0.097259231
0.65568531 0.016534206 0.097248375
0.65594292 0.017378593 0.09723752
0.65620047 0.018222963 0.097226664
0.65645808 0.019067349 0.097215809
0.65671569 0.019911736 0.097204953
0.65613806 0.021228744 0.096828148
0.65639597 0.022074169 0.096817277
0.65581924 0.023394283 0.09644042
0.65607744 0.024240734 0.096429534
0.65633565 0.025087185 0.096418649
0.65659386 0.025933636 0.096407771
0.65685207 0.026780086 0.096396886
0.65711027 0.027626537 0.096386008
0.65736848 0.028472988 0.096375123
0.65845913 0.028837515 0.096730322
0.65871704 0.029682927 0.096719459
0.65814316 0.03101234 0.096342474
0.65840137 0.031858791 0.096331596
0.65865958 0.03270524 0.096320711
0.65974861 0.0330646 0.096675985
0.66249794 0.032445639 0.097763576
0.66275489 0.033287961 0.097752742
0.66218203 0.03462046 0.097375736
0.6632688 0.034972586 0.097731084
0.66352576 0.035814907 0.097720258
0.66378272 0.036657229 0.097709425
0.66321111 0.037993859 0.097332366
0.66429663 0.038341857 0.097687766
0.66455358 0.039184179 0.09767694
0.66563821 0.039529052 0.098032385
0.66589487 0.040370334 0.098021574
0.66615152 0.041211616 0.098010756
0.66640812 0.042052899 0.097999938
0.66666478 0.042894181 0.097989127
0.66609532 0.044238076 0.097611964
0.66635227 0.045080397 0.097601138
0.66660923 0.045922719 0.097590305
0.66686618 0.046765041 0.097579479
0.66712314 0.047607347 0.097568654
0.66655558 0.048957419 0.097191416
0.66681284 0.049800765 0.097180568
0.66707015 0.050644111 0.097169727
0.6673274 0.051487472 0.097158886
0.66758466 0.052330818 0.097148046
0.66784191 0.053174164 0.097137205
0.66892177 0.053503565 0.097492844
0.66917872 0.054345887 0.097482018
0.66943568 0.055188209 0.097471192
0.66887099 0.056547578 0.097093835
0.6691283 0.057390925 0.097082987
0.66938555 0.058234271 0.097072147
0.66964281 0.059077617 0.097061306
0.66907972 0.060442176 0.096683882
0.66933727 0.061286561 0.096673027
0.66959488 0.062130947 0.096662171
0.66985244 0.062975332 0.096651316
0.67011005 0.063819721 0.09664046
0.6703676 0.064664103 0.096629605
0.67062521 0.065508477 0.096618749
0.67088282 0.066352859 0.096607894
0.67114037 0.067197248 0.096597038
0.67139798 0.06804163 0.096586183
0.67165554 0.068886019 0.096575327
0.67109621 0.070262976 0.096197754
0.67053747 0.071641989 0.095820136
0.67079568 0.072488442 0.095809251
0.6702379 0.073870569 0.095431603
0.67049646 0.074718058 0.095420711
0.66993964 0.076103278 0.095043026
0.6701985 0.076951794 0.095032118
0.66964263 0.078340106 0.094654396
0.67071617 0.078648828 0.095010303
0.67097503 0.07949736 0.094999395
0.67204762 0.07980296 0.095355339
0.67230618 0.080650449 0.095344439
0.67256469 0.08149793 0.095333546
0.67282325 0.082345419 0.095322646
0.67308176 0.083192907 0.095311753
0.67334026 0.084040381 0.095300861
0.67359883 0.084887877 0.095289961
0.67385733 0.085735351 0.095279068
0.6741159 0.086582839 0.095268175
0.60029256 -0.088795379 0.089084186
0.60231465 -0.088585995 0.089803331
0.60257918 -0.087718874 0.089792185
0.60459936 -0.087515712 0.090511426
0.60661823 -0.087316662 0.09123072
0.6086359 -0.087121747 0.091950059
0.60977542 -0.086595915 0.092304237
0.61091429 -0.086072139 0.092658423
0.61205256 -0.08555042 0.093012638
0.61494207 -0.085707135 0.094097435
0.61607838 -0.085191622 0.094451733
0.61721408 -0.084678173 0.094806068
0.61834919 -0.084166795 0.09516041
0.62035835 -0.083999805 0.095880121
0.62149191 -0.083493598 0.09623453
0.62175071 -0.082645074 0.096223623
0.62288326 -0.082141966 0.096578084
0.62401521 -0.081640922 0.09693256
0.62514657 -0.081141964 0.097287081
0.62627727 -0.080645047 0.097641625
0.62740731 -0.080150202 0.097996183
0.6285367 -0.079657428 0.098350778
0.62879366 -0.07881511 0.098339945
0.62992215 -0.07832545 0.098694585
0.63017881 -0.077484168 0.098683767
0.63043547 -0.076642886 0.098672949
0.63156265 -0.076157339 0.099027634
0.63268924 -0.075673871 0.099382341
0.63294524 -0.07483466 0.099371552
0.63407087 -0.074354284 0.099726297
0.63519585 -0.073875971 0.10008108
0.63545126 -0.073038816 0.10007031
0.63657534 -0.072563633 0.10042515
0.63683039 -0.071727514 0.1004144
0.63795352 -0.071255408 0.10076924
0.63907599 -0.070785373 0.10112412
0.64019781 -0.070317395 0.10147903
0.64045191 -0.069484375 0.10146832
0.64157283 -0.069019519 0.10182326
0.64269316 -0.068556726 0.10217825
0.64381278 -0.068095982 0.10253325
0.64406598 -0.067266069 0.10252258
0.65037781 -0.069042116 0.10507189
0.65149403 -0.068592772 0.10542705
0.65174472 -0.067771129 0.10541649
0.65199536 -0.066949479 0.10540593
0.64878893 -0.064622164 0.10393231
0.65422451 -0.066061072 0.10611636
0.65447456 -0.065241486 0.10610582
0.64868134 -0.061765306 0.10353465
0.64979655 -0.061319042 0.10388984
0.65004843 -0.060493261 0.10387923
0.65030038 -0.059667479 0.10386861
0.65055227 -0.058841702 0.10385799
0.64735717 -0.056477174 0.10238388
0.64761037 -0.055647265 0.10237321
0.64786351 -0.054817345 0.10236254
0.64811671 -0.053987429 0.10235187
0.64836985 -0.053157516 0.1023412
0.64862305 -0.052327599 0.10233054
0.64887619 -0.051497683 0.10231987
0.64912939 -0.05066777 0.1023092
0.64852333 -0.049444906 0.10193255
0.64963573 -0.049007945 0.10228786
0.64988887 -0.048178025 0.10227719
0.64928377 -0.046952065 0.1019005
0.64953727 -0.046121113 0.10188982
0.6386413 -0.040114608 0.097120561
0.64318556 -0.041265991 0.098939992
0.64429855 -0.040826954 0.099295259
0.64455426 -0.039988771 0.099284485
0.64224082 -0.03794384 0.098175429
0.64249748 -0.037102554 0.098164618
0.63334072 -0.031813737 0.094126426
0.6312955 -0.028889259 0.093006045
0.63241142 -0.028440941 0.093361214
0.63267219 -0.027586225 0.093350224
0.64318305 -0.03164535 0.09773352
0.64344001 -0.030803038 0.097722694
0.62918663 -0.02296428 0.091486178
0.62859565 -0.021691799 0.091108881
0.62800539 -0.020417264 0.090731569
0.62741572 -0.019140663 0.090354234
0.6268267 -0.017861983 0.08997687
0.62623835 -0.016581237 0.089599483
0.62309557 -0.014045157 0.08812318
0.62591469 -0.014432323 0.089210927
