# .PCD v0.7 - Point Cloud Data file format
VERSION 0.7
FIELDS x y z
SIZE 4 4 4
TYPE F F F
COUNT 1 1 1
WIDTH 1348
HEIGHT 1
VIEWPOINT 0 0 0 1 0 0 0
POINTS 1348
DATA ascii
0.55260456 -0.0067480137 0.055783559
0.55217636 -0.0072977501 0.055774808
0.55174822 -0.0078474926 0.055766057
0.55132002 -0.008397229 0.055757307
0.55089188 -0.0089469654 0.055748556
0.55046368 -0.0094967019 0.055739805
0.55003554 -0.010046444 0.055731054
0.54960734 -0.01059618 0.055722304
0.5491792 -0.011145917 0.055713553
0.548751 -0.011695653 0.055704802
0.54832286 -0.012245395 0.055696052
0.54789466 -0.012795132 0.055687301
0.54746652 -0.013344868 0.05567855
0.54703832 -0.013894605 0.055669799
0.54661018 -0.01444434 0.055661049
0.54618198 -0.014994083 0.055652294
0.54575384 -0.015543819 0.055643544
0.54532564 -0.016093556 0.055634793
0.5448975 -0.016643291 0.055626042
0.5444693 -0.017193034 0.055617291
0.54404116 -0.01774277 0.055608541
0.54361296 -0.018292507 0.05559979
0.54318482 -0.018842243 0.055591039
0.54275662 -0.019391986 0.055582289
0.54232848 -0.019941721 0.055573538
0.54190028 -0.020491458 0.055564787
0.54147214 -0.021041194 0.055556037
0.54104394 -0.021590931 0.055547286
0.5406158 -0.022140672 0.055538535
0.5401876 -0.02269041 0.055529784
0.53975946 -0.023240145 0.055521034
0.53933126 -0.023789883 0.055512283
0.53890312 -0.024339624 0.055503532
0.53847492 -0.024889361 0.055494782
0.53804678 -0.025439097 0.055486031
0.53761858 -0.025988834 0.05547728
0.53719044 -0.026538575 0.055468529
0.53676224 -0.027088312 0.055459779
0.5363341 -0.027638048 0.055451028
0.5359059 -0.028187785 0.055442277
0.53547776 -0.028737521 0.055433527
0.53504956 -0.029287264 0.055424772
0.53526604 -0.030541884 0.05507721
0.53483719 -0.031092478 0.055068444
0.53440833 -0.031643067 0.055059679
0.53397954 -0.032193653 0.055050917
0.53355068 -0.03274424 0.055042151
0.53312188 -0.03329483 0.055033386
0.53269303 -0.033845417 0.055024624
0.53226417 -0.034396008 0.055015858
0.53183538 -0.034946594 0.055007093
0.53140652 -0.035497181 0.054998331
0.53097767 -0.036047772 0.054989565
0.53054887 -0.036598366 0.0549808
0.53075671 -0.037864052 0.054633059
0.5303272 -0.038415492 0.054624278
0.52989769 -0.038966931 0.054615501
0.53010291 -0.040236052 0.054267682
0.53030682 -0.041506842 0.053919859
0.52987599 -0.042059984 0.053911053
0.52944517 -0.04261313 0.053902246
0.52901435 -0.043166272 0.053893443
0.52858353 -0.043719411 0.053884637
0.5281527 -0.044272553 0.053875834
0.5283519 -0.045549296 0.053527914
0.52792042 -0.046103287 0.053519096
0.52748895 -0.046657283 0.053510275
0.52705747 -0.047211275 0.053501457
0.52662599 -0.04776527 0.053492639
0.52619451 -0.048319265 0.053483821
0.52576303 -0.048873246 0.053475
0.52533156 -0.049427241 0.053466182
0.52490002 -0.049981236 0.053457364
0.52446854 -0.050535232 0.053448547
0.52466047 -0.051821344 0.053100478
0.52422833 -0.052376185 0.053091649
0.52441835 -0.053664878 0.052743517
0.52398551 -0.054220576 0.052734669
0.52355272 -0.054776274 0.052725825
0.52311993 -0.05533196 0.052716978
0.52268708 -0.055887658 0.052708134
0.52225429 -0.05644336 0.052699286
0.5218215 -0.056999046 0.052690443
0.52200609 -0.05829452 0.052342225
0.52157265 -0.058851063 0.052333362
0.52175528 -0.060149085 0.051985107
0.52132118 -0.060706489 0.051976234
0.52150184 -0.062007062 0.051627938
0.52106702 -0.062565312 0.051619049
0.52063221 -0.063123554 0.051610164
0.52019739 -0.063681819 0.051601276
0.52037477 -0.064986639 0.051252913
0.5199393 -0.065545745 0.051244013
0.52011472 -0.066853166 0.050895583
0.51967859 -0.067413121 0.050886668
0.51985198 -0.068723053 0.050538223
0.5194152 -0.06928385 0.050529294
0.51958656 -0.070596345 0.050180808
0.51975662 -0.071910538 0.049832292
0.51992542 -0.073226452 0.049483728
0.52009279 -0.07454405 0.04913516
0.5202589 -0.075863346 0.048786562
0.52102852 -0.0779403 0.048098311
0.52058709 -0.078507051 0.048089288
0.52074921 -0.079831496 0.04774059
0.52091002 -0.081157595 0.047391884
0.52106947 -0.0824854 0.047043152
0.5212276 -0.083814919 0.046694394
0.52138436 -0.085146137 0.046345606
0.52153993 -0.086479083 0.045996774
0.52169406 -0.087813698 0.045647934
0.52124798 -0.088386409 0.045638815
0.52140015 -0.08972358 0.045289934
0.52155101 -0.091062449 0.04494103
0.52170056 -0.092403062 0.044592071
0.52184874 -0.093745336 0.044243108
0.5219956 -0.095089309 0.04389412
0.5221411 -0.096434996 0.043545105
0.52228534 -0.097782373 0.04319606
0.52242827 -0.099131495 0.042846967
0.52256984 -0.10048228 0.04249787
0.52271003 -0.10183477 0.042148743
0.52284896 -0.10318896 0.041799594
0.52298659 -0.10454488 0.041450392
0.52312285 -0.10590247 0.041101187
0.52325773 -0.10726178 0.040751953
0.52339137 -0.10862277 0.040402692
0.52470022 -0.11153995 0.03937345
0.52541751 -0.11368412 0.03868413
0.52613217 -0.11583173 0.037994727
0.52684408 -0.11798271 0.037305299
0.52872467 -0.12169837 0.035935748
0.53293991 -0.12854677 0.033205926
0.53363866 -0.13071479 0.032516226
0.53550202 -0.13445257 0.031146323
0.53619409 -0.13662907 0.030456487
0.53688353 -0.13880903 0.029766575
0.53698862 -0.14020663 0.029416732
0.53651142 -0.14081933 0.02940698
0.53603423 -0.14143205 0.029397227
0.53613663 -0.14283304 0.029047329
0.53507978 -0.14265747 0.029377719
0.62185663 0.019778175 0.042082597
0.61993635 0.020376446 0.042749323
0.61875045 0.020385852 0.043078098
0.6182971 0.019803777 0.04306883
0.61784375 0.019221703 0.043059565
0.61666059 0.01923448 0.04338837
0.6162079 0.018653257 0.043379117
0.6157552 0.018072031 0.043369867
0.61457467 0.018088214 0.043698728
0.61339545 0.018106097 0.044027612
0.61294413 0.017526574 0.044018388
0.61249274 0.016947053 0.044009164
0.61131614 0.016968375 0.044338126
0.61014092 0.016991364 0.044667095
0.6096909 0.016413543 0.044657897
0.60924083 0.015835723 0.044648699
0.60806829 0.015862117 0.044977721
0.60761887 0.015285148 0.044968534
0.60572714 0.015920009 0.045635846
0.60455847 0.015951544 0.045964975
0.60411108 0.015377128 0.045955829
0.60294449 0.01541118 0.04628497
0.60249776 0.014837614 0.046275843
0.60133314 0.014874219 0.046605028
0.60088706 0.014301505 0.046595909
0.59972447 0.014340663 0.046925139
0.59927905 0.0137688 0.046916034
0.59811836 0.013810546 0.04724532
0.59767359 0.013239534 0.04723623
0.59580106 0.013899073 0.047903936
0.59535766 0.013329764 0.047894873
0.59491426 0.012760456 0.047885809
0.5944708 0.012191144 0.047876745
0.59331614 0.012240513 0.048206136
0.59287339 0.011672056 0.048197087
0.5917207 0.011723978 0.048526514
0.59056932 0.011777634 0.048855994
0.59012789 0.011210877 0.048846971
0.58968645 0.010644118 0.048837949
0.58853775 0.010701151 0.049167458
0.58739036 0.010759881 0.049496997
0.58695024 0.010194825 0.049488001
0.58580488 0.01025611 0.049817581
0.58536541 0.0096919052 0.049808599
0.58422202 0.0097557427 0.050138216
0.58378327 0.0091923904 0.05012925
0.58264178 0.0092588142 0.05045893
0.58220369 0.0086963102 0.050449975
0.58106422 0.0087652551 0.050779674
0.57992613 0.0088359006 0.051109403
0.57948935 0.0082751 0.051100474
0.57835323 0.0083482983 0.05143024
0.5779171 0.0077883466 0.051421329
0.57678294 0.0078641335 0.051751159
0.57634747 0.0073050335 0.051742259
0.57521534 0.0073833382 0.052072108
0.57478052 0.0068250904 0.052063223
0.57434577 0.0062668426 0.052054334
0.57321626 0.0063485466 0.052384235
0.57208806 0.0064319591 0.052714165
0.57165462 0.0058754114 0.052705307
0.57052845 0.0059613762 0.053035278
0.57009566 0.0054056807 0.053026434
0.56966281 0.0048499852 0.053017586
0.56853926 0.0049393876 0.053347636
0.56810713 0.0043845437 0.053338803
0.56767499 0.0038296999 0.053329971
0.5672428 0.0032748561 0.053321138
0.56681067 0.0027200123 0.053312305
0.56569111 0.0028144864 0.053642411
0.56525964 0.0022604915 0.053633593
0.56482816 0.0017064993 0.053624772
0.56439668 0.0011525102 0.053615954
0.56328046 0.0012512333 0.05394613
0.56284964 0.00069809589 0.053937323
0.56241882 0.00014495256 0.053928521
0.56130522 0.0002470827 0.054258749
0.56087506 -0.00030520887 0.054249957
0.56044489 -0.00085750048 0.054241166
0.56001472 -0.0014097862 0.054232374
0.55958462 -0.0019620778 0.054223582
0.55847496 -0.0018548088 0.054553911
0.55804545 -0.0024062486 0.054545134
0.55761594 -0.0029576884 0.054536358
0.55718648 -0.0035091282 0.054527577
0.55675697 -0.0040605683 0.0545188
0.55632746 -0.0046120081 0.054510023
0.55522251 -0.004498817 0.054840427
0.55479366 -0.0050494052 0.054831661
0.55436486 -0.0055999933 0.054822899
0.553936 -0.0061505814 0.054814134
0.55350715 -0.0067011695 0.054805368
0.55307835 -0.0072517577 0.054796606
0.5526495 -0.0078023453 0.054787841
0.5522207 -0.0083529335 0.054779075
0.55179185 -0.008903522 0.054770313
0.55136299 -0.0094541153 0.054761548
0.5509342 -0.010004704 0.054752782
0.55050534 -0.010555292 0.05474402
0.55007648 -0.01110588 0.054735254
0.54964769 -0.011656468 0.054726489
0.54921883 -0.012207056 0.054717727
0.54879004 -0.012757644 0.054708961
0.54836118 -0.013308233 0.054700196
0.54793233 -0.01385882 0.054691434
0.54750353 -0.014409409 0.054682668
0.54707468 -0.014960002 0.054673903
0.54664582 -0.015510591 0.054665141
0.54621702 -0.016061179 0.054656375
0.54578817 -0.016611766 0.05464761
0.54535937 -0.017162355 0.054638844
0.54427093 -0.017027888 0.054969586
0.54384279 -0.017577624 0.054960836
0.54341459 -0.018127359 0.054952085
0.54298645 -0.018677097 0.054943334
0.54255825 -0.01922684 0.054934584
0.54213011 -0.019776575 0.054925833
0.54170191 -0.020326311 0.054917082
0.54127377 -0.020876048 0.054908331
0.54084557 -0.021425784 0.054899581
0.54041743 -0.021975527 0.05489083
0.53998923 -0.022525262 0.054882079
0.53956109 -0.023074999 0.054873329
0.53913289 -0.023624735 0.054864578
0.53870475 -0.024174478 0.054855827
0.53827655 -0.024724213 0.054847077
0.53784841 -0.025273951 0.054838326
0.53742021 -0.025823686 0.054829575
0.53699207 -0.026373429 0.054820824
0.53656387 -0.026923165 0.054812074
0.53613573 -0.027472902 0.054803323
0.53570753 -0.028022638 0.054794572
0.53527939 -0.028572375 0.054785818
0.53485119 -0.029122116 0.054777067
0.53506738 -0.030376481 0.054428499
0.53463852 -0.030927075 0.054419737
0.53420967 -0.031477664 0.054410972
0.53378087 -0.03202825 0.054402206
0.53335202 -0.032578841 0.054393444
0.53292322 -0.033129428 0.054384679
0.53249437 -0.033680014 0.054375913
0.53206551 -0.034230605 0.054367151
0.53163671 -0.034781191 0.054358386
0.53120786 -0.035331778 0.05434962
0.53077906 -0.035882369 0.054340858
0.5309872 -0.037146952 0.053992122
0.53055775 -0.037698392 0.053983346
0.53012824 -0.038249832 0.053974569
0.53033382 -0.039517846 0.053625759
0.53053802 -0.040787537 0.053276945
0.5301072 -0.041340671 0.053268142
0.52967638 -0.041893817 0.053259335
0.52924556 -0.04244696 0.053250533
0.52881473 -0.043000102 0.053241726
0.52838391 -0.043553241 0.053232919
0.52795309 -0.044106383 0.053224117
0.52815205 -0.045382868 0.052875195
0.52772057 -0.045936864 0.052866373
0.52728909 -0.046490859 0.052857555
0.52685755 -0.047044847 0.052848738
0.52642608 -0.047598843 0.05283992
0.5259946 -0.048152838 0.052831098
0.52556312 -0.048706822 0.052822281
0.52513164 -0.049260817 0.052813463
0.52470016 -0.049814813 0.052804645
0.52489245 -0.051099822 0.052455589
0.52446032 -0.051654663 0.052446757
0.52465063 -0.052942254 0.052097637
0.52421784 -0.05349794 0.052088793
0.523785 -0.054053638 0.052079946
0.52335221 -0.05460934 0.052071102
0.52291942 -0.055165026 0.052062254
0.52248657 -0.055720724 0.052053411
0.52267224 -0.057014238 0.051704217
0.52223879 -0.057570782 0.051695358
0.52180529 -0.058127329 0.051686496
0.52198833 -0.059424248 0.05133725
0.52155417 -0.059981637 0.051328376
0.52173519 -0.061281111 0.050979093
0.52130038 -0.061839357 0.050970204
0.52086562 -0.062397607 0.050961319
0.5204308 -0.062955856 0.050952435
0.52060848 -0.064259589 0.050603077
0.52017307 -0.06481868 0.050594177
0.52034879 -0.066124998 0.05024476
0.51991266 -0.066684954 0.050235845
0.52008641 -0.06799379 0.049886409
0.51964962 -0.068554588 0.049877483
0.51982135 -0.069865964 0.049528003
0.51999176 -0.071179055 0.0491785
0.52016091 -0.072493866 0.048828948
0.5203287 -0.073810346 0.048479389
0.51988924 -0.074374557 0.048470408
0.520055 -0.0756936 0.048120808
0.52082402 -0.077770039 0.047430553
0.5209865 -0.079093374 0.047080863
0.52114767 -0.080418371 0.04673117
0.52130747 -0.081745073 0.046381447
0.52146596 -0.083073482 0.046031702
0.52102184 -0.083643638 0.046022624
0.52117836 -0.084974594 0.045672838
0.52133358 -0.086307287 0.045322999
0.52148741 -0.087641649 0.044973154
0.52104133 -0.08821436 0.044964038
0.52119321 -0.089551277 0.044614155
0.52134371 -0.090889893 0.044264246
0.52149296 -0.092230245 0.043914285
0.52164084 -0.093572266 0.04356432
0.52178741 -0.094915979 0.043214329
0.52193266 -0.096261412 0.042864311
0.52207655 -0.097608529 0.042514265
0.52221918 -0.098957404 0.042164169
0.52236038 -0.10030793 0.04181407
0.52250034 -0.10166016 0.041463941
0.52263892 -0.1030141 0.041113786
0.52277625 -0.10436976 0.040763587
0.5229122 -0.1057271 0.040413376
0.52304679 -0.10708614 0.040063139
0.52318013 -0.10844688 0.039712876
0.52448809 -0.11136329 0.038680624
0.52579206 -0.11428477 0.037648313
0.52650541 -0.11643272 0.036956895
0.52780211 -0.1193636 0.035924416
0.52968013 -0.1230799 0.034550849
0.53272223 -0.12836553 0.032495055
0.5345884 -0.1320972 0.031121224
0.53586578 -0.13505271 0.030088373
0.53655666 -0.13722959 0.029396493
0.53666276 -0.13862522 0.029045675
0.53676754 -0.14002256 0.028694831
0.53687102 -0.1414216 0.028343959
0.53639317 -0.14203516 0.028334191
0.53591526 -0.14264871 0.028324425
0.53543741 -0.14326228 0.028314658
0.62119037 0.019369176 0.041384477
0.61854047 0.020560713 0.042392291
0.61808711 0.019978637 0.042383026
0.61763376 0.019396562 0.042373762
0.61645091 0.019409087 0.042703569
0.61599821 0.018827861 0.042694315
0.61554551 0.018246638 0.042685062
0.61436528 0.018262563 0.043014925
0.61391324 0.017682189 0.043005686
0.61273503 0.017700668 0.043335591
0.61228365 0.017121147 0.043326363
0.61183226 0.016541624 0.043317139
0.61065668 0.016563542 0.043647122
0.60948241 0.016587127 0.043977104
0.60903239 0.016009307 0.043967906
0.60858232 0.015431486 0.043958709
0.60741073 0.015458476 0.044288743
0.60624045 0.015487166 0.044618811
0.60579175 0.014911048 0.04460964
0.60390383 0.015549689 0.045279045
0.60273755 0.015583484 0.045609191
0.60229081 0.015009918 0.045600064
0.60112649 0.015046268 0.045930251
0.60068041 0.014473554 0.045921132
0.59951812 0.014512457 0.04625136
0.59907269 0.013940593 0.046242259
0.59791231 0.013982084 0.046572551
0.5967533 0.014025241 0.046902847
0.59559566 0.014070099 0.047233168
0.59515226 0.013500791 0.047224104
0.5947088 0.012931482 0.047215041
0.5942654 0.01236217 0.047205981
0.59311104 0.012411284 0.047536373
0.59266829 0.011842827 0.047527324
0.5915159 0.011894493 0.047857754
0.59107381 0.011326885 0.04784872
0.58992338 0.011381137 0.048179213
0.58948195 0.010814378 0.04817019
0.58833355 0.010871155 0.048500702
0.58718646 0.010929628 0.048831243
0.58674639 0.010364573 0.048822246
0.58630627 0.0097995168 0.048813254
0.58516186 0.0098613976 0.049143847
0.5847224 0.009297194 0.049134865
0.58357996 0.0093616275 0.0494655
0.58243883 0.0094277943 0.049796186
0.58200073 0.0088652913 0.049787231
0.58086157 0.0089339809 0.050117932
0.57972378 0.0090043703 0.05044866
0.57928699 0.0084435707 0.050439734
0.57815123 0.0085165119 0.050770506
0.5777151 0.0079565607 0.050761592
0.57658124 0.0080320919 0.051092423
0.57614577 0.0074729919 0.051083524
0.57501394 0.0075510414 0.051414374
0.57457912 0.0069927936 0.051405489
0.5741443 0.0064345459 0.051396605
0.57301515 0.0065159933 0.051727507
0.57258099 0.0059585972 0.051718634
0.57145381 0.0060426034 0.052049581
0.57102036 0.005486059 0.052040722
0.56989515 0.0055726171 0.052371707
0.56946236 0.0050169216 0.052362863
0.56833905 0.0051060682 0.052693915
0.56790692 0.0045512244 0.052685082
0.56747478 0.0039963801 0.052676249
0.56704265 0.0034415366 0.052667417
0.56661046 0.0028866925 0.052658584
0.56617832 0.0023318487 0.052649751
0.56505978 0.002426916 0.052980874
0.5646283 0.0018729238 0.052972056
0.56419683 0.0013189346 0.052963234
0.56308085 0.0014174025 0.053294413
0.56265002 0.00086426502 0.053285606
0.5622192 0.00031112169 0.053276803
0.56178838 -0.0002420216 0.053267997
0.5606758 -0.00013929553 0.053599242
0.56024563 -0.00069158711 0.05359045
0.55981547 -0.0012438728 0.053581659
0.5593853 -0.0017961644 0.053572867
0.55895519 -0.0023484561 0.053564075
0.55852503 -0.0029007476 0.053555284
0.55809486 -0.0034530391 0.053546492
0.55766469 -0.0040053306 0.053537704
0.55655801 -0.0038949107 0.053869091
0.5561285 -0.0044463505 0.05386031
0.55569899 -0.0049977903 0.053851534
0.55459499 -0.0048840027 0.054182954
0.5541662 -0.0054345909 0.054174189
0.55373734 -0.005985179 0.054165427
0.55330849 -0.0065357671 0.054156661
0.55287969 -0.0070863552 0.054147895
0.55245084 -0.0076369434 0.054139134
0.55202204 -0.0081875315 0.054130368
0.55159318 -0.0087381192 0.054121602
0.55116433 -0.0092887133 0.05411284
0.55073553 -0.0098393019 0.054104075
0.55030668 -0.01038989 0.054095309
0.54987788 -0.010940478 0.054086547
0.54944903 -0.011491066 0.054077782
0.54902017 -0.012041654 0.054069016
0.54859138 -0.012592242 0.054060254
0.54816252 -0.013142831 0.054051489
0.54773366 -0.013693418 0.054042723
0.54730487 -0.014244006 0.054033961
0.54687601 -0.0147946 0.054025196
0.54644722 -0.015345189 0.05401643
0.54601836 -0.015895776 0.054007664
0.54558951 -0.016446365 0.053998902
0.54516071 -0.016996954 0.053990137
0.54473186 -0.01754754 0.053981371
0.54364443 -0.017412478 0.054313131
0.54321629 -0.017962214 0.05430438
0.54278809 -0.018511949 0.054295629
0.54235995 -0.019061692 0.054286879
0.54193175 -0.019611429 0.054278128
0.54150361 -0.020161165 0.054269377
0.54107541 -0.0207109 0.054260626
0.54064727 -0.021260638 0.054251876
0.54021907 -0.021810381 0.054243121
0.53979093 -0.022360116 0.054234371
0.53936273 -0.022909852 0.05422562
0.53893459 -0.023459589 0.054216869
0.53850639 -0.024009332 0.054208118
0.53807825 -0.024559068 0.054199368
0.53765005 -0.025108803 0.054190617
0.53722191 -0.02565854 0.054181866
0.53679371 -0.026208283 0.054173116
0.53636557 -0.026758019 0.054164365
0.53593737 -0.027307754 0.054155614
0.53550923 -0.027857492 0.054146864
0.53572637 -0.029109903 0.05379732
0.53529757 -0.029660491 0.053788558
0.53486872 -0.03021108 0.053779792
0.53443986 -0.030761672 0.053771026
0.53401107 -0.031312261 0.053762265
0.53358221 -0.031862848 0.053753499
0.53315336 -0.032413438 0.053744733
0.53272456 -0.032964025 0.053735971
0.5322957 -0.033514615 0.053727206
0.53186691 -0.034065202 0.05371844
0.53143805 -0.034615789 0.053709678
0.5310092 -0.035166379 0.053700913
0.53121775 -0.036429856 0.05335119
0.53078824 -0.036981296 0.053342413
0.53035879 -0.037532736 0.053333636
0.52992928 -0.038084175 0.053324856
0.53013456 -0.039351933 0.052975047
0.53033847 -0.040621366 0.052625228
0.52990764 -0.041174505 0.052616425
0.52947682 -0.041727647 0.052607618
0.529046 -0.042280789 0.052598815
0.52861518 -0.042833935 0.052590009
0.52818435 -0.04338707 0.052581202
0.52775353 -0.043940216 0.052572399
0.52795213 -0.045216445 0.052222475
0.52752066 -0.04577044 0.052213658
0.52708918 -0.046324436 0.052204836
0.5266577 -0.046878424 0.052196018
0.52622622 -0.047432419 0.052187201
0.52579474 -0.047986414 0.052178383
0.52536327 -0.048540398 0.052169565
0.52493179 -0.049094394 0.052160744
0.52512443 -0.050378289 0.0518107
0.52469224 -0.050933141 0.051801868
0.5242601 -0.051487982 0.051793035
0.52445012 -0.05277532 0.051442914
0.52401733 -0.053331006 0.051434066
0.52358454 -0.053886704 0.051425222
0.5231517 -0.054442402 0.051416375
0.52333838 -0.055733956 0.051066209
0.52290493 -0.056290504 0.05105735
0.52308959 -0.057584606 0.050707139
0.52265549 -0.05814201 0.050698265
0.52222133 -0.058699399 0.050689396
0.52178723 -0.0592568 0.050680522
0.5219686 -0.06055516 0.050330244
0.52153379 -0.061113406 0.050321359
0.5217132 -0.062414326 0.04997104
0.52127773 -0.062973432 0.049962141
0.52084225 -0.063532524 0.049953241
0.52101904 -0.064836882 0.049602848
0.52058291 -0.065396838 0.049593937
0.52075762 -0.066703707 0.049243521
0.52032083 -0.067264505 0.049234595
0.52049363 -0.068573929 0.048884142
0.52005619 -0.069135584 0.048875201
0.52022696 -0.070447572 0.048524711
0.52039641 -0.071761273 0.048174165
0.51995766 -0.072324634 0.048165198
0.52012509 -0.073640861 0.047814637
0.51968569 -0.074205063 0.047805656
0.51985115 -0.075523846 0.047455058
0.52061951 -0.077599779 0.046762794
0.5207817 -0.078922853 0.046412103
0.52094257 -0.080247603 0.046061408
0.52110207 -0.081574045 0.045710683
0.5212602 -0.082902201 0.045359932
0.52141708 -0.08423204 0.045009155
0.52157265 -0.08556363 0.044658326
0.52112722 -0.086135499 0.044649225
0.52128077 -0.0874696 0.044298377
0.521433 -0.0888054 0.043947507
0.52158386 -0.090142921 0.043596607
0.52173346 -0.091482155 0.043245658
0.5218817 -0.092823081 0.042894706
0.52202863 -0.09416569 0.04254372
0.52217418 -0.095510006 0.042192716
0.52231848 -0.096856028 0.041841682
0.52246141 -0.098203786 0.041490596
0.52260303 -0.099553198 0.041139506
0.52274334 -0.10090433 0.04078839
0.52229065 -0.10148556 0.040779136
0.52242893 -0.10283924 0.040427983
0.5225659 -0.10419464 0.040076774
0.52270156 -0.10555173 0.039725564
0.52283585 -0.10691052 0.039374325
0.52296889 -0.108271 0.03902306
0.5242759 -0.11118664 0.037987798
0.52557898 -0.11410735 0.036952481
0.52687806 -0.1170332 0.035917059
0.52817315 -0.11996416 0.034881555
0.53063434 -0.12446043 0.033161916
0.53308892 -0.12896523 0.031442143
0.53495312 -0.13269673 0.030064287
0.53622901 -0.13565233 0.029028414
0.53633618 -0.13704604 0.028676597
0.53644198 -0.13844141 0.028324775
0.53654647 -0.1398385 0.027972929
0.53664964 -0.14123729 0.027621055
0.53617179 -0.14185084 0.027611287
0.53569388 -0.1424644 0.027601521
0.53521603 -0.14307797 0.027591754
0.62024754 0.02013574 0.041035682
0.61979288 0.019551963 0.041026391
0.61714655 0.02074614 0.042037267
0.61669385 0.020164914 0.042028017
0.61624116 0.019583691 0.042018764
0.61505991 0.019597661 0.042349603
0.61460793 0.019017287 0.042340364
0.61415589 0.018436914 0.042331126
0.61370385 0.01785654 0.042321887
0.61252594 0.017874762 0.042652793
0.61207455 0.017295241 0.042643569
0.61089855 0.017316051 0.042974535
0.61044788 0.016737381 0.042965326
0.60927391 0.016760709 0.043296311
0.60810131 0.016785741 0.043627322
0.60765195 0.016208772 0.043618139
0.60720253 0.015631802 0.043608956
0.60603261 0.015660238 0.043940023
0.60486394 0.015690375 0.044271119
0.60369658 0.015722249 0.044602264
0.60324919 0.015147832 0.044593122
0.60208386 0.015182223 0.044924282
0.60091984 0.015218317 0.045255471
0.60047382 0.014645603 0.045246355
0.59931177 0.01468425 0.045577586
0.5988664 0.014112386 0.045568485
0.59770632 0.014153621 0.045899779
0.5965476 0.014196523 0.046231076
0.59539026 0.014241125 0.0465624
0.5949468 0.013671817 0.04655334
0.5945034 0.013102508 0.046544276
0.59406 0.012533196 0.046535213
0.59290594 0.012582054 0.046866607
0.5924632 0.012013597 0.046857558
0.5913111 0.012065008 0.047188994
0.59086901 0.0114974 0.04717996
0.59042692 0.010929791 0.047170922
0.58927745 0.010984637 0.047502432
0.5881294 0.011041159 0.047833946
0.58768862 0.010475251 0.047824938
0.58724785 0.009909343 0.04781593
0.58610243 0.0099692652 0.0481475
0.58495831 0.010030891 0.048479095
0.58451885 0.0094666863 0.048470113
0.58337671 0.0095308637 0.048801754
0.58293796 0.0089675086 0.048792783
0.58179778 0.0090342723 0.049124487
0.58065897 0.0091027059 0.04945619
0.58022147 0.0085410541 0.04944725
0.57908469 0.0086120404 0.049778994
0.57794917 0.0086847264 0.050110769
0.57751304 0.0081247753 0.050101854
0.57637948 0.0082000503 0.050433692
0.57594401 0.0076409504 0.050424788
0.57481253 0.0077187442 0.050756644
0.57437772 0.0071604964 0.05074776
0.5739429 0.0066022486 0.050738871
0.57281405 0.0066834409 0.05107078
0.57237989 0.0061260448 0.051061906
0.57194579 0.0055686487 0.051053032
0.57081956 0.0056532505 0.051384997
0.57038605 0.0050967028 0.051376138
0.56926185 0.0051838569 0.051708139
0.5681389 0.0052727484 0.052040193
0.56770676 0.0047179046 0.052031361
0.56727457 0.0041630608 0.052022528
0.56684244 0.0036082168 0.052013695
0.5664103 0.003053373 0.052004863
0.56597817 0.0024985292 0.05199603
0.56554598 0.0019436852 0.051987201
0.56442839 0.0020393487 0.052319333
0.56399691 0.0014853596 0.052310515
0.56288129 0.0015835717 0.052642696
0.56245047 0.0010304342 0.052633889
0.56201965 0.00047729086 0.052625086
0.56158882 -7.5852455e-05 0.05261628
0.56047654 2.6618251e-05 0.052948527
0.56004637 -0.00052567333 0.052939735
0.55961621 -0.0010779591 0.052930944
0.55918604 -0.0016302506 0.052922152
0.55875587 -0.0021825421 0.05291336
0.55832571 -0.0027348339 0.052904569
0.5578956 -0.0032871254 0.052895777
0.55746543 -0.0038394169 0.052886989
0.55703527 -0.0043917084 0.052878197
0.5566051 -0.0049439999 0.052869406
0.55550003 -0.0048321323 0.053201821
0.55439633 -0.0047186008 0.053534247
0.55396754 -0.0052691889 0.053525481
0.55353868 -0.005819777 0.053516716
0.55310988 -0.0063703652 0.053507954
0.55268103 -0.0069209533 0.053499188
0.55225217 -0.0074715414 0.053490423
0.55182338 -0.0080221295 0.053481661
0.55139452 -0.0085727172 0.053472895
0.55096567 -0.0091233114 0.05346413
0.55053687 -0.009673899 0.053455368
0.55010802 -0.010224488 0.053446602
0.54967922 -0.010775075 0.053437836
0.54925036 -0.011325664 0.053429075
0.54882151 -0.011876252 0.053420309
0.54839271 -0.01242684 0.053411543
0.54796386 -0.012977428 0.053402781
0.54753506 -0.013528016 0.053394016
0.54710621 -0.014078604 0.05338525
0.54667735 -0.014629198 0.053376485
0.54624856 -0.015179786 0.053367723
0.5458197 -0.015730374 0.053358957
0.54539084 -0.016280962 0.053350192
0.54496205 -0.016831551 0.05334143
0.54453319 -0.017382139 0.053332664
0.5441044 -0.017932726 0.053323898
0.54367554 -0.018483315 0.053315137
0.54324669 -0.019033903 0.053306371
0.54281789 -0.019584492 0.053297605
0.54238904 -0.020135086 0.053288843
0.54196024 -0.020685673 0.053280078
0.54153138 -0.021236261 0.053271312
0.54110253 -0.02178685 0.05326255
0.54067373 -0.022337437 0.053253785
0.54024488 -0.022888025 0.053245019
0.53981602 -0.023438614 0.053236257
0.53938723 -0.023989202 0.053227492
0.53895837 -0.024539789 0.053218726
0.53852957 -0.025090383 0.053209964
0.53810072 -0.025640972 0.053201199
0.53767186 -0.026191561 0.053192433
0.53724307 -0.026742147 0.053183671
0.53681421 -0.027292736 0.053174905
0.53638536 -0.027843324 0.05316614
0.53595656 -0.028393913 0.053157378
0.53552771 -0.0289445 0.053148612
0.53509891 -0.029495088 0.053139847
0.53467005 -0.030045677 0.053131085
0.53488427 -0.031301238 0.052780479
0.53445476 -0.031852677 0.052771702
0.53402525 -0.032404117 0.052762926
0.5335958 -0.032955557 0.052754149
0.53316629 -0.033506997 0.052745368
0.53273678 -0.034058437 0.052736592
0.53230727 -0.034609877 0.052727815
0.53187782 -0.035161316 0.052719034
0.5314483 -0.035712756 0.052710257
0.53101879 -0.036264196 0.052701481
0.53058928 -0.036815636 0.0526927
0.53015983 -0.037367076 0.052683923
0.53036547 -0.038633727 0.052333124
0.5299353 -0.039186019 0.052324332
0.53013891 -0.040455196 0.051973514
0.52970809 -0.041008335 0.051964708
0.52927727 -0.041561477 0.051955901
0.52884644 -0.042114623 0.051947098
0.52904671 -0.043388046 0.051596209
0.52861524 -0.043942034 0.051587392
0.52818376 -0.04449603 0.051578574
0.52775228 -0.045050021 0.051569756
0.5273208 -0.045604013 0.051560935
0.52688932 -0.046158008 0.051552117
0.52645785 -0.046712 0.051543299
0.52665281 -0.047992233 0.051192306
0.52622068 -0.048547085 0.051183477
0.52578849 -0.049101926 0.051174644
0.52535635 -0.049656767 0.051165812
0.52492422 -0.050211608 0.051156979
0.52449208 -0.050766461 0.051148146
0.52468246 -0.052052684 0.050797034
0.52424967 -0.052608382 0.05078819
0.52443802 -0.05389712 0.050437059
0.52400452 -0.054453678 0.050428201
0.52357107 -0.055010222 0.050419342
0.52313757 -0.055566765 0.050410479
0.52332264 -0.056859769 0.050059281
0.52288848 -0.057417158 0.050050411
0.52245438 -0.057974562 0.050041538
0.52263677 -0.059270959 0.049690288
0.52220196 -0.059829209 0.049681399
0.52238238 -0.061128169 0.049330108
0.52194691 -0.061687272 0.049321208
0.52151144 -0.062246367 0.049312308
0.52168924 -0.063548766 0.048960939
0.52125311 -0.064108722 0.048952024
0.52081698 -0.06466867 0.04894311
0.5209921 -0.065974444 0.048591711
0.52055532 -0.066535242 0.048582781
0.52072841 -0.067843564 0.048231341
0.52029097 -0.068405204 0.0482224
0.5204621 -0.069716088 0.047870919
0.52063197 -0.07102868 0.047519386
0.52019316 -0.071592033 0.047510419
0.52036101 -0.072907157 0.047158867
0.51992154 -0.073471367 0.047149889
0.52008736 -0.074789047 0.046798296
0.52085644 -0.07686276 0.046104059
0.52041501 -0.077429526 0.046095036
0.52057689 -0.078752339 0.045743342
0.52073747 -0.080076829 0.045391642
0.52089661 -0.081403017 0.045039915
0.52105451 -0.082730919 0.044688165
0.52121103 -0.084060505 0.044336382
0.5213663 -0.085391842 0.043984551
0.52092093 -0.085963704 0.04397545
0.52107412 -0.087297551 0.0436236
0.52122605 -0.088633098 0.043271724
0.52137661 -0.089970358 0.042919826
0.52152592 -0.091309339 0.042567872
0.52167386 -0.092650004 0.042215917
0.52182043 -0.09399236 0.041863933
0.52196574 -0.095336422 0.041511923
0.52210969 -0.096682191 0.041159887
0.52225232 -0.098029688 0.040807799
0.52239364 -0.099378847 0.040455706
0.5225336 -0.10072973 0.040103588
0.52267224 -0.1020823 0.03975144
0.52280962 -0.1034366 0.039399248
0.52294564 -0.10479258 0.039047044
0.52308029 -0.10615025 0.038694818
0.52321362 -0.10750964 0.038342562
0.52452177 -0.11042196 0.037304334
0.52465111 -0.11178644 0.036952
0.52536589 -0.11392993 0.036256649
0.52666402 -0.11685501 0.03521822
0.52795821 -0.1197852 0.034179706
0.53041792 -0.1242802 0.032455057
0.53403902 -0.13034514 0.030044183
0.53473389 -0.13251421 0.029348403
0.53600883 -0.13546903 0.02830952
0.5366978 -0.13764575 0.027613617
0.53680265 -0.13904172 0.027260782
0.53690618 -0.14043939 0.026907917
0.53642827 -0.14105296 0.026898149
0.53595042 -0.14166652 0.026888384
0.53547251 -0.14228007 0.026878616
0.53557277 -0.14368205 0.026525663
0.62195605 0.019715227 0.039675143
0.61930537 0.020901795 0.040688898
0.61738956 0.02150197 0.041361716
0.61620665 0.021513129 0.041693516
0.61648417 0.020339521 0.041343212
0.61603147 0.019758297 0.041333962
0.61485052 0.01977201 0.0416658
0.61439848 0.019191636 0.041656561
0.6139465 0.018611263 0.041647322
0.61276817 0.018628379 0.04197922
0.61231685 0.018048856 0.041969996
0.61186546 0.017469335 0.041960768
0.61068982 0.01748989 0.04229274
0.60951549 0.017512113 0.042624716
0.60906547 0.016934292 0.042615518
0.60789311 0.016959067 0.042947534
0.60744375 0.016382098 0.042938348
0.60627341 0.016409427 0.043270409
0.60582471 0.015833309 0.043261237
0.6046564 0.015863191 0.043593332
0.60420835 0.015287924 0.043584175
0.60304195 0.015320392 0.043916337
0.60259455 0.014745976 0.043907195
0.60143018 0.014780962 0.044239372
0.60026717 0.014817651 0.044571579
0.59982109 0.014244937 0.044562463
0.59866005 0.01428418 0.04489471
0.59750026 0.014325159 0.045227006
0.59705555 0.013754147 0.045217916
0.59589779 0.013797645 0.045550231
0.5947414 0.013842843 0.045882571
0.59429801 0.013273534 0.045873508
0.59385461 0.012704223 0.045864448
0.59270084 0.012752825 0.046196844
0.5922581 0.012184368 0.046187796
0.59181535 0.011615909 0.046178747
0.59066421 0.011667915 0.046511196
0.58951443 0.011721656 0.046843696
0.589073 0.011154897 0.046834674
0.58863157 0.01058814 0.046825651
0.58748442 0.010645255 0.047158182
0.58633864 0.010704068 0.047490742
0.58589852 0.010139013 0.047481745
0.58545846 0.0095739597 0.047472753
0.5843153 0.0096361786 0.047805365
0.58387583 0.0090719741 0.047796384
0.5827347 0.0091367457 0.048129037
0.58159482 0.0092032533 0.048461743
0.58045632 0.0092714317 0.048794445
0.58001888 0.0087097799 0.048785504
0.57888234 0.0087805092 0.049118254
0.57774717 0.008852941 0.049451031
0.57731104 0.0082929889 0.049442116
0.57617778 0.0083680088 0.049774956
0.5757423 0.0078089088 0.049766056
0.57530683 0.0072498093 0.049757157
0.57417631 0.0073281997 0.050090026
0.5737415 0.0067699514 0.050081138
0.57330668 0.0062117036 0.050072253
0.57217878 0.0062934919 0.050405174
0.57174468 0.0057360958 0.050396305
0.57061875 0.0058204425 0.050729267
0.57018524 0.0052638948 0.050720409
0.56906134 0.0053507932 0.051053416
0.56793869 0.0054394286 0.051386472
0.56750655 0.0048845848 0.051377639
0.56707442 0.004329741 0.051368807
0.56664222 0.0037748972 0.051359974
0.56621009 0.0032200534 0.051351141
0.56577796 0.0026652094 0.051342309
0.56534582 0.0021103655 0.05133348
0.56422853 0.0022057733 0.051666617
0.56379706 0.0016517842 0.0516578
0.56336552 0.001097789 0.051648978
0.56225091 0.0011966029 0.051982176
0.56182009 0.00064345956 0.051973369
0.56138927 9.0316258e-05 0.051964566
0.56095845 -0.00046282707 0.05195576
0.56052762 -0.0010159645 0.051946957
0.5600968 -0.0015691079 0.05193815
0.55898678 -0.0014643372 0.052271441
0.55855662 -0.0020166289 0.052262649
0.55812645 -0.0025689204 0.052253857
0.55769628 -0.0031212119 0.052245066
0.55726618 -0.0036735036 0.052236274
0.55683601 -0.0042257952 0.052227482
0.55640584 -0.0047780867 0.052218691
0.55530107 -0.0046664746 0.052552111
0.55487162 -0.0052179145 0.052543335
0.55376887 -0.0051037865 0.052876774
0.55334002 -0.0056543746 0.052868009
0.55291122 -0.0062049627 0.052859243
0.55248237 -0.0067555509 0.052850481
0.55205357 -0.007306139 0.052841716
0.55162472 -0.0078567276 0.05283295
0.55119586 -0.0084073152 0.052824188
0.55076706 -0.0089579094 0.052815422
0.55033821 -0.0095084971 0.052806657
0.54990935 -0.010059086 0.052797895
0.54948056 -0.010609673 0.052789129
0.5490517 -0.011160262 0.052780364
0.54928815 -0.012386632 0.052429222
0.54885864 -0.012938072 0.052420445
0.54842913 -0.013489512 0.052411664
0.54799968 -0.014040952 0.052402887
0.54757017 -0.014592391 0.052394111
0.54714066 -0.015143831 0.05238533
0.54671115 -0.015695272 0.052376553
0.5462817 -0.016246712 0.052367777
0.54585218 -0.016798152 0.052358996
0.54542267 -0.017349591 0.052350219
0.54499316 -0.017901031 0.052341443
0.54456371 -0.018452471 0.052332662
0.5441342 -0.019003911 0.052323885
0.54370469 -0.019555345 0.052315108
0.54327524 -0.020106785 0.052306328
0.54284573 -0.020658225 0.052297551
0.54241621 -0.021209665 0.052288774
0.5419867 -0.021761104 0.052279998
0.54155725 -0.022312544 0.052271217
0.54112774 -0.022863984 0.05226244
0.54069823 -0.023415424 0.052253664
0.54026872 -0.023966864 0.052244883
0.53983927 -0.024518304 0.052236106
0.53940976 -0.025069743 0.052227329
0.53898025 -0.025621183 0.052218549
0.53855073 -0.026172623 0.052209772
0.53812128 -0.026724063 0.052200995
0.53769177 -0.027275503 0.052192215
0.53726226 -0.027826943 0.052183438
0.53683275 -0.028378382 0.052174661
0.5364033 -0.028929822 0.052165881
0.53597379 -0.029481262 0.052157104
0.53554428 -0.030032702 0.052148327
0.53511482 -0.030584142 0.05213955
0.53468531 -0.031135581 0.05213077
0.5342558 -0.031687021 0.052121993
0.53382629 -0.032238461 0.052113216
0.53339684 -0.032789901 0.052104436
0.53296733 -0.033341341 0.052095659
0.53253782 -0.033892781 0.052086882
0.53210831 -0.03444422 0.052078102
0.53167886 -0.03499566 0.052069325
0.53124934 -0.0355471 0.052060548
0.53081983 -0.03609854 0.052051768
0.53039032 -0.03664998 0.052042991
0.53059632 -0.037915528 0.051691201
0.53016621 -0.038467813 0.051682409
0.52973604 -0.039020106 0.051673617
0.52993929 -0.040289029 0.051321797
0.52950847 -0.040842164 0.051312994
0.52970982 -0.042113632 0.050961129
0.52927834 -0.042667627 0.050952312
0.52884686 -0.043221623 0.050943494
0.52841538 -0.043775611 0.050934672
0.52798384 -0.044329606 0.050925855
0.52755237 -0.044883594 0.050917037
0.52712089 -0.045437589 0.050908219
0.52731693 -0.04671587 0.05055625
0.52688473 -0.047270712 0.050547417
0.5264526 -0.047825553 0.050538585
0.52602047 -0.048380405 0.050529756
0.52558833 -0.048935246 0.050520923
0.5251562 -0.049490087 0.05051209
0.52472401 -0.050044928 0.050503258
0.52429187 -0.05059978 0.050494425
0.52448195 -0.051885746 0.050142311
0.52404916 -0.052441448 0.050133463
0.52423722 -0.053729929 0.04978133
0.52380371 -0.054286484 0.049772471
0.52337027 -0.054843031 0.049763612
0.52355564 -0.056134921 0.049411427
0.52312154 -0.056692321 0.049402554
0.52268738 -0.057249714 0.04939368
0.52287012 -0.058545008 0.049041439
0.52243537 -0.059103258 0.049032554
0.52261609 -0.060401116 0.048680272
0.52218062 -0.060960211 0.048671372
0.5217452 -0.061519314 0.048662473
0.5219233 -0.062820598 0.048310112
0.52148724 -0.063380554 0.048301201
0.52166331 -0.064684369 0.047948822
0.52122653 -0.065245166 0.047939897
0.52078974 -0.065805972 0.047930971
0.52096319 -0.067113183 0.047578536
0.52052575 -0.067674838 0.047569599
0.52069724 -0.068984598 0.047217127
0.52086747 -0.070296094 0.046864606
0.52042872 -0.07085944 0.04685564
0.52059686 -0.072173461 0.046503101
0.5207637 -0.073489189 0.046150532
0.52032357 -0.074054241 0.046141539
0.52048844 -0.075372517 0.045788929
0.520652 -0.076692499 0.0454363
0.52081424 -0.078014217 0.045083616
0.52037215 -0.078581825 0.045074578
0.52053237 -0.079906061 0.044721879
0.52069122 -0.081231996 0.04436915
0.52084881 -0.082559638 0.044016395
0.52100503 -0.083888963 0.04366361
0.52116001 -0.085220046 0.04331078
0.52071458 -0.085791908 0.043301675
0.52086753 -0.087125503 0.042948823
0.5210191 -0.088460796 0.042595945
0.52116936 -0.089797795 0.042243041
0.52131838 -0.091136523 0.041890088
0.52146596 -0.092476934 0.041537128
0.52161229 -0.093819037 0.041184142
0.52175725 -0.095162839 0.04083113
0.52190089 -0.096508346 0.040478088
0.52204323 -0.097855598 0.040125001
0.52218425 -0.099204503 0.039771903
0.52232391 -0.10055512 0.039418783
0.52246225 -0.10190744 0.039065637
0.52259928 -0.10326149 0.038712438
0.522735 -0.10461721 0.038359232
0.52286935 -0.10597463 0.038006004
0.52300239 -0.10733375 0.037652746
0.52430958 -0.11024531 0.036611512
0.52443868 -0.11160953 0.036258172
0.52573919 -0.11452959 0.035216805
0.52703577 -0.11745474 0.034175374
0.52774334 -0.11960626 0.033477858
0.53137022 -0.12565918 0.031060131
0.53440422 -0.13094361 0.028986234
0.53509778 -0.13311297 0.028288458
0.53578871 -0.13528574 0.027590627
0.53647703 -0.13746195 0.02689272
0.53658158 -0.13885766 0.026538882
0.53668481 -0.14025508 0.026185013
0.5362069 -0.14086865 0.026175248
0.53572905 -0.1414822 0.02616548
0.53525114 -0.14209576 0.026155714
0.5353511 -0.14349747 0.025801755
0.61909503 0.021076912 0.040002089
0.61864102 0.020493986 0.039992809
0.61818701 0.01991106 0.03998353
0.61627448 0.020514125 0.040658411
0.61582178 0.019932901 0.040649157
0.61536908 0.019351678 0.040639903
0.61418909 0.019365985 0.040972762
0.61373705 0.018785613 0.040963523
0.61255908 0.018802473 0.041296422
0.61210775 0.01822295 0.041287195
0.61165637 0.017643429 0.041277971
0.61048102 0.017663728 0.041610945
0.61003029 0.017085059 0.041601732
0.60885698 0.017107874 0.041934725
0.6084069 0.016530054 0.041925527
0.60723561 0.016555425 0.042258557
0.60606557 0.016582498 0.04259162
0.60633683 0.015401486 0.042240191
0.60516816 0.015430262 0.042573281
0.60400075 0.015460739 0.042906392
0.6035527 0.014885472 0.042897236
0.60238731 0.014918536 0.043230414
0.60193992 0.01434412 0.043221269
0.60077649 0.014379702 0.043554462
0.59961444 0.014416986 0.043887686
0.5984537 0.014455973 0.044220936
0.59729427 0.014496696 0.044554237
0.5968495 0.013925684 0.044545148
0.5956921 0.013968926 0.044878464
0.59453601 0.01401387 0.045211807
0.59409261 0.013444561 0.045202743
0.59364915 0.01287525 0.04519368
0.59249574 0.012923596 0.045527078
0.592053 0.012355139 0.045518029
0.59161025 0.011786679 0.045508981
0.59045941 0.01183843 0.045842435
0.58930993 0.011891915 0.046175938
0.5888685 0.011325156 0.046166915
0.58842707 0.010758399 0.046157893
0.58728027 0.010815258 0.046491425
0.5868395 0.01024935 0.046482418
0.58569467 0.010308761 0.046815995
0.58525455 0.0097437082 0.046806999
0.58481443 0.0091786524 0.046798006
0.58367229 0.0092414664 0.047131635
0.58253145 0.0093059819 0.047465291
0.58139187 0.0093722343 0.047798995
0.58095372 0.0088097341 0.047790039
0.57981622 0.0088785058 0.048123762
0.57867998 0.0089489799 0.048457514
0.57754511 0.0090211546 0.048791293
0.57710898 0.0084612034 0.048782378
0.57667285 0.007901255 0.048773468
0.5755406 0.0079768673 0.049107321
0.57510513 0.0074177678 0.049098421
0.57466966 0.0068586711 0.049089521
0.57354009 0.0069376542 0.049423408
0.57310528 0.0063794064 0.049414519
0.57197767 0.0064609395 0.049748447
0.57154351 0.0059035434 0.049739573
0.57041794 0.005987634 0.050073542
0.56998444 0.0054310863 0.050064683
0.56886083 0.0055177296 0.050398689
0.56842804 0.0049620369 0.050389845
0.56799525 0.0044063409 0.050380997
0.56687421 0.0044964212 0.050715085
0.56644207 0.0039415774 0.050706252
0.56600994 0.0033867336 0.05069742
0.56557775 0.0028318898 0.050688587
0.56514561 0.002277046 0.050679754
0.56402862 0.0023721978 0.051013898
0.56359714 0.0018182087 0.05100508
0.56316566 0.0012642136 0.050996263
0.56273419 0.00071021856 0.050987441
0.56230271 0.00015622938 0.050978623
0.56187123 -0.00039776569 0.050969806
0.56075883 -0.0002966579 0.051304042
0.56032807 -0.00084979535 0.051295239
0.55989724 -0.0014029386 0.051286433
0.55946642 -0.0019560819 0.05127763
0.5590356 -0.0025092193 0.051268823
0.55860478 -0.0030623628 0.051260017
0.55817395 -0.003615506 0.051251214
0.55774313 -0.0041686492 0.051242407
0.55663675 -0.0040598819 0.051576767
0.55620658 -0.0046121734 0.051567979
0.55577642 -0.0051644649 0.051559187
0.5546726 -0.0050522569 0.051893622
0.55424315 -0.0056036967 0.051884845
0.55314136 -0.0054889726 0.052219301
0.55271256 -0.0060395608 0.052210536
0.5522837 -0.0065901489 0.05220177
0.55185491 -0.007140737 0.052193008
0.55142605 -0.0076913252 0.052184243
0.5509972 -0.0082419133 0.052175477
0.5505684 -0.0087925075 0.052166715
0.55013955 -0.0093430951 0.05215795
0.54971075 -0.0098936837 0.052149184
0.5492819 -0.010444271 0.052140418
0.5495187 -0.011669534 0.051788285
0.54908919 -0.012220975 0.051779509
0.54865968 -0.012772415 0.051770732
0.54823017 -0.013323855 0.051761955
0.54780072 -0.013875294 0.051753175
0.54737121 -0.014426734 0.051744398
0.5469417 -0.014978174 0.051735621
0.54651219 -0.015529614 0.05172684
0.54608274 -0.016081054 0.051718064
0.54565322 -0.016632494 0.051709287
0.54522371 -0.017183933 0.051700506
0.5447942 -0.017735373 0.05169173
0.54436475 -0.018286813 0.051682953
0.54393524 -0.018838253 0.051674172
0.54350573 -0.019389687 0.051665395
0.54307628 -0.019941127 0.051656619
0.54264677 -0.020492567 0.051647842
0.54221725 -0.021044007 0.051639061
0.54178774 -0.021595446 0.051630285
0.54135829 -0.022146886 0.051621508
0.54092878 -0.022698326 0.051612727
0.54049927 -0.023249766 0.051603951
0.54006976 -0.023801206 0.051595174
0.53964031 -0.024352646 0.051586393
0.5392108 -0.024904085 0.051577616
0.53878129 -0.025455525 0.05156884
0.53835177 -0.026006965 0.051560059
0.53792232 -0.026558405 0.051551282
0.53749281 -0.027109845 0.051542506
0.5370633 -0.027661284 0.051533725
0.53663379 -0.028212724 0.051524948
0.53620434 -0.028764164 0.051516172
0.53577483 -0.029315604 0.051507395
0.53534532 -0.029867044 0.051498614
0.53491586 -0.030418484 0.051489837
0.53448635 -0.030969923 0.051481061
0.53405684 -0.031521361 0.05147228
0.53362733 -0.032072801 0.051463503
0.53319788 -0.032624241 0.051454727
0.53276837 -0.033175681 0.051445946
0.53233886 -0.033727121 0.051437169
0.53190935 -0.03427856 0.051428393
0.53211772 -0.03554045 0.051075652
0.53168756 -0.03609274 0.051066861
0.53125739 -0.036645032 0.051058073
0.53082722 -0.037197325 0.051049281
0.53039706 -0.037749615 0.051040489
0.52996689 -0.0383019 0.051031698
0.53017056 -0.039569717 0.050678886
0.52973974 -0.040122859 0.05067008
0.52994138 -0.041393217 0.050317232
0.5295099 -0.041947208 0.05030841
0.52907842 -0.042501204 0.050299592
0.52864695 -0.043055195 0.050290775
0.52821547 -0.043609187 0.050281957
0.52778399 -0.044163182 0.050273135
0.52735251 -0.04471717 0.050264318
0.52692103 -0.045271166 0.0502555
0.52711672 -0.04654919 0.049902529
0.52668458 -0.047104031 0.049893696
0.52625245 -0.047658872 0.049884863
0.52582026 -0.048213724 0.049876031
0.52538812 -0.048768565 0.049867202
0.52495599 -0.049323406 0.049858369
0.52452385 -0.049878247 0.049849536
0.52471429 -0.051163115 0.049496431
0.52428144 -0.051718812 0.049487587
0.52446985 -0.053006195 0.049134463
0.52403641 -0.053562738 0.049125604
0.5236029 -0.054119293 0.049116746
0.52316946 -0.05467584 0.049107887
0.52335453 -0.055967472 0.048754696
0.52292043 -0.056524877 0.048745822
0.52310354 -0.057819057 0.048392594
0.52266872 -0.058377307 0.048383709
0.52284986 -0.059674062 0.048030436
0.52302969 -0.060972545 0.047677118
0.52259356 -0.061532486 0.047668204
0.52215743 -0.062092438 0.047659289
0.52233458 -0.063394293 0.047305938
0.52189779 -0.063955091 0.047297008
0.52146101 -0.064515896 0.047288083
0.52163547 -0.065821163 0.046934675
0.52119803 -0.066382803 0.046925735
0.5207606 -0.066944458 0.046916794
0.52093244 -0.068253115 0.046563335
0.52049428 -0.068815619 0.046554383
0.52066422 -0.070126854 0.04620086
0.52083272 -0.071439765 0.04584733
0.52099991 -0.072754383 0.045493774
0.52055985 -0.073319443 0.045484781
0.52072501 -0.074636608 0.045131184
0.52088892 -0.075955488 0.044777561
0.52105153 -0.077276088 0.044423889
0.52060944 -0.077843696 0.044414856
0.52077001 -0.07916683 0.044061162
0.52092922 -0.080491655 0.043707445
0.52048582 -0.081060968 0.043698382
0.52064306 -0.082388349 0.043344624
0.52079898 -0.083717428 0.042990841
0.52095366 -0.085048251 0.042637002
0.52110696 -0.086380735 0.042283162
0.52066088 -0.086953454 0.042274047
0.52081215 -0.088288486 0.041920166
0.52096212 -0.089625239 0.04156626
0.52111083 -0.090963706 0.041212305
0.52125812 -0.092303865 0.040858343
0.52140409 -0.093645707 0.040504351
0.52154875 -0.094989263 0.040150337
0.5216921 -0.09633451 0.039796293
0.52183414 -0.0976815 0.0394422
0.52197486 -0.099030152 0.039088104
0.52211422 -0.10038051 0.038733982
0.5222522 -0.10173258 0.038379829
0.52238899 -0.10308637 0.038025629
0.52252436 -0.10444184 0.037671421
0.52265841 -0.105799 0.03731719
0.52279115 -0.10715787 0.03696293
0.52409744 -0.11006866 0.035918687
0.52481294 -0.11220857 0.035219368
0.52552581 -0.11435193 0.03451997
0.52682143 -0.1172763 0.033475529
0.52811313 -0.1202058 0.032430988
0.53232139 -0.12703717 0.029661171
0.53418529 -0.13076134 0.028271353
0.53487825 -0.13293017 0.027571568
0.53615069 -0.13588437 0.026526637
0.53625625 -0.13727812 0.026171822
0.53752214 -0.14024083 0.025126752
0.53704357 -0.14085524 0.025116971
0.53656501 -0.14146966 0.02510719
0.5360865 -0.14208406 0.025097411
0.53560793 -0.14269848 0.02508763
0.53570688 -0.14410074 0.024732679
0.62857997 0.015356186 0.035217758
0.62445998 0.017709682 0.03692342
0.62034661 0.020071687 0.038629219
0.61843073 0.020669103 0.039306
0.61797673 0.020086177 0.03929672
0.61679369 0.020096006 0.039630536
0.61634034 0.019513931 0.039621271
0.61515933 0.019526282 0.039955102
0.61470664 0.018945059 0.039945848
0.61352766 0.018959964 0.04027972
0.61234999 0.018976567 0.040613621
0.61117363 0.018994909 0.040947571
0.6107229 0.018416239 0.040938362
0.61027223 0.017837567 0.04092915
0.6098215 0.017258896 0.040919937
0.60937083 0.016680224 0.040910728
0.60819846 0.016703637 0.041244734
0.60774839 0.016125817 0.041235536
0.60657805 0.016151784 0.041569583
0.60612863 0.015574814 0.0415604
0.60496026 0.015603334 0.041894492
0.60451156 0.015027216 0.04188532
0.60334516 0.015058288 0.042219449
0.60289711 0.014483021 0.042210292
0.60173267 0.014516681 0.042544488
0.60056955 0.014552006 0.042878684
0.60012287 0.01397844 0.042869553
0.59896177 0.014016323 0.04320379
0.59780198 0.014055902 0.043538056
0.59664351 0.014097222 0.043872375
0.5954864 0.014140208 0.044206694
0.59504229 0.013570048 0.044197619
0.59388721 0.013615588 0.044531975
0.59344375 0.013046276 0.044522915
0.59300035 0.012476967 0.044513851
0.5918479 0.01252591 0.044848267
0.59140515 0.01195745 0.044839218
0.59025466 0.012008945 0.045173675
0.58981258 0.011441337 0.045164637
