# .PCD v0.7 - Point Cloud Data file format
VERSION 0.7
FIELDS x y z
SIZE 4 4 4
TYPE F F F
COUNT 1 1 1
WIDTH 1420
HEIGHT 1
VIEWPOINT 0 0 0 1 0 0 0
POINTS 1420
DATA ascii
0.48505017 0.14827234 0.07549151
0.48471811 0.147846 0.075484723
0.48511696 0.14686455 0.075081103
0.48478425 0.14643736 0.0750743
0.48445153 0.14601016 0.075067505
0.48338985 0.14614062 0.075457573
0.48378608 0.14515577 0.0750539
0.48345333 0.14472857 0.075047098
0.48312062 0.14430138 0.075040303
0.49668252 0.12885545 0.066258363
0.49777851 0.12727553 0.065457217
0.50031382 0.12455644 0.063861921
0.49852186 0.12524287 0.064648867
0.49961126 0.1236544 0.063847564
0.49925998 0.12320337 0.063840382
0.4989087 0.12275235 0.063833207
0.49855742 0.12230133 0.063826025
0.50072026 0.119104 0.062223118
0.48429611 0.19988173 0.089424014
0.48398724 0.19948517 0.089417703
0.48367837 0.1990886 0.089411393
0.48415315 0.19820529 0.089008324
0.48384362 0.19780788 0.089001998
0.48431644 0.19692199 0.088598877
0.48400626 0.19652373 0.088592544
0.48447704 0.1956353 0.088189393
0.4841662 0.19523619 0.088183038
0.48385534 0.19483708 0.08817669
0.4835445 0.19443797 0.088170335
0.48401198 0.19354527 0.087767109
0.48370048 0.1931453 0.087760739
0.48338896 0.19274534 0.087754376
0.48385379 0.19184926 0.087351106
0.48354161 0.19144845 0.087344728
0.48400447 0.19054979 0.086941406
0.48369163 0.19014813 0.086935014
0.4833788 0.18974647 0.086928621
0.48306596 0.18934479 0.086922221
0.48352548 0.18844192 0.086518846
0.48321196 0.18803939 0.086512439
0.48366955 0.18713394 0.086109012
0.48335537 0.18673056 0.08610259
0.4830412 0.1863272 0.086096168
0.48272705 0.18592383 0.086089745
0.48241287 0.18552047 0.08608333
0.4820987 0.1851171 0.086076908
0.48178452 0.18471372 0.086070485
0.48147038 0.18431036 0.086064063
0.4811562 0.18390699 0.086057641
0.48160711 0.18299304 0.085654087
0.48129228 0.18258882 0.085647658
0.48097745 0.18218461 0.08564122
0.4814257 0.18126725 0.085237615
0.48111022 0.18086217 0.08523117
0.48079473 0.1804571 0.085224718
0.48124036 0.17953633 0.084821045
0.48092422 0.17913041 0.084814586
0.48136783 0.1782071 0.084410883
0.481051 0.17780033 0.084404409
0.48149267 0.17687444 0.084000655
0.48193297 0.17594688 0.083596885
0.48161483 0.17553841 0.083590381
0.48205319 0.17460826 0.083186559
0.48173437 0.17419894 0.08318004
0.4821707 0.17326626 0.082776196
0.48185122 0.17285609 0.082769662
0.48153177 0.17244591 0.082763135
0.48121229 0.17203574 0.082756609
0.48164532 0.1710988 0.082352683
0.48207703 0.17016016 0.081948727
0.48175624 0.16974828 0.081942171
0.48218593 0.16880709 0.081538185
0.48261434 0.16786419 0.081134163
0.48229221 0.16745061 0.081127577
0.48271862 0.16650517 0.080723524
0.48239583 0.16609074 0.080716923
0.48282024 0.16514273 0.080312818
0.4824968 0.16472745 0.08030621
0.48217335 0.16431217 0.080299601
0.48259512 0.16336077 0.079895452
0.48227099 0.16294464 0.079888828
0.48269075 0.16199069 0.079484634
0.482366 0.16157371 0.079477996
0.48278379 0.16061719 0.079073757
0.48245835 0.16019936 0.079067104
0.48287413 0.15924031 0.078662835
0.48254803 0.15882161 0.078656167
0.48296186 0.15786 0.078251846
0.48263508 0.15744045 0.07824517
0.48304689 0.15647629 0.077840813
0.48419532 0.15496494 0.077038735
0.48460382 0.15399653 0.076634318
0.48427439 0.15357359 0.076627582
0.48468092 0.1526026 0.076223113
0.48508611 0.15162992 0.075818628
0.48548996 0.15065555 0.075414114
0.48515856 0.15023006 0.075407341
0.48556048 0.1492531 0.07500276
0.48522842 0.14882676 0.074995972
0.48489636 0.14840041 0.074989185
0.48456427 0.14797407 0.074982397
0.48496285 0.14699289 0.074577779
0.48463011 0.14656569 0.074570976
0.48429739 0.1461385 0.074564174
0.48323604 0.1462687 0.074955255
0.48363194 0.1452841 0.074550577
0.4832992 0.14485691 0.074543774
0.4851464 0.14274989 0.073343225
0.49686894 0.12943533 0.065740079
0.49724364 0.12842351 0.065334968
0.49905968 0.12627649 0.064133778
0.49943045 0.12525953 0.063728563
0.50051981 0.12367246 0.062925294
0.50088722 0.12265129 0.062520035
0.49909726 0.12333887 0.063308984
0.49874598 0.12288784 0.063301809
0.49911204 0.12186497 0.06289652
0.49947679 0.12084039 0.062491205
0.50055629 0.11924051 0.061687708
0.48384416 0.1996043 0.08895047
0.48353529 0.19920774 0.088944159
0.48400977 0.19832468 0.088540092
0.48370025 0.19792727 0.088533767
0.48417273 0.19704163 0.088129647
0.48386255 0.19664337 0.088123307
0.48355237 0.19624512 0.088116966
0.4840222 0.19535609 0.087712802
0.48371133 0.19495697 0.087706447
0.48340049 0.19455786 0.087700099
0.48308963 0.19415875 0.087693743
0.48277879 0.19375964 0.087687388
0.48324466 0.19286551 0.087283134
0.48293313 0.19246553 0.087276764
0.48339701 0.19156885 0.086872481
0.48308483 0.19116804 0.086866103
0.4835467 0.1902688 0.086461768
0.48323387 0.18986712 0.086455375
0.48292103 0.18946546 0.086448975
0.48338026 0.18856283 0.086044602
0.48306674 0.18816032 0.086038195
0.48352399 0.18725511 0.085633762
0.48320985 0.18685174 0.08562734
0.48289567 0.18644838 0.085620917
0.4825815 0.18604501 0.085614495
0.48226732 0.18564165 0.085608073
0.48195317 0.18523827 0.085601658
0.481639 0.1848349 0.085595235
0.48132482 0.18443154 0.085588813
0.48101068 0.18402816 0.08558239
0.48146126 0.18311447 0.085177839
0.48114643 0.18271025 0.085171402
0.48083162 0.18230604 0.085164972
0.48127955 0.18138893 0.08476036
0.48096406 0.18098386 0.084753908
0.48064858 0.1805788 0.084747463
0.48109391 0.17965826 0.084342785
0.48077774 0.17925236 0.084336326
0.4804616 0.17884643 0.084329866
0.48090425 0.17792252 0.083925143
0.48134559 0.17699689 0.08352039
0.48102811 0.17658927 0.083513901
0.48146746 0.1756611 0.083109111
0.48190549 0.17473122 0.082704291
0.48158669 0.1743219 0.082697771
0.48126787 0.17391257 0.08269126
0.48170325 0.17297931 0.082286388
0.48138377 0.17256913 0.082279861
0.48106429 0.17215896 0.082273334
0.48149702 0.17122228 0.08186841
0.48192841 0.17028388 0.081463449
0.48160762 0.16987202 0.081456892
0.48203704 0.16893108 0.081051901
0.48171556 0.16851835 0.081045337
0.48214298 0.16757485 0.080640294
0.48182088 0.16716127 0.080633707
0.48224631 0.16621524 0.080228642
0.48192352 0.16580081 0.08022204
0.48234695 0.1648522 0.079816923
0.48202351 0.16443692 0.079810314
0.48170006 0.16402164 0.079803698
0.48212084 0.16306965 0.079398535
0.48179674 0.16265352 0.079391912
0.48147264 0.16223739 0.079385288
0.48189077 0.16128199 0.078980066
0.48156598 0.16086501 0.078973427
0.48198214 0.15990704 0.078568161
0.48239696 0.15894739 0.078162871
0.48207086 0.1585287 0.078156203
0.48248371 0.15756649 0.077750869
0.48289523 0.15660258 0.077345513
0.48404303 0.15509175 0.076541424
0.4844512 0.15412357 0.076136008
0.4841218 0.15370063 0.076129273
0.48452803 0.15272991 0.075723797
0.4849329 0.15175749 0.075318307
0.48533645 0.15078337 0.074912786
0.48500505 0.15035789 0.074906014
0.48540664 0.14938118 0.074500434
0.48507458 0.14895484 0.074493647
0.48474252 0.14852849 0.074486867
0.48441046 0.14810215 0.074480079
0.48480871 0.14712122 0.074074455
0.48447597 0.14669403 0.074067652
0.48414326 0.14626683 0.07406085
0.48308221 0.14639677 0.074452929
0.48493311 0.14429647 0.073249459
0.48459905 0.14386758 0.073242635
0.48499134 0.14287899 0.072836891
0.49123079 0.13596725 0.068826683
0.49161312 0.13496591 0.068420738
0.49560928 0.13114312 0.066019796
0.49670804 0.12956929 0.065214694
0.49708244 0.12855773 0.064808585
0.49961862 0.12584494 0.063205332
0.50070876 0.12426008 0.06240008
0.50035679 0.12380821 0.06239289
0.49856678 0.12449443 0.063183837
0.49893454 0.12347436 0.062777586
0.49858323 0.12302334 0.062770404
0.49894902 0.12200072 0.062364116
0.49859706 0.12154884 0.062356923
0.49896085 0.12052366 0.061950594
0.50003839 0.1189226 0.061145063
0.48370108 0.19972342 0.088483237
0.48339224 0.19932687 0.088476926
0.48386639 0.19844407 0.08807186
0.48355687 0.19804665 0.088065535
0.48402905 0.19716127 0.08766041
0.48371887 0.19676301 0.087654069
0.48340866 0.19636476 0.087647729
0.48309848 0.1959665 0.087641388
0.48356733 0.19507688 0.087236211
0.48325649 0.19467777 0.087229855
0.48294562 0.19427866 0.087223507
0.48263478 0.19387954 0.087217152
0.48310035 0.19298565 0.086811893
0.48278883 0.19258569 0.08680553
0.48247731 0.19218573 0.08679916
0.4829402 0.19128846 0.086393856
0.48262802 0.19088764 0.086387478
0.48308894 0.18998779 0.085982122
0.48277611 0.18958613 0.085975729
0.48323503 0.18868375 0.08557035
0.48292151 0.18828124 0.085563943
0.48337847 0.18737629 0.085158512
0.48306429 0.18697292 0.08515209
0.48275015 0.18656956 0.085145667
0.48243597 0.18616618 0.085139245
0.4821218 0.18576281 0.085132822
0.48180762 0.18535945 0.085126407
0.48149347 0.18495607 0.085119985
0.4811793 0.18455271 0.085113563
0.48086512 0.18414934 0.08510714
0.48055094 0.18374598 0.085100718
0.4810006 0.18283169 0.084695145
0.48068577 0.18242747 0.084688716
0.48037094 0.18202324 0.084682278
0.48081791 0.18110555 0.084276654
0.48050243 0.18070048 0.084270202
0.48018694 0.18029541 0.084263757
0.48063129 0.17937429 0.083858065
0.48031515 0.17896837 0.083851606
0.48075747 0.17804472 0.083445884
0.48119852 0.17711934 0.083040126
0.48088104 0.17671172 0.083033636
0.48132008 0.17578381 0.082627848
0.48100194 0.17537534 0.082621343
0.48143899 0.17444487 0.082215503
0.4811202 0.17403553 0.082208984
0.48155525 0.17310253 0.081803121
0.48123577 0.17269234 0.081796587
0.48091632 0.17228217 0.08179006
0.48134872 0.17134576 0.081384137
0.48102859 0.17093474 0.081377588
0.48145902 0.16999574 0.080971614
0.48113823 0.16958387 0.080965057
0.48156664 0.16864234 0.080559053
0.48124519 0.16822961 0.080552481
0.48167166 0.16728552 0.080146432
0.48134953 0.16687194 0.080139846
0.48102742 0.16645835 0.080133259
0.48145121 0.16551088 0.079727158
0.48112842 0.16509645 0.079720564
0.48080564 0.16468202 0.079713963
0.4812268 0.16373111 0.079307802
0.48090333 0.16331583 0.079301193
0.4813225 0.1623624 0.078894995
0.48099837 0.16194627 0.078888372
0.48141554 0.16099027 0.078482136
0.4818314 0.16003257 0.078075863
0.48150596 0.15961473 0.07806921
0.4819198 0.15865448 0.077662908
0.48233235 0.15769252 0.077256568
0.48348153 0.15618475 0.076450519
0.48315343 0.15576351 0.076443814
0.48429862 0.15425064 0.075637691
0.48396921 0.1538277 0.075630963
0.48437512 0.15285721 0.075224482
0.48477969 0.15188506 0.074817993
0.48518294 0.1509112 0.074411467
0.48485154 0.15048571 0.074404694
0.48525283 0.14950927 0.073998116
0.48492077 0.14908291 0.073991328
0.48458868 0.14865658 0.073984541
0.48425663 0.14823022 0.073977754
0.48465458 0.14724955 0.073571123
0.48432183 0.14682236 0.073564328
0.48326045 0.1469512 0.073957391
0.48438442 0.14541109 0.073150843
0.48477837 0.14442532 0.072744131
0.48444432 0.14399642 0.072737306
0.48483628 0.1430081 0.072330557
0.4924807 0.13641515 0.067924343
0.49213871 0.13597603 0.067917354
0.49579498 0.13172078 0.065503486
0.49544901 0.13127656 0.065496415
0.49654716 0.12970324 0.064689316
0.49692124 0.12869194 0.064282201
0.49873543 0.12654646 0.063074991
0.49910557 0.12553 0.062667772
0.49875498 0.12507984 0.062660605
0.49912307 0.12406088 0.062253367
0.49877179 0.12360986 0.062246185
0.49913791 0.12258834 0.06183891
0.49878597 0.12213646 0.061831716
0.49843404 0.12168459 0.061824523
0.49879751 0.12065966 0.061417188
0.49773014 0.12078084 0.061810136
0.483558 0.19984256 0.088016011
0.48324916 0.19944601 0.0880097
0.48294029 0.19904944 0.088003382
0.48341346 0.19816604 0.087597296
0.48310393 0.19776863 0.08759097
0.48357517 0.19688265 0.087184832
0.48326498 0.1964844 0.087178491
0.48295477 0.19608614 0.087172158
0.48264459 0.19568788 0.087165818
0.48233441 0.19528961 0.087159477
0.48280162 0.19439855 0.086753264
0.48249078 0.19399944 0.086746909
0.48217991 0.19360033 0.086740561
0.48264453 0.19270584 0.086334288
0.482333 0.19230588 0.086327918
0.4827956 0.19140886 0.085921615
0.48248342 0.19100805 0.085915238
0.48294404 0.19010846 0.085508876
0.48263118 0.18970679 0.085502483
0.4830898 0.18880467 0.085096098
0.48277628 0.18840216 0.085089691
0.48323295 0.18749747 0.084683254
0.48291877 0.18709409 0.084676832
0.48260459 0.18669073 0.084670417
0.48229042 0.18628736 0.084663995
0.48197627 0.18588398 0.084657572
0.48166209 0.18548062 0.08465115
0.48134792 0.18507725 0.084644727
0.48103377 0.18467389 0.084638312
0.4807196 0.18427052 0.08463189
0.48040542 0.18386716 0.084625468
0.48009124 0.18346378 0.084619045
0.48053992 0.1825489 0.08421246
0.48022509 0.18214467 0.084206022
0.48067176 0.18122724 0.083799399
0.48035628 0.18082216 0.083792947
0.48004079 0.18041709 0.083786502
0.48048484 0.17949623 0.083379805
0.48016867 0.17909031 0.083373345
0.48061073 0.17816691 0.082966618
0.4802939 0.17776014 0.082960144
0.48073396 0.17683418 0.082553372
0.48041648 0.17642656 0.082546882
0.48085454 0.17549805 0.082140081
0.48129132 0.17456783 0.081733234
0.4809725 0.1741585 0.081726715
0.48140725 0.17322575 0.081319846
0.48108777 0.17281558 0.081313312
0.48076832 0.17240539 0.081306785
0.48120043 0.17146924 0.080899857
0.48088029 0.17105821 0.080893315
0.4813104 0.17011948 0.080486335
0.48098961 0.1697076 0.080479786
0.48066881 0.16929571 0.080473229
0.48109627 0.1683536 0.080066204
0.48077482 0.16794087 0.080059633
0.48045337 0.16752814 0.080053061
0.48087817 0.1665826 0.079645976
0.48055607 0.16616902 0.079639398
0.48097888 0.16522095 0.079232275
0.48065609 0.16480651 0.079225682
0.48107696 0.16385587 0.078818515
0.48075351 0.16344059 0.078811899
0.48117235 0.1624874 0.078404702
0.48084825 0.16207127 0.078398079
0.48052412 0.16165514 0.078391455
0.48094031 0.16069856 0.077984199
0.48135522 0.15974025 0.077576913
0.48176876 0.15878026 0.077169605
0.48218098 0.15781856 0.076762266
0.48259187 0.15685517 0.076354906
0.48226446 0.15643477 0.076348208
0.4834097 0.15492325 0.075540088
0.48381659 0.15395474 0.075132646
0.4842222 0.15298453 0.074725166
0.48462647 0.15201263 0.074317671
0.48429573 0.15158799 0.074310914
0.484698 0.15061353 0.073903374
0.48509899 0.14963734 0.07349579
0.48476693 0.14921099 0.073489003
0.48443487 0.14878465 0.073482215
0.48410282 0.1483583 0.073475428
0.48523015 0.14682382 0.072666958
0.48489675 0.14639577 0.072660141
0.48456335 0.14596772 0.072653331
0.48422998 0.14553969 0.072646514
0.48462361 0.14455417 0.072238803
0.48428956 0.14412527 0.072231971
0.48540699 0.14257799 0.07142327
0.4879719 0.13990724 0.069812641
0.49308571 0.13454539 0.066591069
0.49418858 0.13297938 0.06578207
0.49528873 0.13141002 0.064973034
0.49638626 0.1298372 0.064163931
0.49676004 0.12882616 0.06375581
0.49929377 0.12611541 0.06214454
0.49822336 0.12623212 0.062538445
0.49859256 0.12521507 0.062130209
0.49896035 0.12419637 0.061721966
0.49860907 0.12374534 0.061714787
0.49897489 0.12272409 0.061306506
0.49862292 0.12227221 0.061299313
0.49827099 0.12182034 0.061292119
0.49863416 0.12079567 0.060883783
0.49756709 0.12091658 0.061277732
0.49721515 0.12046471 0.061270539
0.48341492 0.19996169 0.087548777
0.48310608 0.19956513 0.087542467
0.48279721 0.19916856 0.087536156
0.48248833 0.19877201 0.087529846
0.48296055 0.19788802 0.087122738
0.48265103 0.1974906 0.087116413
0.4823415 0.19709319 0.087110087
0.48281109 0.19620578 0.08670292
0.48250091 0.19580752 0.08669658
0.4821907 0.19540925 0.08669024
0.48265761 0.19451845 0.086283028
0.48234677 0.19411933 0.086276673
0.48203591 0.19372022 0.086270325
0.4825002 0.192826 0.085863046
0.4821887 0.19242603 0.085856676
0.48265097 0.19152927 0.085449368
0.48233879 0.19112846 0.08544299
0.48279911 0.19022912 0.08503563
0.48248625 0.18982746 0.085029237
0.48217341 0.1894258 0.085022844
0.48263106 0.18852307 0.084615447
0.48308739 0.18761864 0.084208004
0.48277324 0.18721527 0.084201582
0.48245907 0.18681191 0.084195159
0.48214489 0.18640853 0.084188744
0.48183072 0.18600516 0.084182322
0.48151657 0.1856018 0.0841759
0.48120239 0.18519843 0.084169477
0.48088822 0.18479507 0.084163055
0.48057404 0.18439169 0.08415664
0.4802599 0.18398833 0.084150217
0.47994572 0.18358496 0.084143795
0.48039407 0.18267033 0.083736204
0.48007923 0.1822661 0.083729774
0.48052561 0.18134892 0.083322138
0.48021013 0.18094385 0.083315693
0.47989464 0.18053879 0.083309241
0.47957915 0.18013372 0.083302796
0.48002222 0.17921226 0.082895085
0.48046395 0.17828912 0.08248736
0.48014712 0.17788234 0.082480885
0.47983032 0.17747557 0.082474411
0.48026943 0.176549 0.082066618
0.48070717 0.17562076 0.08165881
0.48038903 0.17521229 0.081652306
0.48082483 0.17428148 0.081244446
0.480506 0.17387214 0.081237935
0.48093981 0.17293879 0.080830045
0.48062032 0.17252861 0.080823511
0.48030084 0.17211844 0.080816984
0.48073199 0.17118168 0.080409043
0.48041186 0.17077066 0.080402501
0.48084101 0.16983134 0.079994507
0.48052022 0.16941945 0.079987951
0.48019943 0.16900757 0.079981394
0.4806259 0.16806486 0.079573356
0.48030445 0.16765213 0.079566784
0.48072895 0.16670685 0.079158694
0.48040685 0.16629326 0.079152115
0.48082936 0.16534545 0.078743994
0.48050657 0.16493101 0.078737393
0.48092711 0.16398062 0.07832922
0.48060367 0.16356534 0.078322612
0.48102221 0.16261242 0.077914409
0.48069811 0.16219628 0.077907786
0.48037398 0.16178015 0.077901162
0.48078987 0.16082382 0.077492908
0.48046508 0.16040684 0.077486269
0.48087901 0.15944794 0.077077962
0.48129159 0.15848735 0.076669641
0.48170286 0.15752505 0.076261282
0.48211277 0.15656106 0.075852908
0.48178536 0.15614067 0.075846218
0.48366401 0.15408181 0.074634336
0.48406932 0.15311185 0.07422585
0.48373923 0.15268806 0.074219108
0.48414251 0.15171555 0.073810592
0.4838118 0.15129091 0.073803835
0.48421308 0.15031585 0.073395282
0.48461312 0.14933906 0.072986685
0.48428103 0.14891273 0.072979897
0.48394898 0.14848638 0.07297311
0.48215809 0.1491677 0.073770039
0.48255607 0.1481884 0.073361419
0.48222467 0.14776289 0.073354647
0.48407552 0.14566827 0.072142184
0.48446888 0.144683 0.071733467
0.48597705 0.14214842 0.070514008
0.48747727 0.13960363 0.069294386
0.49041507 0.13592397 0.067270629
0.49512845 0.13154346 0.06444966
0.49622539 0.12997116 0.063638546
0.49659884 0.12896037 0.063229427
0.49841121 0.12681642 0.062016204
0.49878073 0.12580048 0.061606977
0.4984301 0.12535031 0.061599813
0.49879763 0.12433186 0.061190568
0.49844635 0.12388083 0.061183386
0.49881184 0.12285983 0.060774103
0.49917603 0.12183712 0.06036479
0.4988234 0.1213844 0.060357586
0.49847081 0.12093167 0.060350377
0.49740404 0.12105233 0.060745332
0.4970521 0.12060046 0.060738139
0.482963 0.19968426 0.087075233
0.48265412 0.1992877 0.087068923
0.48234525 0.19889113 0.087062612
0.48281717 0.1980074 0.086654507
0.48250765 0.19760999 0.086648181
0.48219812 0.19721258 0.086641856
0.48188859 0.19681516 0.08663553
0.4823572 0.19592716 0.086227342
0.48204702 0.19552889 0.086221002
0.48173681 0.19513063 0.086214662
0.48220277 0.19423923 0.085806437
0.48189193 0.19384012 0.085800081
0.48158106 0.193441 0.085793726
0.48204437 0.19254619 0.085385434
0.48173288 0.19214623 0.085379072
0.48219419 0.19124886 0.08497075
0.48188201 0.19084805 0.084964365
0.48234135 0.18994813 0.084555991
0.48202848 0.18954645 0.084549598
0.48248583 0.18864399 0.084141195
0.48217234 0.18824148 0.084134787
0.48262769 0.18733644 0.083726332
0.48231351 0.18693307 0.083719909
0.48199937 0.18652971 0.083713487
0.48168519 0.18612634 0.083707072
0.48137102 0.18572298 0.083700649
0.48105684 0.1853196 0.083694227
0.48074269 0.18491624 0.083687805
0.48042852 0.18451287 0.083681382
0.48011434 0.18410951 0.083674967
0.47980019 0.18370613 0.083668545
0.48024824 0.18279175 0.083259955
0.47993341 0.18238755 0.083253518
0.48037946 0.1814706 0.082844883
0.48006397 0.18106554 0.082838431
0.47974849 0.18066047 0.082831986
0.479433 0.1802554 0.082825541
0.47987577 0.17933419 0.082416825
0.48031718 0.17841132 0.082008094
0.48000038 0.17800455 0.082001619
0.47968355 0.17759778 0.081995144
0.48012236 0.17667146 0.081586353
0.4805598 0.17574348 0.08117754
0.48024166 0.175335 0.081171036
0.48067713 0.17440444 0.080762178
0.48035833 0.17399511 0.080755658
0.48003951 0.17358579 0.080749147
0.48047233 0.17265184 0.080340244
0.48015285 0.17224166 0.08033371
0.47983339 0.17183149 0.080327183
0.48026356 0.17089413 0.079918221
0.47994342 0.17048311 0.079911679
0.47962329 0.17007208 0.079905137
0.4800508 0.16913131 0.079496115
0.47973001 0.16871943 0.079489559
0.48015553 0.16777612 0.0790805
0.47983408 0.16736339 0.079073936
0.48025763 0.16641751 0.078664824
0.48067984 0.16546994 0.078255706
0.48035705 0.16505551 0.078249112
0.48003426 0.16464108 0.078242511
0.48045385 0.16369011 0.077833325
0.4801304 0.16327481 0.077826716
0.48054796 0.1623213 0.0774175
0.48022383 0.16190517 0.077410869
0.47989973 0.16148902 0.077404246
0.48031464 0.1605321 0.076994978
0.47998989 0.16011512 0.076988339
0.48040283 0.15915562 0.076579019
0.48081443 0.15819444 0.076169677
0.48122472 0.15723154 0.075760305
0.48163366 0.15626696 0.07535091
0.48277637 0.15475476 0.074538752
0.48318198 0.15378591 0.074129291
0.48285258 0.15336297 0.074122563
0.48325625 0.15239157 0.073713049
0.48365858 0.15141848 0.073303521
0.48405957 0.15044367 0.072893962
0.48372817 0.15001819 0.07288719
0.48266634 0.15014455 0.07328324
0.48452491 0.14806175 0.072067946
0.48419216 0.14763455 0.072061151
0.48458788 0.14665295 0.071651489
0.48425448 0.1462249 0.071644671
0.48392108 0.14579687 0.071637861
0.48358768 0.14536881 0.071631044
0.48543164 0.14326729 0.07041546
0.4858214 0.14227803 0.07000567
0.48732069 0.139734 0.068783037
0.48770577 0.13873878 0.068373159
0.49459171 0.13268319 0.064336337
0.49568996 0.13111399 0.063523278
0.49606448 0.13010511 0.06311316
0.49715811 0.12852995 0.062300012
0.49680948 0.12808233 0.062292885
0.4986183 0.12593572 0.061076581
0.49826768 0.12548554 0.061069414
0.49863487 0.12446735 0.060659166
0.49828359 0.12401633 0.060651988
0.49864879 0.12299558 0.060241703
0.49901268 0.12197313 0.059831388
0.49937528 0.12094894 0.059421025
0.49902201 0.12049536 0.059413806
0.49795485 0.12061495 0.059809767
0.49760225 0.12016223 0.059802562
0.49867469 0.1185598 0.058988955
0.4976089 0.11868106 0.059384923
0.48281991 0.1998034 0.086608008
0.48251104 0.19940683 0.086601697
0.48220217 0.19901027 0.086595379
0.48267376 0.19812678 0.086186275
0.48236424 0.19772938 0.086179949
0.48205471 0.19733196 0.086173624
0.48174518 0.19693455 0.086167291
0.4822135 0.1960468 0.085758105
0.48190331 0.19564854 0.085751764
0.48159313 0.19525027 0.085745431
0.48205876 0.19435912 0.085336201
0.48174793 0.19396001 0.085329846
0.48143706 0.1935609 0.08532349
0.48190007 0.19266634 0.084914193
0.48158857 0.19226637 0.08490783
0.48204955 0.19136928 0.084498502
0.48173738 0.19096845 0.084492125
0.48219642 0.19006878 0.084082745
0.48188359 0.18966712 0.084076352
0.48157072 0.18926546 0.08406996
0.48202708 0.18836239 0.083660543
0.48171359 0.18795988 0.083654135
0.4814001 0.18755737 0.083647728
0.48108658 0.18715484 0.08364132
0.48077309 0.18675233 0.083634913
0.48045957 0.18634981 0.083628505
0.48091131 0.18544078 0.083218977
0.48059714 0.18503742 0.083212554
0.48028299 0.18463404 0.083206132
0.47996882 0.18423069 0.083199717
0.47965464 0.18382731 0.083193295
0.48010239 0.18291318 0.082783699
0.47978756 0.18250898 0.082777262
0.47947273 0.18210475 0.082770832
0.47991782 0.18118723 0.082361177
0.47960234 0.18078215 0.082354732
0.47928685 0.18037708 0.08234828
0.47972929 0.17945614 0.081938565
0.48017043 0.17853351 0.081528835
0.4798536 0.17812674 0.08152236
0.4795368 0.17771997 0.081515886
0.47997528 0.17679392 0.081106089
0.4796578 0.1763863 0.0810996
0.48009428 0.1754577 0.080689773
0.47977611 0.17504923 0.080683269
0.47945797 0.17464076 0.080676764
0.47989184 0.17370875 0.080266878
0.47957301 0.17329943 0.080260359
0.47925422 0.1728901 0.080253847
0.4796854 0.17195471 0.079843909
0.47936592 0.17154454 0.079837382
0.47904646 0.17113435 0.079830848
0.47947499 0.17019555 0.079420865
0.47990221 0.16925503 0.079010837
0.47958142 0.16884317 0.07900428
0.48000661 0.1679001 0.078594223
0.47968516 0.16748738 0.078587651
0.48010841 0.16654176 0.078177541
0.47978628 0.16612817 0.078170963
0.48020753 0.16518001 0.077760823
0.47988474 0.16476558 0.077754229
0.47956195 0.16435115 0.077747628
0.47923917 0.16393672 0.077741034
0.47965711 0.1629843 0.077330813
0.47933367 0.162569 0.077324204
0.47974959 0.16161405 0.07691396
0.4801642 0.16065738 0.076503687
0.47983941 0.16024038 0.076497048
0.48025206 0.15928115 0.076086722
0.47992665 0.15886331 0.076080069
0.48033726 0.15790154 0.075669721
0.4807466 0.15693805 0.07525932
0.48041981 0.1565185 0.075252645
0.4822953 0.15445948 0.074034721
0.48269999 0.15349004 0.073624246
0.48237059 0.1530671 0.07361751
0.48204115 0.15264416 0.073610783
0.48317462 0.15112141 0.072796442
0.48211312 0.1512475 0.073193491
0.48397338 0.14916888 0.071975246
0.48364133 0.14874254 0.071968466
0.48330927 0.14831619 0.071961679
0.48370531 0.14733569 0.071551025
0.48264512 0.1474635 0.071948104
0.48303986 0.14648131 0.07153742
0.48343325 0.1454974 0.071126714
0.48382533 0.1445118 0.070715979
0.48421606 0.1435245 0.070305221
0.48532969 0.14197619 0.069490463
0.48571712 0.14098464 0.069079638
0.49477705 0.13325974 0.063821018
0.49443173 0.13281637 0.063813962
0.49336493 0.13293567 0.064210907
0.49590361 0.13023907 0.062587775
0.49771678 0.12810007 0.061368592
0.49880651 0.12652113 0.06055335
0.49845588 0.12607096 0.060546186
0.49810526 0.12562078 0.060539018
0.49918967 0.12403508 0.059723686
0.49812087 0.12415182 0.06012059
0.49848577 0.12313133 0.059709299
0.49956492 0.12153877 0.058893841
0.50064135 0.11994285 0.058078345
0.49885836 0.12063162 0.058879398
0.49850509 0.12017804 0.058872178
0.49743891 0.12029823 0.059269156
0.49708629 0.1198455 0.059261948
0.48267683 0.19992252 0.086140774
0.48236796 0.19952597 0.086134464
0.48205909 0.1991294 0.086128153
0.48253039 0.19824617 0.085718043
0.48222086 0.19784877 0.08571171
0.48191133 0.19745135 0.085705385
0.4816018 0.19705394 0.085699059
0.48206982 0.19616644 0.085288875
0.48175964 0.19576818 0.085282534
0.48144943 0.19536991 0.085276194
0.48191476 0.19447903 0.084865957
0.48160392 0.19407991 0.08485961
0.48129305 0.19368079 0.084853254
0.48175576 0.19278648 0.084442958
0.48144424 0.19238652 0.084436588
0.48190495 0.19148968 0.084026262
0.48159277 0.19108887 0.084019877
0.48205149 0.19018945 0.083609499
0.48173866 0.18978779 0.083603106
0.48142582 0.18938611 0.083596714
0.48188186 0.18848331 0.083186291
0.48156837 0.1880808 0.083179884
0.48125485 0.18767829 0.083173476
0.48094136 0.18727577 0.083167069
0.48062783 0.18687326 0.083160661
0.48031434 0.18647073 0.083154254
0.48076579 0.18556195 0.082743727
0.48045161 0.1851586 0.082737304
0.48013744 0.18475522 0.082730882
0.47982329 0.18435185 0.082724459
0.47950912 0.18394849 0.082718045
0.47995654 0.18303461 0.082307443
0.47964171 0.1826304 0.082301006
0.47932687 0.18222618 0.082294576
0.47977167 0.18130891 0.081883922
0.47945619 0.18090384 0.08187747
0.4791407 0.18049878 0.081871025
0.47958285 0.17957808 0.081460305
0.4792667 0.17917216 0.081453845
0.47970685 0.17824894 0.081043102
0.47939003 0.17784217 0.08103662
0.4790732 0.1774354 0.081030145
0.47951072 0.17650875 0.080619335
0.47919324 0.17610112 0.080612846
0.47887576 0.1756935 0.080606356
0.4793106 0.17476347 0.080195501
0.47899246 0.174355 0.080188997
0.47867432 0.17394651 0.080182493
0.47910655 0.17301306 0.079771571
0.47878772 0.17260374 0.079765059
0.47921795 0.17166775 0.079354107
0.47889847 0.17125757 0.079347581
0.47857898 0.1708474 0.079341047
0.47975358 0.16937877 0.078525558
0.47943279 0.16896689 0.078519002
0.479112 0.16855502 0.078512445
0.47953624 0.16761136 0.078101374
0.47921479 0.16719864 0.078094803
0.47963706 0.16625242 0.077683672
0.47931495 0.16583884 0.077677093
0.4797352 0.16489008 0.077265941
0.47941244 0.16447565 0.077259347
0.47908965 0.16406122 0.077252746
0.47876686 0.16364679 0.077246152
0.47918382 0.16269377 0.076834917
0.47886038 0.16227847 0.076828308
0.47927535 0.16132292 0.076417044
0.47968897 0.16036566 0.076005749
0.48010132 0.15940666 0.075594425
0.47977588 0.15898883 0.075587772
0.48018619 0.15802731 0.075176418
0.4798601 0.15760863 0.07516975
0.48026845 0.15664454 0.074758343
0.4799417 0.156225 0.074751668
0.47961494 0.15580547 0.074744985
0.48221797 0.15319414 0.073119201
0.48188856 0.1527712 0.073112473
0.48155916 0.15234827 0.073105738
0.48342112 0.15027383 0.07188455
0.48308972 0.14984834 0.071877778
0.48348749 0.14887062 0.07146614
0.48315543 0.14844427 0.071459353
0.48282337 0.14801793 0.071452565
0.48321846 0.14703684 0.071040899
0.48288572 0.14660963 0.071034096
0.48255301 0.14618245 0.071027294
0.48367059 0.14464064 0.070210651
0.48406103 0.1436536 0.069798887
0.48372629 0.14322385 0.069792047
0.4841148 0.14223421 0.069380216
0.48594692 0.14012149 0.068158433
0.49354994 0.13351113 0.063696578
0.49392647 0.13250621 0.063284531
0.49502215 0.13093632 0.062467434
0.49683511 0.1287989 0.061245233
0.49864408 0.12665637 0.060022954
0.49829346 0.12620619 0.060015786
0.49794284 0.12575603 0.060008619
0.49902663 0.12417082 0.059191283
0.49939123 0.12315058 0.05877899
0.49903861 0.12269786 0.058771785
0.50011647 0.12110496 0.057954304
0.50047708 0.12007962 0.057541929
0.4994086 0.12019611 0.057939839
0.50048113 0.11859645 0.057122268
0.49621105 0.12055583 0.059133738
0.48222488 0.19964509 0.08566723
0.48191601 0.19924854 0.08566092
0.48238701 0.19836555 0.085249804
0.48207748 0.19796814 0.085243478
0.48176795 0.19757074 0.085237153
0.48145843 0.19717333 0.085230827
0.4811489 0.19677591 0.085224502
0.48161593 0.19588782 0.084813297
0.48130575 0.19548956 0.084806956
0.48177078 0.19459893 0.084395722
0.48145992 0.19419982 0.084389366
0.48114905 0.1938007 0.084383018
0.48161146 0.19290665 0.083971716
0.48129994 0.19250669 0.083965346
0.48098841 0.19210671 0.083958983
0.48144814 0.19120927 0.083547637
0.48113596 0.19080846 0.083541252
0.48159373 0.18990844 0.08312986
0.48128089 0.18950678 0.083123468
0.48096806 0.18910512 0.083117075
0.48142314 0.18820173 0.082705632
0.48110962 0.1877992 0.082699224
0.48079613 0.18739669 0.082692817
0.48048261 0.18699417 0.082686409
0.48016912 0.18659166 0.082680002
0.48062024 0.18568313 0.082268476
0.48030609 0.18527977 0.082262054
0.47999191 0.1848764 0.082255632
0.47967774 0.18447302 0.082249209
0.47936356 0.18406966 0.082242787
0.47981071 0.18315606 0.081831187
0.47949588 0.18275183 0.08182475
0.47918105 0.18234761 0.08181832
0.47886622 0.1819434 0.081811883
0.47931004 0.18102553 0.081400216
0.47899455 0.18062046 0.081393771
0.4794364 0.17970003 0.080982044
0.47912022 0.17929411 0.080975585
0.47880408 0.17888819 0.080969125
0.47924325 0.17796436 0.080557361
0.47892645 0.17755759 0.080550887
0.47860962 0.17715082 0.080544412
0.47904617 0.17622358 0.080132581
0.47872868 0.17581595 0.080126092
0.47916323 0.17488618 0.079714231
0.47884509 0.17447771 0.079707734
0.47852695 0.17406923 0.07970123
0.47895885 0.17313603 0.079289302
0.47864005 0.17272671 0.07928279
0.47832122 0.17231739 0.079276271
0.47875047 0.1713808 0.078864306
0.47843099 0.17097062 0.07885778
0.47960499 0.1695025 0.078040279
0.4792842 0.16909063 0.078033723
0.4789634 0.16867875 0.078027166
0.47938734 0.16773535 0.07761509
0.47906587 0.16732262 0.077608518
0.47874442 0.16690989 0.077601954
0.47916573 0.16596308 0.077189811
0.47958568 0.16501458 0.076777652
0.47926289 0.16460015 0.076771058
0.4789401 0.16418572 0.076764457
0.47861731 0.16377129 0.076757863
0.47903398 0.16281852 0.07634563
0.47871053 0.16240324 0.076339021
0.47838709 0.16198796 0.076332405
0.4788011 0.1610318 0.075920127
0.47921374 0.16007394 0.07550782
0.47888899 0.15965696 0.075501181
0.48003513 0.15815309 0.074683115
0.48044384 0.15719011 0.074270718
0.48011708 0.15677057 0.074264042
0.47979033 0.15635103 0.074257366
0.47946358 0.1559315 0.074250683
0.47986895 0.15496428 0.073838226
0.48100448 0.15344679 0.073019944
0.48140654 0.15247533 0.072607428
0.48326761 0.15040165 0.07138323
0.4829362 0.14997616 0.071376458
0.4826048 0.14955066 0.071369685
0.48300162 0.14857236 0.070957035
0.48266953 0.148146 0.070950247
0.48306432 0.14716516 0.070537575
0.48273158 0.14673798 0.070530772
0.48239887 0.14631078 0.07052397
0.48206612 0.14588358 0.070517175
0.48318177 0.14434059 0.06969849
0.48284772 0.14391169 0.069691665
0.48540515 0.14124437 0.068060949
0.49301273 0.13464703 0.063588224
0.49266875 0.13420536 0.063581198
0.49376649 0.13263939 0.062762149
0.49414137 0.13163303 0.062349074
0.49739316 0.12836951 0.060311809
0.50063831 0.12509748 0.058274411
0.50028569 0.12464476 0.058267206
0.49993309 0.12419204 0.058259998
0.49958047 0.12373931 0.058252793
0.49922788 0.12328658 0.058245584
0.50102198 0.12112695 0.057020012
0.50066739 0.12067167 0.057012767
0.50031281 0.12021639 0.057005517
0.49924463 0.12033263 0.057404425
0.5003165 0.11873347 0.056584854
0.49924901 0.11885056 0.056983776
0.49675959 0.12011751 0.05819514
0.49640697 0.11966479 0.058187932
0.4820818 0.19976422 0.085200004
0.48177293 0.19936766 0.085193686
0.48224363 0.19848494 0.084781572
0.4819341 0.19808753 0.084775247
0.48162457 0.19769013 0.084768921
0.48131505 0.19729272 0.084762596
0.48100549 0.1968953 0.08475627
0.48147222 0.19600746 0.084344059
0.48116204 0.1956092 0.084337719
0.48162678 0.19471882 0.083925486
0.48131591 0.19431971 0.08391913
0.48100507 0.1939206 0.083912775
0.48146716 0.1930268 0.083500475
0.48115563 0.19262683 0.083494104
0.48084411 0.19222687 0.083487742
0.48130354 0.19132969 0.083075389
0.48099136 0.19092886 0.083069012
0.4814488 0.19002911 0.082656614
0.48113596 0.18962745 0.082650222
0.48082313 0.18922578 0.082643829
0.48127791 0.18832265 0.08223138
0.48096439 0.18792012 0.082224973
0.4806509 0.18751761 0.082218565
0.48033738 0.18711509 0.082212158
0.48002389 0.18671258 0.08220575
0.48047471 0.18580431 0.081793219
0.48016053 0.18540095 0.081786804
0.47984636 0.18499757 0.081780382
0.47953221 0.1845942 0.081773959
0.47921804 0.18419084 0.081767537
0.47890386 0.18378747 0.081761114
0.47935003 0.18287326 0.081348501
0.4790352 0.18246904 0.081342064
0.47872037 0.18206483 0.081335634
0.47916389 0.18114722 0.080922961
0.4788484 0.18074214 0.080916509
0.47928992 0.17982197 0.080503784
0.47897378 0.17941605 0.080497324
0.47865763 0.17901012 0.080490865
0.4790965 0.17808656 0.080078095
0.47877967 0.17767979 0.080071621
0.47846285 0.17727302 0.080065146
0.47889909 0.17634603 0.079652317
0.47858161 0.17593841 0.079645827
0.47901586 0.17500889 0.079232968
0.47869772 0.17460041 0.079226464
0.47837955 0.17419194 0.07921996
0.47881117 0.17325899 0.078807034
0.47849235 0.17284967 0.078800514
0.47817355 0.17244035 0.078794003
0.47860247 0.17150402 0.078381032
0.47828302 0.17109384 0.078374505
0.47870994 0.17015496 0.077961497
0.47913557 0.16921435 0.077548444
0.47881478 0.16880248 0.077541888
0.47923842 0.16785935 0.077128813
0.47891697 0.16744661 0.077122241
0.4785955 0.16703388 0.07711567
0.47901651 0.16608733 0.076702528
0.47869438 0.16567375 0.076695941
0.47911337 0.16472465 0.076282769
0.47879058 0.16431022 0.076276176
0.47846779 0.16389579 0.076269582
0.47888416 0.16294327 0.075856335
0.47856072 0.16252799 0.075849727
0.47823727 0.16211271 0.075843118
0.47865096 0.1611568 0.075429834
0.47832683 0.16074067 0.075423211
0.47873855 0.15978222 0.07500989
0.47841376 0.15936524 0.075003251
0.47882348 0.1584042 0.074589878
0.47996572 0.15689661 0.073769741
0.47963896 0.15647706 0.073763065
0.47931218 0.15605754 0.073756382
0.48191279 0.15344825 0.072122574
0.48085219 0.1535736 0.072522633
0.48271498 0.1515041 0.071295485
0.48311409 0.15052947 0.070881911
0.48278269 0.15010399 0.070875138
0.48245129 0.14967848 0.070868365
0.48284778 0.14870043 0.070454709
0.48251572 0.14827408 0.070447922
0.48218367 0.14784774 0.070441134
0.48257747 0.14686631 0.070027448
0.48151952 0.14699505 0.070427559
0.48118746 0.1465687 0.070420772
0.48157927 0.14558472 0.070007049
0.48124656 0.14515752 0.070000246
0.49250939 0.13433804 0.063060828
0.49360651 0.13277258 0.062239777
0.49398109 0.13176647 0.061825696
0.49723133 0.12850423 0.059783418
0.50047499 0.12523349 0.057741009
0.50012237 0.12478077 0.0577338
0.49905249 0.12489419 0.058133673
0.49941713 0.12387531 0.057719387
0.49978051 0.1228547 0.057305057
0.50085771 0.12126372 0.0564836
0.50050312 0.12080844 0.056476355
0.50014853 0.12035316 0.056469105
0.49908066 0.12046914 0.056869019
0.49872673 0.12001471 0.056861784
0.49766085 0.12013324 0.057261735
0.49730757 0.11967967 0.057254516
0.49624366 0.11980079 0.05765453
0.48193872 0.19988336 0.084732771
0.48162985 0.19948679 0.08472646
0.48210022 0.19860433 0.08431334
0.48179069 0.19820692 0.084307015
0.48148116 0.1978095 0.084300689
0.48117164 0.1974121 0.084294364
0.48086211 0.19701469 0.084288038
0.48132855 0.1961271 0.083874822
0.48101836 0.19572884 0.083868481
0.48070815 0.19533058 0.083862141
0.48117191 0.1944396 0.083448894
0.48086107 0.19404049 0.083442539
0.48132285 0.19314694 0.083029233
0.48101133 0.19274698 0.083022863
0.48069981 0.19234702 0.0830165
0.48115891 0.19145009 0.082603149
0.48084673 0.19104928 0.082596771
0.4813039 0.19014978 0.082183369
0.48099104 0.18974811 0.082176976
0.4806782 0.18934645 0.082170576
0.48113269 0.18844356 0.081757136
0.48081917 0.18804105 0.081750728
0.48050568 0.18763852 0.081744321
0.48019215 0.18723601 0.081737913
0.47987866 0.18683349 0.081731506
0.47956514 0.18643098 0.081725098
0.48001501 0.18552211 0.081311554
0.47970083 0.18511875 0.081305131
0.47938666 0.18471538 0.081298709
0.47907251 0.18431202 0.081292287
0.47875834 0.18390864 0.081285864
0.47920418 0.18299469 0.080872245
0.47888935 0.18259047 0.080865808
0.47857451 0.18218626 0.080859378
0.47825968 0.18178204 0.080852941
0.47870225 0.18086383 0.080439255
0.47914347 0.1799439 0.080025524
0.47882733 0.179538 0.080019064
0.47851115 0.17913207 0.080012605
0.47819501 0.17872615 0.080006145
0.4786329 0.177802 0.079592362
0.4783161 0.17739522 0.079585887
0.47875202 0.17646849 0.079172052
0.47843453 0.17606087 0.079165563
0.47886848 0.1751316 0.078751698
0.47855031 0.17472312 0.078745194
0.47823218 0.17431465 0.078738697
0.47866347 0.17338197 0.078324765
0.47834468 0.17297263 0.078318246
0.47802585 0.17256331 0.078311734
0.47845447 0.17162724 0.077897757
0.47813502 0.17121707 0.077891231
0.47856164 0.17027843 0.077477217
0.47898698 0.16933809 0.077063166
0.47866619 0.16892621 0.077056609
0.4790895 0.16798332 0.076642528
0.47876805 0.16757061 0.076635957
0.47844657 0.16715787 0.076629385
0.47886729 0.16621156 0.076215245
0.47854516 0.16579799 0.076208659
0.47822303 0.16538441 0.07620208
0.47864106 0.16443472 0.075787887
0.47831827 0.16402029 0.075781293
0.47873431 0.16306803 0.075367048
0.47841087 0.16265275 0.07536044
0.47808743 0.16223747 0.075353831
0.47850081 0.16128181 0.074939542
0.47817668 0.16086568 0.074932918
0.47785258 0.16044955 0.074926294
0.47826332 0.1594905 0.07451196
0.47867274 0.15852973 0.074097581
0.47908083 0.15756728 0.073683187
0.4794876 0.1566031 0.073268756
0.47916082 0.15618357 0.073262081
0.47956559 0.15521686 0.07284762
0.47850731 0.15534449 0.073248722
0.48256177 0.15163167 0.070795171
0.48296058 0.1506573 0.070380591
0.48262918 0.15023181 0.070373818
0.48302603 0.14925484 0.069959171
0.48269397 0.14882851 0.069952384
0.48236188 0.14840215 0.069945596
0.48202983 0.14797582 0.069938809
0.48242334 0.14699464 0.069524124
0.48136571 0.14712313 0.069925241
0.48103365 0.14669678 0.069918454
0.48142514 0.14571305 0.069503725
0.48109242 0.14528586 0.069496922
0.4847565 0.1410718 0.067035384
0.49347484 0.1314557 0.061295249
0.50031161 0.12536949 0.057207603
0.49995902 0.12491677 0.057200395
0.50032341 0.12389811 0.056785088
0.49925378 0.12401132 0.057185981
0.50033247 0.12242337 0.056362543
0.49997851 0.12196893 0.056355309
0.49962458 0.12151451 0.056348074
0.50069791 0.11991978 0.055524543
0.49891672 0.12060566 0.056333609
0.49927509 0.11957937 0.055918198
0.49678552 0.12084224 0.057135537
0.48148677 0.19960593 0.084259227
0.48195684 0.19872372 0.083845109
0.48164731 0.1983263 0.083838783
0.48133779 0.19792889 0.083832458
0.48102826 0.19753148 0.083826132
0.48071873 0.19713408 0.083819807
0.48118484 0.19624674 0.083405584
0.48087466 0.19584848 0.083399251
0.48056448 0.19545022 0.083392911
0.4810279 0.1945595 0.082978651
0.48071706 0.19416039 0.082972303
0.48117852 0.19326711 0.082557991
0.48086703 0.19286714 0.082551628
0.4805555 0.19246717 0.082545258
0.48101431 0.19157051 0.082130902
0.48070213 0.19116968 0.082124524
0.48115897 0.19027044 0.081710123
0.48084611 0.18986878 0.08170373
0.48053327 0.18946712 0.08169733
0.48098746 0.18856448 0.081282884
0.48067394 0.18816197 0.081276476
0.48036045 0.18775944 0.081270069
0.48004693 0.18735693 0.081263661
0.47973344 0.18695441 0.081257254
0.47941992 0.1865519 0.081250846
0.47986946 0.18564329 0.080836296
0.47955531 0.18523993 0.080829874
0.47924113 0.18483655 0.080823459
0.47892696 0.18443319 0.080817036
0.47861281 0.18402982 0.080810614
0.47905836 0.18311612 0.080395989
0.47874352 0.18271191 0.080389559
0.47842869 0.18230769 0.080383122
0.47811386 0.18190347 0.080376685
0.4785561 0.18098553 0.079961993
0.47824058 0.18058045 0.079955548
0.47868085 0.17965993 0.079540804
0.47836471 0.17925401 0.079534344
0.47804856 0.17884809 0.079527885
0.47848615 0.17792419 0.079113096
0.47816932 0.17751741 0.079106621
0.47860494 0.17659093 0.078691788
0.47828746 0.17618331 0.078685299
0.47797 0.17577569 0.078678809
0.47840294 0.17484583 0.078263931
0.4780848 0.17443736 0.078257427
0.47776666 0.17402889 0.078250922
0.47819698 0.1730956 0.077835977
0.47787818 0.17268628 0.077829465
0.4783065 0.17175046 0.07741449
0.47798702 0.17134029 0.077407956
0.47841334 0.17040192 0.076992944
0.47883838 0.16946182 0.076577887
0.47851759 0.16904995 0.07657133
0.47894058 0.16810732 0.076156251
0.47861913 0.16769458 0.07614968
0.47829768 0.16728185 0.076143108
0.47871804 0.16633581 0.075727962
0.47839594 0.16592222 0.075721376
0.47807381 0.16550866 0.075714797
0.47849151 0.16455922 0.075299606
0.47816876 0.16414478 0.075293005
0.47784597 0.16373035 0.075286411
0.47826102 0.1627775 0.074871153
0.47793758 0.16236222 0.074864544
0.47761413 0.16194694 0.074857928
0.47802654 0.1609907 0.074442632
0.47770244 0.16057456 0.074436009
0.47811288 0.15961577 0.074020661
0.47852197 0.15865526 0.073605284
0.47892976 0.15769306 0.073189892
0.4793362 0.15672913 0.072774455
0.47900945 0.15630959 0.072767779
0.4794139 0.15534315 0.07235232
0.47875905 0.15450236 0.072338931
0.48280704 0.15078512 0.069879271
0.48247564 0.15035963 0.069872499
0.48214424 0.14993413 0.069865726
0.48254013 0.14895658 0.069450058
0.48220807 0.14853024 0.069443278
0.48187602 0.14810389 0.069436491
0.48154393 0.14767756 0.069429703
0.48121187 0.1472512 0.069422916
0.48087981 0.14682487 0.069416128
0.481271 0.14584139 0.069000393
0.48060557 0.144987 0.068986796
0.48460051 0.14120167 0.066526048
0.49331456 0.13158916 0.060771868
0.50373811 0.12268578 0.054628897
0.49764377 0.12674713 0.0578942
0.49729314 0.12629697 0.057887033
0.49837446 0.12471381 0.057061676
0.5001685 0.12255988 0.055827133
0.50052923 0.12153726 0.055410776
0.50088859 0.12051294 0.054994389
0.50053334 0.12005681 0.054987129
0.49875274 0.12074217 0.055798195
0.49911082 0.11971615 0.055381786
0.48134369 0.19972505 0.083792001
0.48181346 0.19884311 0.083376877
0.48150393 0.19844569 0.083370551
0.48119441 0.19804828 0.083364226
0.48088488 0.19765086 0.083357893
0.48057535 0.19725345 0.083351567
0.48104116 0.19636638 0.082936354
0.48073095 0.19596812 0.082930014
0.48042077 0.19556986 0.082923673
0.4808839 0.19467939 0.082508415
0.48057306 0.19428028 0.08250206
0.48026219 0.19388117 0.082495712
0.4807227 0.19298729 0.082080387
0.4804112 0.19258733 0.082074016
0.48086968 0.19169091 0.081658661
0.4805575 0.1912901 0.081652284
0.48101404 0.19039111 0.081236877
0.48070121 0.18998943 0.081230484
0.48038834 0.18958777 0.081224084
0.4808422 0.1886854 0.08080864
0.48052871 0.18828288 0.080802232
0.48021519 0.18788037 0.080795825
0.4799017 0.18747784 0.080789417
0.47958818 0.18707533 0.08078301
0.47927469 0.18667282 0.080776602
0.47972393 0.18576446 0.080361046
0.47940975 0.1853611 0.080354623
0.47909561 0.18495773 0.080348209
0.47878143 0.18455437 0.080341786
0.47846726 0.18415099 0.080335364
0.4789125 0.18323755 0.079919741
0.47859767 0.18283334 0.079913303
0.47828284 0.18242912 0.079906866
0.47796801 0.1820249 0.079900436
0.47840995 0.18110721 0.079484738
0.47809443 0.18070213 0.079478294
0.47777894 0.18029706 0.079471841
0.47821826 0.17937596 0.079056084
0.47790208 0.17897004 0.079049625
0.47833937 0.17804639 0.078633837
0.47802258 0.17763962 0.078627363
0.47770575 0.17723285 0.078620888
0.47814041 0.17630577 0.078205034
0.47782293 0.17589815 0.078198545
0.47750545 0.17549053 0.078192055
0.47793743 0.17456007 0.077776156
0.47761929 0.1741516 0.077769659
0.47804931 0.17321856 0.077353708
0.47773048 0.17280924 0.077347189
0.4781585 0.17187367 0.076931216
0.47783902 0.1714635 0.076924689
0.47826505 0.17052539 0.076508671
0.47868976 0.16958556 0.076092608
0.47836897 0.16917367 0.076086052
0.47879168 0.16823131 0.075669967
0.47847021 0.16781858 0.075663395
0.47814876 0.16740584 0.075656831
0.47856882 0.16646005 0.075240679
0.47824672 0.16604647 0.075234093
0.47792459 0.16563289 0.075227514
0.478342 0.16468371 0.074811317
0.47801921 0.16426928 0.074804723
0.47769642 0.16385485 0.074798122
0.47811121 0.16290225 0.074381866
0.47778776 0.16248697 0.074375249
0.47746432 0.16207169 0.074368641
0.47787642 0.16111571 0.07395234
0.47755229 0.16069958 0.073945716
0.4779624 0.15974103 0.07352937
0.47910479 0.15823752 0.072703257
0.47877869 0.15781882 0.072696589
0.47918484 0.15685517 0.072280154
0.47885808 0.15643562 0.072273478
0.47926223 0.15546943 0.071857013
0.47893479 0.15504904 0.071850322
0.48079616 0.15298355 0.070614174
0.48265353 0.15091294 0.069377944
0.48232213 0.15048745 0.069371171
0.48199072 0.15006195 0.069364399
0.48238629 0.14908466 0.06894774
0.48205423 0.14865832 0.068940952
0.48172218 0.14823197 0.068934165
0.48139012 0.14780563 0.068927377
0.48105806 0.14737928 0.06892059
0.48072597 0.14695294 0.068913803
0.48039392 0.14652659 0.068907022
0.48367336 0.14331159 0.066850394
0.48478127 0.14176384 0.066023588
0.48516551 0.1407721 0.065606713
0.49243599 0.13228543 0.060658533
0.49854964 0.12676886 0.056960911
0.49963233 0.12518877 0.056133587
0.49856338 0.12530144 0.056536466
0.50035846 0.12315082 0.055298954
0.4985745 0.12383059 0.056111969
0.49893627 0.1228099 0.055694614
0.50072402 0.12064996 0.054456975
0.50036877 0.12019383 0.054449715
0.49930114 0.12030819 0.05485262
0.49894655 0.11985292 0.054845374
0.50143611 0.11710884 0.053197332
0.48120061 0.19984418 0.083324768
0.48167008 0.19896249 0.082908638
0.48136055 0.19856508 0.082902312
0.48105103 0.19816767 0.082895987
0.48074147 0.19777025 0.082889661
0.48043194 0.19737284 0.082883336
0.48089746 0.19648603 0.082467116
0.48058727 0.19608776 0.082460776
0.48027709 0.1956895 0.082454436
0.48073992 0.1947993 0.082038179
0.48042905 0.19440018 0.082031824
0.48011819 0.19400106 0.082025468
0.48057839 0.19310744 0.081609145
0.4802669 0.19270748 0.081602775
0.48072508 0.19181132 0.081186421
0.4804129 0.1914105 0.081180036
0.48086911 0.19051176 0.080763631
0.48055628 0.1901101 0.080757231
0.48024344 0.18970844 0.080750838
0.48069698 0.18880633 0.080334388
0.48038349 0.1884038 0.08032798
0.48006997 0.18800129 0.080321573
0.47975647 0.18759876 0.080315165
0.47944295 0.18719625 0.080308758
0.47912946 0.18679373 0.08030235
0.47957841 0.18588564 0.079885796
0.47926423 0.18548228 0.079879373
0.47895005 0.1850789 0.079872951
0.47863588 0.18467554 0.079866529
0.47832173 0.18427217 0.079860114
0.47876665 0.18335898 0.079443485
0.47845182 0.18295477 0.079437047
0.47813699 0.18255055 0.079430617
0.47782215 0.18214633 0.07942418
0.4782638 0.18122889 0.079007484
0.47794828 0.18082383 0.079001032
0.47763279 0.18041876 0.078994587
0.47807178 0.1794979 0.078577824
0.47775564 0.17909198 0.078571364
0.47819263 0.17816858 0.078154579
0.4778758 0.17776181 0.078148097
0.47755897 0.17735504 0.078141622
0.47799334 0.17642823 0.07772477
0.47767586 0.17602061 0.07771828
0.47735837 0.17561299 0.077711791
0.47779006 0.17468278 0.077294894
0.47747189 0.17427431 0.077288389
0.47790161 0.17334153 0.07687144
0.47758281 0.17293221 0.076864921
0.47801051 0.17199691 0.076447941
