# .PCD v0.7 - Point Cloud Data file format
VERSION 0.7
FIELDS x y z
SIZE 4 4 4
TYPE F F F
COUNT 1 1 1
WIDTH 1377
HEIGHT 1
VIEWPOINT 0 0 0 1 0 0 0
POINTS 1377
DATA ascii
0.52512532 -0.067189738 0.10460491
0.52469981 -0.067736074 0.10459622
0.52427429 -0.068282403 0.10458753
0.52384877 -0.068828732 0.10457883
0.52342325 -0.069375068 0.10457013
0.52425885 -0.071464874 0.10403266
0.52320206 -0.071240306 0.10428835
0.52403438 -0.073334359 0.10375081
0.52360684 -0.073883243 0.10374208
0.52317935 -0.074432135 0.10373334
0.52337909 -0.075756982 0.10346015
0.52608371 -0.08019086 0.10212909
0.52565223 -0.080744855 0.10212027
0.52685344 -0.085527763 0.10103574
0.52344161 -0.086745791 0.10152055
0.52257597 -0.087857179 0.10150285
0.52276176 -0.089199901 0.10122938
0.52232832 -0.089756452 0.10122053
0.52189481 -0.090312995 0.10121167
0.52084476 -0.090079963 0.10146747
0.52041191 -0.09063565 0.10145862
0.51997912 -0.091191344 0.10144978
0.51954633 -0.091747046 0.10144093
0.51911348 -0.092302732 0.10143209
0.51868069 -0.092858434 0.10142324
0.5182479 -0.093414128 0.1014144
0.51781505 -0.093969814 0.10140555
0.51738226 -0.094525516 0.1013967
0.51633877 -0.094283931 0.10165266
0.51651663 -0.095636897 0.10137901
0.5154745 -0.095393613 0.101635
0.5150423 -0.095948465 0.10162617
0.48142242 -0.063211814 0.11424792
0.47902268 -0.063130379 0.1147534
0.47862366 -0.063642673 0.11474524
0.47822466 -0.064154975 0.11473709
0.47782564 -0.064667262 0.11472894
0.47742665 -0.065179549 0.11472078
0.47702765 -0.065691851 0.11471263
0.47662863 -0.066204138 0.11470447
0.47622964 -0.06671644 0.11469632
0.47583061 -0.067228734 0.11468816
0.47543162 -0.067741029 0.11468
0.4750326 -0.068253323 0.11467185
0.47404146 -0.067944504 0.11492888
0.47364312 -0.068455949 0.11492074
0.47324479 -0.068967387 0.1149126
0.47284645 -0.069478832 0.11490446
0.47244811 -0.069990277 0.11489631
0.47146097 -0.069676392 0.1151534
0.47106329 -0.070186995 0.11514527
0.4706656 -0.070697576 0.11513714
0.47026792 -0.071208179 0.11512902
0.46987024 -0.071718775 0.11512089
0.46947256 -0.072229356 0.11511277
0.46849009 -0.071909517 0.11536995
0.46809307 -0.072419263 0.11536183
0.46769604 -0.072929002 0.11535372
0.46729904 -0.073438741 0.1153456
0.46690202 -0.07394848 0.11533749
0.46650499 -0.074458234 0.11532938
0.46610796 -0.074967973 0.11532126
0.46571097 -0.075477712 0.11531315
0.46531394 -0.075987451 0.11530504
0.46491691 -0.07649719 0.11529692
0.46451989 -0.077006929 0.11528881
0.4647004 -0.078356467 0.11501523
0.46430272 -0.078867055 0.1150071
0.46448123 -0.080219142 0.11473349
0.46408287 -0.080730587 0.11472534
0.46310967 -0.080398835 0.11498272
0.46328619 -0.08175347 0.11470906
0.46288785 -0.082264915 0.11470092
0.46248952 -0.08277636 0.11469278
0.46209115 -0.083287805 0.11468464
0.46169281 -0.083799243 0.1146765
0.46129447 -0.084310688 0.11466835
0.46089613 -0.084822133 0.11466022
0.4604978 -0.085333578 0.11465207
0.46009943 -0.085845016 0.11464393
0.45970109 -0.086356461 0.1146358
0.45930275 -0.086867906 0.11462765
0.45890442 -0.087379351 0.11461951
0.45850608 -0.087890796 0.11461137
0.45810771 -0.088402234 0.11460323
0.45770937 -0.088913679 0.11459509
0.45731103 -0.089425124 0.11458694
0.4569127 -0.089936569 0.11457881
0.45651433 -0.090448007 0.11457066
0.45611599 -0.090959452 0.11456252
0.45571765 -0.091470897 0.11455438
0.45531932 -0.091982342 0.11454624
0.45492098 -0.09249378 0.1145381
0.45452261 -0.093005225 0.11452995
0.45412427 -0.09351667 0.11452182
0.45372593 -0.094028115 0.11451367
0.4533276 -0.094539553 0.11450553
0.45292926 -0.095050998 0.11449739
0.45253089 -0.095562443 0.11448925
0.45213255 -0.096073888 0.11448111
0.45173422 -0.096585326 0.11447297
0.45133588 -0.097096771 0.11446483
0.45093754 -0.097608216 0.11445668
0.45053917 -0.098119661 0.11444854
0.45014083 -0.098631099 0.1144404
0.4497425 -0.099142544 0.11443226
0.44934416 -0.099653989 0.11442412
0.44949618 -0.10104015 0.11414994
0.44909719 -0.10155245 0.11414178
0.44869816 -0.10206475 0.11413363
0.44829917 -0.10257704 0.11412548
0.44844785 -0.10396742 0.11385125
0.44804817 -0.10448057 0.11384308
0.44819486 -0.1058735 0.11356882
0.44779453 -0.1063875 0.11356063
0.44793925 -0.10778298 0.11328633
0.4480826 -0.10918017 0.11301199
0.44768095 -0.10969587 0.11300378
0.4472793 -0.11021157 0.11299558
0.44742006 -0.1116122 0.11272117
0.44755945 -0.1130145 0.11244676
0.44715649 -0.11353189 0.11243851
0.44729388 -0.11493675 0.11216406
0.44742996 -0.1163433 0.11188958
0.44756472 -0.11775155 0.11161507
0.44715977 -0.11827151 0.11160679
0.44783032 -0.1205732 0.11106595
0.45010945 -0.12555341 0.10972619
0.44969985 -0.12607932 0.10971782
0.45155615 -0.13160244 0.10836942
0.45114321 -0.13213262 0.10836098
0.45179781 -0.1344547 0.10781983
0.45191672 -0.13588341 0.10754497
0.45256668 -0.13821144 0.10700373
0.4526822 -0.13964438 0.10672883
0.4533276 -0.1419784 0.10618747
0.4534398 -0.1434156 0.10591251
0.4535507 -0.14485449 0.1056375
0.45418945 -0.14719702 0.105096
0.45429704 -0.14864016 0.10482094
0.45387548 -0.1491814 0.10481233
0.4539811 -0.15062708 0.10453722
0.45408535 -0.1520745 0.10426209
0.45471415 -0.15442979 0.1037204
0.45428997 -0.15497443 0.10371172
0.45439026 -0.15642694 0.10343651
0.45448923 -0.15788114 0.10316127
0.45458686 -0.15933704 0.10288601
0.45416069 -0.15988423 0.1028773
0.45425639 -0.16134274 0.10260196
0.45382953 -0.16189076 0.10259324
0.4534027 -0.16243879 0.10258451
0.45297584 -0.16298684 0.10257579
0.58719432 -0.037661232 0.096329339
0.58674759 -0.038234796 0.096320204
0.58630085 -0.038808361 0.096311077
0.58585411 -0.039381929 0.096301943
0.58540738 -0.039955493 0.096292816
0.5849607 -0.040529057 0.096283689
0.58451396 -0.041102625 0.096274555
0.58406723 -0.041676186 0.096265428
0.58362049 -0.042249754 0.096256293
0.58317375 -0.042823322 0.096247166
0.58272702 -0.043396883 0.096238032
0.58159173 -0.043273877 0.096493095
0.5811457 -0.043846592 0.096483976
0.58001238 -0.043721031 0.096739076
0.57956702 -0.044292893 0.096729971
0.57843566 -0.044164754 0.096985124
0.57730567 -0.044034939 0.097240299
0.576177 -0.043903422 0.097495489
0.5750497 -0.043770205 0.097750716
0.5746069 -0.044338662 0.097741663
0.57348156 -0.04420289 0.09799692
0.57235754 -0.044065386 0.098252222
0.57123482 -0.043926209 0.098507546
0.57011348 -0.04378533 0.098762877
0.56899345 -0.043642756 0.099018261
0.56787473 -0.043498468 0.099273644
0.56675726 -0.043352447 0.099529095
0.56564122 -0.043204766 0.099784546
0.56520379 -0.04376642 0.099775605
0.56476635 -0.044328067 0.099766664
0.56365293 -0.044176977 0.10002217
0.56321615 -0.044737782 0.10001324
0.5621047 -0.044584136 0.10026879
0.56166857 -0.045144085 0.10025987
0.56123245 -0.045704037 0.10025096
0.56079632 -0.046263989 0.10024205
0.55968821 -0.046106055 0.10049768
0.55925274 -0.046665154 0.10048877
0.55881727 -0.04722425 0.10047988
0.5583818 -0.047783349 0.10047098
0.55794632 -0.048342448 0.10046208
0.55684221 -0.048179444 0.10071777
0.55640739 -0.048737694 0.10070889
0.5553053 -0.048572134 0.10096462
0.55487114 -0.049129535 0.10095575
0.55443698 -0.049686931 0.10094687
0.55400288 -0.050244328 0.100938
0.55356872 -0.050801724 0.10092913
0.55313462 -0.051359121 0.10092025
0.55203712 -0.051187605 0.10117608
0.55160362 -0.051744148 0.10116722
0.55117017 -0.052300699 0.10115837
0.55073667 -0.052857243 0.10114951
0.5496425 -0.052681476 0.1014054
0.54920965 -0.053237166 0.10139655
0.54811746 -0.053058811 0.10165252
0.54768527 -0.053613659 0.10164369
0.5465951 -0.053432785 0.10189966
0.54550618 -0.053250216 0.10215567
0.54441863 -0.053065937 0.1024117
0.54333234 -0.052879918 0.10266778
0.541592 -0.051953115 0.10318873
0.5405091 -0.051762883 0.10344487
0.53942752 -0.051570948 0.10370101
0.53834718 -0.05137727 0.10395721
0.53792101 -0.05192446 0.1039485
0.53619063 -0.050984886 0.10446966
0.53576577 -0.051530372 0.10446098
0.53338856 -0.049840584 0.10524719
0.53296566 -0.050383512 0.10523855
0.53189337 -0.050179664 0.10549489
0.53147113 -0.050721742 0.10548627
0.53104895 -0.05126382 0.10547764
0.53062677 -0.051805902 0.10546901
0.53020453 -0.052347984 0.10546038
0.52913618 -0.052139021 0.1057168
0.5280692 -0.051928367 0.10597326
0.52764833 -0.052468736 0.10596466
0.52787155 -0.053762708 0.10569096
0.52745003 -0.054303933 0.10568234
0.52638566 -0.05408987 0.10593885
0.52917564 -0.058410991 0.10460455
0.52939296 -0.059712611 0.10433073
0.5289681 -0.060258102 0.10432205
0.52854323 -0.060803577 0.10431337
0.52811837 -0.061349057 0.10430469
0.52833235 -0.062654942 0.1040308
0.52790684 -0.063201278 0.1040221
0.52748132 -0.063747615 0.10401341
0.5270558 -0.064293936 0.1040047
0.52663028 -0.064840272 0.10399601
0.52620476 -0.065386608 0.10398731
0.52577925 -0.065932944 0.10397862
0.52535373 -0.066479281 0.10396992
0.52492821 -0.067025609 0.10396122
0.52450269 -0.067571945 0.10395253
0.52344495 -0.067349367 0.10420917
0.52302009 -0.067894861 0.10420048
0.523857 -0.06998156 0.10366107
0.52280062 -0.069757275 0.10391774
0.52300465 -0.071075924 0.10364365
0.52194959 -0.070849948 0.10390034
0.52340883 -0.073718354 0.10309538
0.52298129 -0.074267238 0.10308664
0.52568841 -0.078694724 0.10175064
0.52588385 -0.080024436 0.10147637
0.5232411 -0.086578853 0.10086581
0.52280831 -0.08713454 0.10085697
0.52237546 -0.087690242 0.10084812
0.52256095 -0.08903271 0.10057366
0.52212751 -0.089589261 0.1005648
0.521694 -0.090145804 0.10055594
0.52064425 -0.089913025 0.10081274
0.52021146 -0.090468712 0.10080389
0.51977861 -0.091024406 0.10079505
0.51934582 -0.091580108 0.1007862
0.51891303 -0.092135794 0.10077736
0.51848018 -0.092691496 0.10076851
0.51804739 -0.09324719 0.10075966
0.5176146 -0.093802877 0.10075082
0.51657075 -0.093562409 0.10100777
0.51613855 -0.094117254 0.10099895
0.51570642 -0.094672091 0.10099011
0.51527429 -0.095226936 0.10098128
0.51545054 -0.096581362 0.10070659
0.48203766 -0.062029403 0.11365868
0.48103559 -0.061735351 0.11391646
0.48063591 -0.062248498 0.1139083
0.47963586 -0.061951894 0.11416612
0.47983658 -0.063274793 0.11389196
0.47883785 -0.062976487 0.11414981
0.47843882 -0.063488774 0.11414165
0.47803983 -0.064001076 0.1141335
0.47764081 -0.064513363 0.11412534
0.47724181 -0.06502565 0.11411719
0.47684279 -0.065537952 0.11410903
0.47584864 -0.065233655 0.11436699
0.47545031 -0.0657451 0.11435885
0.47505197 -0.066256538 0.11435071
0.47465363 -0.066767983 0.11434257
0.47425529 -0.067279413 0.11433443
0.47385693 -0.067790858 0.11432628
0.47345859 -0.068302304 0.11431815
0.47306025 -0.068813749 0.11431
0.47266191 -0.069325186 0.11430186
0.47226357 -0.069836631 0.11429372
0.47127676 -0.069523007 0.11455181
0.47087908 -0.070033602 0.11454368
0.4704814 -0.070544191 0.11453556
0.47008371 -0.071054786 0.11452743
0.46968603 -0.071565382 0.11451931
0.46928835 -0.07207597 0.11451118
0.46830615 -0.071756385 0.11476936
0.46790916 -0.072266124 0.11476125
0.46751213 -0.072775871 0.11475313
0.4671151 -0.073285609 0.11474502
0.46671811 -0.073795348 0.11473691
0.46632108 -0.074305102 0.11472879
0.46592405 -0.074814841 0.11472068
0.46552703 -0.07532458 0.11471256
0.46513003 -0.075834319 0.11470445
0.464733 -0.076344058 0.11469633
0.46433598 -0.076853797 0.11468822
0.46451616 -0.078203082 0.11441364
0.46411848 -0.07871367 0.11440551
0.4637208 -0.079224266 0.11439738
0.46389833 -0.080576941 0.11412276
0.46292543 -0.08024545 0.11438113
0.46310166 -0.081599832 0.11410647
0.46270332 -0.082111269 0.11409833
0.46230498 -0.082622714 0.11409019
0.46190661 -0.083134159 0.11408205
0.46150827 -0.083645605 0.11407391
0.46110994 -0.084157042 0.11406577
0.4607116 -0.084668487 0.11405762
0.46031326 -0.085179932 0.11404948
0.45991489 -0.085691378 0.11404134
0.45951656 -0.086202823 0.1140332
0.45911822 -0.08671426 0.11402506
0.45871988 -0.087225705 0.11401692
0.45832154 -0.08773715 0.11400878
0.45792317 -0.088248596 0.11400063
0.45752484 -0.088760033 0.11399249
0.4571265 -0.089271478 0.11398435
0.45672816 -0.089782923 0.11397621
0.45632982 -0.090294369 0.11396807
0.45593145 -0.090805806 0.11395993
0.45553312 -0.091317251 0.11395179
0.45513478 -0.091828696 0.11394364
0.45473644 -0.092340142 0.11393551
0.4543381 -0.092851579 0.11392736
0.45393974 -0.093363024 0.11391922
0.4535414 -0.093874469 0.11391108
0.45314306 -0.094385915 0.11390294
0.45274472 -0.094897352 0.1138948
0.45234638 -0.095408797 0.11388665
0.45194802 -0.095920242 0.11387852
0.45154968 -0.096431687 0.11387037
0.45115134 -0.096943125 0.11386223
0.450753 -0.09745457 0.1138541
0.45035467 -0.097966015 0.11384595
0.4499563 -0.09847746 0.11383781
0.44955796 -0.098988898 0.11382966
0.44915962 -0.099500343 0.11382153
0.44876128 -0.10001179 0.11381339
0.44891235 -0.10139855 0.1135382
0.44851333 -0.10191085 0.11353004
0.44811434 -0.10242314 0.11352189
0.44826269 -0.10381327 0.11324666
0.44786301 -0.10432642 0.11323849
0.44746336 -0.10483955 0.11323032
0.44760907 -0.10623309 0.11295504
0.44720876 -0.10674708 0.11294686
0.44735247 -0.10814317 0.11267153
0.44749489 -0.10954095 0.11239618
0.44709322 -0.11005665 0.11238798
0.44723368 -0.11145702 0.11211256
0.44683138 -0.11197358 0.11210434
0.44642904 -0.11249012 0.11209612
0.44656682 -0.11389387 0.11182067
0.44670326 -0.11529931 0.11154521
0.44629961 -0.11581756 0.11153696
0.4475103 -0.11900508 0.11072689
0.44710466 -0.11952589 0.11071861
0.44669902 -0.1200467 0.11071032
0.4468295 -0.1214598 0.11043472
0.44963595 -0.12734038 0.10882249
0.45029527 -0.12965517 0.10827943
0.45095193 -0.13197334 0.10773633
0.45160592 -0.13429491 0.10719319
0.45119166 -0.13482678 0.10718472
0.45237386 -0.1380509 0.10637407
0.45195761 -0.13858531 0.10636556
0.45313385 -0.14181709 0.1055548
0.45324576 -0.14325403 0.10527883
0.45335636 -0.14469266 0.10500283
0.45399448 -0.14703469 0.10445933
0.45357358 -0.14757507 0.10445073
0.45368022 -0.14901881 0.10417465
0.45378551 -0.15046424 0.10389854
0.45388946 -0.15191139 0.10362241
0.45451766 -0.15426618 0.10307871
0.45409346 -0.15481082 0.10307004
0.45419344 -0.15626307 0.10279382
0.45429209 -0.15771702 0.10251758
0.45438945 -0.15917265 0.10224131
0.45448551 -0.16063005 0.10196498
0.45405865 -0.1611781 0.10195626
0.45415267 -0.16263799 0.10167993
0.45372516 -0.16318689 0.10167119
0.45329764 -0.16373579 0.10166245
0.58654064 -0.038062491 0.095644429
0.5860939 -0.038636059 0.095635295
0.58564717 -0.039209627 0.095626168
0.58520043 -0.039783187 0.095617041
0.58475375 -0.040356755 0.095607907
0.58430701 -0.040930323 0.09559878
0.5831694 -0.040810969 0.095854774
0.58272332 -0.041383687 0.095845662
0.5829668 -0.04265102 0.095571384
0.58183116 -0.04252911 0.09582743
0.58138514 -0.043101829 0.095818311
0.58093905 -0.043674543 0.095809191
0.57980609 -0.04354924 0.096065305
0.57936066 -0.044121101 0.096056201
0.57822961 -0.043993216 0.096312359
0.5777849 -0.044564229 0.096303269
0.57665586 -0.044433817 0.09655945
0.57552814 -0.044301711 0.096815661
0.5744018 -0.044167891 0.097071901
0.57327676 -0.044032376 0.097328156
0.57215303 -0.043895125 0.097584464
0.57103068 -0.043756206 0.097840786
0.56990957 -0.043615583 0.098097131
0.56878984 -0.043473259 0.098353498
0.56767148 -0.043329231 0.098609902
0.56655431 -0.043183468 0.098866351
0.56543857 -0.04303604 0.0991228
0.56500113 -0.043597694 0.099113859
0.56456369 -0.044159342 0.099104919
0.56412625 -0.044720992 0.099095978
0.56301379 -0.044569314 0.099352501
0.56257701 -0.045130111 0.099343576
0.56146657 -0.044975873 0.099600136
0.56103045 -0.045535821 0.099591218
0.56059432 -0.046095774 0.099582307
0.55948645 -0.045938097 0.099838942
0.55905098 -0.046497196 0.099830039
0.55861557 -0.047056288 0.099821135
0.55818009 -0.04761539 0.099812239
0.55774462 -0.048174489 0.099803336
0.55730915 -0.048733588 0.09979444
0.55620599 -0.048569988 0.10005115
0.55510414 -0.048404686 0.10030789
0.55467004 -0.048962086 0.10029902
0.55423588 -0.049519483 0.10029014
0.55380177 -0.05007688 0.10028127
0.55336761 -0.050634276 0.10027239
0.55293345 -0.051191673 0.10026353
0.55249935 -0.051749069 0.10025465
0.55206519 -0.052306466 0.10024578
0.55163109 -0.052863862 0.10023691
0.55119693 -0.053421259 0.10022803
0.55010241 -0.053246599 0.10048492
0.5490092 -0.053070232 0.10074183
0.54791725 -0.052892134 0.1009988
0.54748511 -0.053446978 0.10098997
0.54639518 -0.053266361 0.10124695
0.54530662 -0.053084046 0.10150395
0.54421937 -0.052900024 0.10176099
0.54378921 -0.053452313 0.1017522
0.54204875 -0.052526835 0.10227516
0.54031104 -0.05159799 0.10279816
0.53988355 -0.052146882 0.10278942
0.53880292 -0.051954344 0.10304659
0.5377236 -0.051760077 0.10330381
0.53599381 -0.050821021 0.10382697
0.53556895 -0.051366504 0.10381829
0.53384316 -0.050422337 0.10434152
0.5327698 -0.050220411 0.10459887
0.53169775 -0.05001682 0.10485621
0.53127557 -0.050558895 0.10484758
0.53085339 -0.051100973 0.10483895
0.53043115 -0.051643055 0.10483032
0.53000897 -0.052185137 0.1048217
0.52958673 -0.052727208 0.10481307
0.52851939 -0.052517656 0.10507051
0.53067589 -0.056068849 0.10399754
0.53025168 -0.056613483 0.10398886
0.52982754 -0.057158113 0.1039802
0.52940333 -0.057702746 0.10397153
0.52897912 -0.058247376 0.10396286
0.52919614 -0.059548743 0.10368804
0.52877128 -0.060094234 0.10367936
0.52834642 -0.060639713 0.10367068
0.52792156 -0.061185189 0.10366199
0.52813524 -0.062490817 0.1033871
0.52770972 -0.063037157 0.10337841
0.5272842 -0.063583486 0.10336971
0.52685869 -0.064129815 0.10336101
0.52834088 -0.066966824 0.10255352
0.52791333 -0.067515709 0.10254478
0.52748585 -0.068064593 0.10253604
0.52705836 -0.068613477 0.10252731
0.52726406 -0.069929317 0.10225224
0.52640772 -0.071028791 0.10223474
0.52597958 -0.071578532 0.10222599
0.52555138 -0.072128259 0.10221724
0.52323341 -0.070364363 0.10300766
0.52406579 -0.072455682 0.10246614
0.52363831 -0.073004581 0.1024574
0.52321076 -0.073553465 0.10244866
0.52278328 -0.07410235 0.10243993
0.51796943 -0.069222957 0.10429639
0.52505803 -0.079081707 0.10109012
0.52037334 -0.092996426 0.099598065
0.51871252 -0.091968857 0.10012263
0.51827967 -0.092524558 0.10011379
0.51784688 -0.093080252 0.10010494
0.51741409 -0.093635939 0.1000961
0.51637053 -0.093395732 0.10035405
0.5159384 -0.09395057 0.10034522
0.51550627 -0.094505414 0.10033639
0.51507407 -0.095060252 0.10032756
0.51464194 -0.095615104 0.10031873
0.48045078 -0.062094342 0.11330371
0.479451 -0.061797995 0.11356252
0.47845253 -0.061499909 0.11382139
0.4780542 -0.062011354 0.11381325
0.47765583 -0.062522799 0.11380512
0.47725749 -0.063034236 0.11379697
0.47685915 -0.063545682 0.11378883
0.47586468 -0.063242525 0.11404777
0.47546703 -0.063753106 0.11403964
0.47506934 -0.064263701 0.11403151
0.47526577 -0.065591455 0.11375626
0.47486743 -0.0661029 0.11374813
0.4738763 -0.065795474 0.11400712
0.47347862 -0.066306069 0.11399899
0.47308093 -0.066816665 0.11399087
0.47268325 -0.067327254 0.11398274
0.47228557 -0.067837849 0.11397462
0.47188789 -0.068348438 0.11396649
0.4714902 -0.068859033 0.11395836
0.47109252 -0.069369622 0.11395023
0.47069484 -0.069880217 0.1139421
0.47029716 -0.070390806 0.11393397
0.46989948 -0.070901401 0.11392584
0.46950179 -0.071411997 0.11391772
0.46910411 -0.071922585 0.11390959
0.46812224 -0.071603261 0.11416879
0.46772525 -0.072113 0.11416066
0.46732822 -0.072622739 0.11415255
0.46693119 -0.073132478 0.11414444
0.46653417 -0.073642217 0.11413632
0.46613714 -0.07415197 0.11412821
0.46574014 -0.074661709 0.1141201
0.46534312 -0.075171448 0.11411198
0.46494609 -0.075681187 0.11410387
0.46454909 -0.076190926 0.11409575
0.46415207 -0.076700665 0.11408764
0.46433195 -0.078049697 0.11381206
0.46393427 -0.078560278 0.11380393
0.46353659 -0.079070881 0.1137958
0.46371382 -0.080423303 0.11352017
0.46274123 -0.080092058 0.11377954
0.46234354 -0.080602661 0.11377142
0.46194586 -0.081113242 0.1137633
0.46212044 -0.082469076 0.1134876
0.46172211 -0.082980514 0.11347947
0.46132374 -0.083491959 0.11347132
0.4609254 -0.084003404 0.11346318
0.46052706 -0.084514849 0.11345503
0.46012872 -0.085026287 0.1134469
0.45973039 -0.085537732 0.11343876
0.45933202 -0.086049177 0.11343061
0.45893368 -0.086560622 0.11342248
0.45853534 -0.087072067 0.11341433
0.45813701 -0.087583505 0.11340619
0.45717368 -0.087240353 0.11366576
0.45677599 -0.087750949 0.11365763
0.45637834 -0.088261537 0.1136495
0.45598063 -0.088772133 0.11364137
0.45558298 -0.089282721 0.11363325
0.45518529 -0.089793317 0.11362512
0.45478761 -0.090303905 0.113617
0.45438993 -0.090814501 0.11360887
0.45399225 -0.091325089 0.11360074
0.45359457 -0.091835685 0.11359261
0.45319688 -0.092346281 0.11358448
0.4527992 -0.092856869 0.11357635
0.45240152 -0.093367465 0.11356822
0.45200384 -0.093878053 0.1135601
0.45160615 -0.094388649 0.11355197
0.45120847 -0.094899237 0.11354385
0.45081079 -0.095409833 0.11353572
0.45041311 -0.095920429 0.11352759
0.45001543 -0.096431017 0.11351946
0.44961774 -0.096941613 0.11351133
0.44922006 -0.097452201 0.1135032
0.44882238 -0.097962797 0.11349507
0.44897509 -0.099346705 0.11321894
0.44857675 -0.09985815 0.1132108
0.44817841 -0.10036959 0.11320266
0.4483285 -0.10175695 0.11292645
0.4479295 -0.10226924 0.11291829
0.44807756 -0.10365912 0.11264206
0.44767788 -0.10417226 0.1126339
0.44727823 -0.1046854 0.11262573
0.44742364 -0.10607868 0.11234944
0.4470233 -0.10659267 0.11234126
0.44662297 -0.10710666 0.11233308
0.44676572 -0.10850334 0.11205674
0.44690716 -0.10990173 0.11178038
0.44704732 -0.11130185 0.11150396
0.44664499 -0.1118184 0.11149573
0.44624269 -0.11233494 0.11148751
0.44638014 -0.11373843 0.11121107
0.44651628 -0.11514362 0.11093459
0.44611263 -0.11566187 0.11092634
0.4473224 -0.11884863 0.11011328
0.44691676 -0.11936943 0.11010499
0.44704759 -0.12078143 0.10982841
0.4466413 -0.12130308 0.10982011
0.4494459 -0.12718213 0.10820187
0.45010462 -0.12949641 0.10765679
0.45022681 -0.13091949 0.10738004
0.45088086 -0.13323969 0.10683489
0.45046726 -0.1337707 0.10682644
0.4511174 -0.13609605 0.10628118
0.45176479 -0.13842477 0.10573591
0.4524096 -0.14075693 0.10519055
0.45252189 -0.14219275 0.10491359
0.45316198 -0.14453083 0.10436816
0.45379952 -0.14687236 0.10382266
0.45390648 -0.14831498 0.10354558
0.45401213 -0.14975932 0.10326849
0.45411643 -0.15120536 0.10299136
0.45421949 -0.15265313 0.10271419
0.45432115 -0.15410256 0.10243701
0.45389694 -0.1546472 0.10242835
0.45399663 -0.1560992 0.10215113
0.45409498 -0.1575529 0.10187388
0.45419201 -0.15900828 0.10159661
0.45428777 -0.16046542 0.10131928
0.45386091 -0.16101347 0.10131056
0.45395464 -0.1624731 0.10103323
0.45352712 -0.163022 0.10102449
0.45309961 -0.1635709 0.10101575
0.45267212 -0.16411977 0.10100701
0.58678043 -0.037316624 0.094977781
0.58633369 -0.037890185 0.094968647
0.58588696 -0.038463753 0.09495952
0.58544022 -0.039037321 0.094950385
0.58499354 -0.039610881 0.094941258
0.5845468 -0.040184449 0.094932131
0.58410007 -0.040758017 0.094922997
0.58296275 -0.04063892 0.095180005
0.58251667 -0.041211639 0.095170885
0.58275986 -0.042478714 0.094895609
0.58162457 -0.042357061 0.095152654
0.58117849 -0.04292978 0.095143534
0.58073241 -0.043502495 0.095134422
0.57959974 -0.043377444 0.095391527
0.57915431 -0.043949306 0.095382422
0.57870895 -0.044521172 0.095373318
0.57757884 -0.044392694 0.095630497
0.57645017 -0.044262536 0.095887683
0.57532275 -0.044130683 0.096144892
0.5741967 -0.04399712 0.096402131
0.57307202 -0.043861859 0.096659392
0.57194853 -0.043724868 0.096916713
0.57082647 -0.043586202 0.097174034
0.56970572 -0.043445837 0.097431377
0.56858629 -0.043303769 0.097688749
0.56746817 -0.043159995 0.097946145
0.56635135 -0.043014489 0.098203607
0.56591326 -0.043576993 0.098194651
0.56479847 -0.043428969 0.098452121
0.56436104 -0.043990619 0.09844318
0.5639236 -0.044552267 0.09843424
0.56281143 -0.044400841 0.098691761
0.56237465 -0.044961639 0.098682836
0.56193787 -0.045522444 0.09867391
0.56082839 -0.04536761 0.098931484
0.56039226 -0.045927558 0.098922566
0.55995613 -0.046487506 0.098913655
0.55952001 -0.047047455 0.098904744
0.5584138 -0.046888329 0.0991624
0.55797833 -0.047447428 0.099153504
0.55754292 -0.048006531 0.0991446
0.55710745 -0.04856563 0.099135704
0.55600458 -0.048402287 0.099393427
0.55556977 -0.048960537 0.099384539
0.55513501 -0.049518783 0.09937565
0.5547002 -0.050077032 0.099366769
0.55426538 -0.050635278 0.099357881
0.55383056 -0.051193528 0.099348992
0.55339581 -0.051751774 0.099340104
0.55296099 -0.052310023 0.099331222
0.55252618 -0.052868269 0.099322334
0.55142999 -0.052696414 0.099580176
0.55099583 -0.053253811 0.099571303
0.5499016 -0.053079404 0.099829197
0.5494681 -0.053635951 0.099820338
0.5483759 -0.053458989 0.10007826
0.5472849 -0.053280298 0.10033624
0.54685277 -0.053835139 0.10032741
0.54510701 -0.052917879 0.10085224
0.54402006 -0.052734111 0.10111027
0.54358995 -0.0532864 0.10110148
0.54185015 -0.052361432 0.10162645
0.54076713 -0.05217256 0.10188457
0.53968549 -0.051981989 0.10214272
0.53860521 -0.051789708 0.10240089
0.53752613 -0.051595699 0.10265911
0.53644848 -0.051400017 0.10291734
0.53537214 -0.051202636 0.1031756
0.533647 -0.050258979 0.10370084
0.53257388 -0.050057311 0.10395918
0.53215104 -0.050600242 0.10395054
0.53302455 -0.052637447 0.10340787
0.53260034 -0.05318208 0.10339919
0.53217614 -0.05372671 0.10339053
0.53175199 -0.054271344 0.10338186
0.53132778 -0.054815974 0.10337319
0.53154844 -0.056111977 0.10309745
0.53047937 -0.055905238 0.10335585
0.53069872 -0.057202943 0.10308009
0.53027385 -0.057748433 0.1030714
0.52984905 -0.058293909 0.10306272
0.52942419 -0.058839399 0.10305403
0.52899933 -0.059384875 0.10304535
0.52921468 -0.060687687 0.10276949
0.52878916 -0.061234023 0.10276079
0.52836365 -0.06178036 0.1027521
0.52857637 -0.063086577 0.10247619
0.52942532 -0.065155268 0.10193302
0.52772397 -0.06418094 0.10245878
0.52729779 -0.064728133 0.10245007
0.52814281 -0.066801935 0.10190681
0.52771533 -0.06735082 0.10189807
0.52728778 -0.067899704 0.10188933
0.52749389 -0.069214426 0.1016133
0.52787417 -0.075043537 0.10050004
0.523036 -0.070199981 0.10236297
0.52764148 -0.076921627 0.10021503
0.52721 -0.077475622 0.10020621
0.52677852 -0.078029618 0.10019739
0.52572006 -0.077809252 0.10045601
0.52356601 -0.08057496 0.10041199
0.52313519 -0.081128098 0.10040318
0.52135611 -0.086570926 0.099806316
0.52277702 -0.089484602 0.098994575
0.52234292 -0.090041988 0.098985702
0.52190876 -0.090599395 0.098976828
0.52147466 -0.091156781 0.098967955
0.5210405 -0.091714188 0.098959081
0.5206064 -0.092271574 0.098950207
0.52017224 -0.092828974 0.098941341
0.51973808 -0.093386367 0.098932467
0.51807922 -0.092357621 0.099459067
0.51764637 -0.092913322 0.099450216
0.51721358 -0.093469009 0.099441372
0.51617032 -0.093229048 0.099700332
0.51469696 -0.093541406 0.09995047
0.51426548 -0.094095401 0.099941656
0.48046318 -0.060107216 0.1129834
0.48006418 -0.060619507 0.11297524
0.47966519 -0.061131794 0.11296709
0.47806656 -0.060025573 0.11349495
0.47766888 -0.060536172 0.11348682
0.4772712 -0.061046757 0.11347869
0.47687352 -0.061557356 0.11347056
0.47647583 -0.062067941 0.11346243
0.47607815 -0.062578537 0.1134543
0.47508466 -0.062274788 0.11371426
0.47468764 -0.062784523 0.11370614
0.47488511 -0.064110316 0.11342993
0.47448742 -0.064620905 0.1134218
0.47408974 -0.0651315 0.11341367
0.47369206 -0.065642089 0.11340554
0.47329438 -0.066152684 0.11339741
0.4728967 -0.06666328 0.11338928
0.47249901 -0.067173868 0.11338116
0.47210133 -0.067684464 0.11337303
0.47170368 -0.068195052 0.11336491
0.47130597 -0.068705648 0.11335678
0.47090831 -0.069216236 0.11334865
0.47051063 -0.069726832 0.11334052
0.47011295 -0.07023742 0.11333239
0.46971527 -0.070748016 0.11332426
0.46873236 -0.070430644 0.11358443
0.4689199 -0.0717692 0.11330801
0.46793833 -0.071450129 0.1135682
0.46754131 -0.071959868 0.11356009
0.46714431 -0.072469607 0.11355197
0.46674728 -0.072979346 0.11354386
0.46635026 -0.073489085 0.11353575
0.46595323 -0.073998839 0.11352763
0.46555623 -0.074508578 0.11351952
0.46515921 -0.075018317 0.11351141
0.46476218 -0.075528055 0.11350329
0.46436518 -0.076037794 0.11349518
0.46396816 -0.076547533 0.11348706
0.46414772 -0.077896312 0.11321048
0.46375003 -0.078406893 0.11320235
0.46335235 -0.078917488 0.11319422
0.46295467 -0.079428092 0.11318609
0.46255699 -0.079938672 0.11317796
0.46215931 -0.080449276 0.11316984
0.46176165 -0.080959857 0.11316171
0.46136394 -0.081470452 0.11315358
0.46096629 -0.081981041 0.11314546
0.46056861 -0.082491636 0.11313733
0.46017089 -0.083002239 0.1131292
0.45977324 -0.08351282 0.11312107
0.45937556 -0.084023416 0.11311294
0.45897788 -0.084534004 0.11310481
0.4585802 -0.0850446 0.11309669
0.45818251 -0.085555188 0.11308856
0.45778483 -0.086065784 0.11308043
0.45738715 -0.086576372 0.11307231
0.45698947 -0.087086968 0.11306418
0.45659178 -0.087597564 0.11305605
0.4561941 -0.088108152 0.11304792
0.45579642 -0.088618748 0.11303979
0.45539874 -0.089129336 0.11303166
0.45500106 -0.089639932 0.11302354
0.45460337 -0.09015052 0.11301541
0.45420569 -0.090661116 0.11300728
0.45380801 -0.091171704 0.11299916
0.45341033 -0.0916823 0.11299103
0.45301265 -0.092192896 0.1129829
0.45261496 -0.092703484 0.11297477
0.45221728 -0.09321408 0.11296664
0.45181963 -0.093724668 0.11295852
0.45142192 -0.094235264 0.11295039
0.45102426 -0.094745845 0.11294226
0.45062658 -0.095256448 0.11293413
0.45022887 -0.095767044 0.11292601
0.44983122 -0.096277632 0.11291788
0.44943354 -0.096788228 0.11290975
0.44903585 -0.097298808 0.11290162
0.44863817 -0.097809412 0.11289349
0.44824049 -0.098319992 0.11288537
0.44839221 -0.099704504 0.11260822
0.44799387 -0.10021595 0.11260007
0.44814366 -0.10160305 0.11232286
0.44774467 -0.10211534 0.1123147
0.4478924 -0.10350496 0.11203747
0.44749275 -0.10401811 0.11202931
0.44709307 -0.10453124 0.11202113
0.44669342 -0.10504439 0.11201297
0.44683784 -0.10643826 0.11173566
0.44643751 -0.10695226 0.11172748
0.44603717 -0.10746626 0.1117193
0.44617897 -0.10886353 0.11144195
0.44631943 -0.11026251 0.11116457
0.44645861 -0.11166322 0.11088713
0.44605631 -0.11217976 0.11087891
0.44619346 -0.113583 0.11060146
0.4463293 -0.11498793 0.11032399
0.44592562 -0.11550619 0.11031574
0.44713449 -0.11869217 0.10949966
0.44672886 -0.11921298 0.10949138
0.44685936 -0.12062472 0.10921378
0.44645306 -0.12114637 0.10920548
0.44925582 -0.12702389 0.10758124
0.44991395 -0.12933767 0.10703415
0.44950235 -0.12986612 0.10702574
0.45015642 -0.13218497 0.10647861
0.44974351 -0.13271514 0.10647017
0.45039362 -0.13503909 0.10592294
0.45157197 -0.13826422 0.10510625
0.45168594 -0.13969724 0.10482833
0.45179859 -0.141132 0.10455035
0.45243877 -0.14346871 0.10400293
0.4530763 -0.14580883 0.10345546
0.45318365 -0.1472504 0.10317738
0.45328966 -0.14869362 0.1028993
0.45339435 -0.15013854 0.10262118
0.45402327 -0.15248977 0.10207351
0.45412466 -0.15393895 0.10179532
0.45370045 -0.15448359 0.10178666
0.45379981 -0.15593533 0.10150844
0.45389786 -0.15738878 0.10123018
0.4539946 -0.1588439 0.10095191
0.45409003 -0.16030078 0.10067359
0.45366317 -0.16084883 0.10066486
0.4537566 -0.16230822 0.10038652
0.45332909 -0.1628571 0.10037778
0.45290157 -0.163406 0.10036904
0.45247409 -0.16395487 0.10036031
0.58587855 -0.036457874 0.094569042
0.58612674 -0.037717883 0.094292872
0.58568001 -0.038291451 0.094283737
0.58523327 -0.038865019 0.09427461
0.58478659 -0.039438579 0.094265483
0.58433986 -0.040012147 0.094256349
0.58389312 -0.040585712 0.094247222
0.58344638 -0.041159276 0.094238088
0.58299965 -0.041732844 0.094228961
0.58255291 -0.042306408 0.094219826
0.58210617 -0.042879973 0.094210699
0.5816595 -0.043453541 0.094201572
0.58052576 -0.043330446 0.094459645
0.58007967 -0.043903161 0.094450526
0.57894802 -0.043777514 0.094708651
0.5785026 -0.04434938 0.094699547
0.57805717 -0.044921242 0.094690442
0.57692808 -0.044792164 0.094948635
0.57580036 -0.044661414 0.095206834
0.57467395 -0.044528965 0.095465064
0.57354885 -0.044394813 0.095723324
0.57242513 -0.044258956 0.095981605
0.57130265 -0.044121362 0.096239932
0.57018155 -0.043982107 0.096498266
0.56906176 -0.043841142 0.09675663
0.56794327 -0.043698478 0.097015023
0.56682616 -0.043554112 0.097273432
0.56571031 -0.043408014 0.097531907
0.56527221 -0.043970514 0.097522952
0.56415838 -0.04382189 0.097781435
0.56372094 -0.044383541 0.097772494
0.56260914 -0.044232372 0.098031022
0.56217235 -0.04479317 0.098022088
0.56173551 -0.045353971 0.098013163
0.56129873 -0.045914773 0.098004237
0.56019026 -0.045759346 0.098262832
0.55975413 -0.046319291 0.098253921
0.55931801 -0.046879243 0.09824501
0.5582121 -0.046720374 0.098503672
0.55777663 -0.047279473 0.098494776
0.55734116 -0.047838572 0.098485872
0.55690569 -0.048397671 0.098476976
0.55580318 -0.048234586 0.09873569
0.55536836 -0.048792832 0.098726809
0.55493355 -0.049351081 0.09871792
0.55449879 -0.049909327 0.098709032
0.55406398 -0.050467577 0.098700143
0.55362916 -0.051025823 0.098691262
0.55319434 -0.051584072 0.098682374
0.55275959 -0.052142318 0.098673485
0.55232477 -0.052700568 0.098664604
0.55122888 -0.052528966 0.098923445
0.55079472 -0.053086363 0.098914579
0.55036056 -0.053643759 0.098905705
0.54926735 -0.053468756 0.099164613
0.54883385 -0.054025304 0.099155754
0.54774255 -0.053847753 0.099414691
0.54730976 -0.054403443 0.099405847
0.54556394 -0.053487498 0.099932685
0.54447663 -0.053304847 0.10019171
0.54404581 -0.05385799 0.10018291
0.54230595 -0.052934382 0.10070986
0.54122263 -0.05274662 0.10096898
0.54014063 -0.052557152 0.10122811
0.53905994 -0.052365985 0.10148728
0.53798062 -0.052173115 0.10174646
0.53755379 -0.052721146 0.10173774
0.53712696 -0.053269178 0.10172901
0.53540033 -0.052328557 0.10225625
0.53497481 -0.052874893 0.10224755
0.53390074 -0.052675217 0.10250685
0.53347594 -0.0532207 0.10249817
0.53305107 -0.053766184 0.10248949
0.53262621 -0.054311663 0.10248081
0.53220135 -0.05485715 0.10247212
0.53177649 -0.055402629 0.10246344
0.53135163 -0.055948105 0.10245475
0.53092676 -0.056493595 0.10244607
0.5305019 -0.057039075 0.10243738
0.53071964 -0.058338236 0.10216059
0.52965224 -0.058130041 0.10242002
0.52922738 -0.058675528 0.10241134
0.52944309 -0.05997723 0.1021345
0.52901757 -0.060523566 0.1021258
0.52859205 -0.061069898 0.1021171
0.52816653 -0.061616234 0.1021084
0.5283789 -0.062922202 0.1018315
0.52922732 -0.064990379 0.10128632
0.52879977 -0.065539263 0.10127758
0.52837229 -0.066088147 0.10126884
0.5279448 -0.066637047 0.10126011
0.52751726 -0.067185931 0.10125137
0.52708977 -0.067734815 0.10124263
0.52982873 -0.072111659 0.099892341
0.52623475 -0.068832584 0.10122516
0.530231 -0.074752524 0.09933807
0.52664232 -0.071466632 0.10067099
0.52873605 -0.075093225 0.099588759
0.52641463 -0.073337659 0.10038508
0.52535582 -0.073118411 0.1006447
0.52681297 -0.075983658 0.099830709
0.52638215 -0.076536797 0.099821903
0.52595133 -0.077089943 0.099813096
0.52489382 -0.076868989 0.10007273
0.52446371 -0.077421278 0.10006394
0.52465886 -0.078749366 0.099786684
0.52422804 -0.079302505 0.099777877
0.52442122 -0.080633149 0.099500574
0.52398974 -0.081187136 0.09949176
0.52355826 -0.081741132 0.099482939
0.52312678 -0.082295127 0.099474117
0.5226953 -0.082849123 0.099465303
0.52226382 -0.083403118 0.099456482
0.52183235 -0.083957098 0.09944766
0.52202022 -0.085294552 0.09917026
0.52158803 -0.085849404 0.099161424
0.52115589 -0.086404242 0.099152595
0.5213412 -0.08774513 0.098875105
0.52337521 -0.09144827 0.097791687
0.52170765 -0.090431944 0.098320097
0.52188891 -0.091777898 0.098042563
0.52083939 -0.091546737 0.098302357
0.52040529 -0.092104129 0.098293483
0.51997113 -0.09266153 0.09828461
0.5183115 -0.091634989 0.098813184
0.51787871 -0.092190683 0.09880434
0.51744592 -0.092746384 0.098795496
0.51701307 -0.093302071 0.098786652
0.48027834 -0.059953321 0.1123798
0.47987935 -0.060465608 0.11237165
0.47948036 -0.060977899 0.11236349
0.47908133 -0.061490197 0.11235534
0.47748464 -0.060382783 0.11288524
0.47708696 -0.060893372 0.11287711
0.47668928 -0.061403967 0.11286898
0.47629163 -0.061914552 0.11286085
0.47529775 -0.061611913 0.11312179
0.47490075 -0.062121652 0.11311367
0.47450373 -0.062631391 0.11310556
0.4747009 -0.063956931 0.11282834
0.47430322 -0.06446752 0.11282022
0.47390553 -0.064978115 0.11281209
0.47350785 -0.065488704 0.11280396
0.47311017 -0.065999299 0.11279583
0.47271249 -0.066509895 0.1127877
0.4723148 -0.067020483 0.11277957
0.47191712 -0.067531079 0.11277145
0.47151944 -0.068041667 0.11276332
0.47112176 -0.068552263 0.11275519
0.47072408 -0.069062844 0.11274707
0.47032639 -0.069573447 0.11273894
0.46992871 -0.070084028 0.11273081
0.46894547 -0.069767773 0.11299196
0.46854845 -0.070277512 0.11298385
0.46815142 -0.070787251 0.11297573
0.46775442 -0.071296997 0.11296762
0.4673574 -0.071806736 0.1129595
0.46696037 -0.072316475 0.11295139
0.46656337 -0.072826214 0.11294328
0.46616635 -0.073335953 0.11293516
0.46576932 -0.073845707 0.11292705
0.46537229 -0.074355446 0.11291893
0.4649753 -0.074865185 0.11291081
0.46457827 -0.075374924 0.1129027
0.46418124 -0.075884663 0.11289459
0.46378425 -0.076394401 0.11288647
0.46396351 -0.077742919 0.11260889
0.46356583 -0.078253508 0.11260077
0.46316814 -0.078764103 0.11259264
0.46277046 -0.079274699 0.11258451
0.46237278 -0.079785287 0.11257638
0.4619751 -0.080295883 0.11256825
0.46157742 -0.080806471 0.11256013
0.46117973 -0.081317067 0.112552
0.46078205 -0.081827655 0.11254387
0.46038437 -0.082338251 0.11253574
0.45998669 -0.082848847 0.11252762
0.459589 -0.083359435 0.11251949
0.45862299 -0.083021045 0.11278099
0.45822597 -0.083530784 0.11277287
0.45782897 -0.084040523 0.11276476
0.45743194 -0.084550269 0.11275665
0.45703492 -0.085060008 0.11274853
0.45663792 -0.085569747 0.11274042
0.45624089 -0.086079493 0.11273231
0.45584387 -0.08658924 0.11272419
0.45544684 -0.087098978 0.11271608
0.45504984 -0.087608717 0.11270797
0.45465282 -0.088118456 0.11269985
0.45425579 -0.088628195 0.11269174
0.45385879 -0.089137934 0.11268362
0.45346177 -0.089647673 0.1126755
0.45306474 -0.090157427 0.11266739
0.45266771 -0.090667166 0.11265928
0.45227072 -0.091176905 0.11265116
0.45187369 -0.091686644 0.11264305
0.45147666 -0.092196383 0.11263493
0.45107967 -0.092706129 0.11262682
0.45068264 -0.093215868 0.11261871
0.45028561 -0.093725607 0.11261059
0.44988859 -0.094235361 0.11260248
0.44949159 -0.0947451 0.11259437
0.44964698 -0.096124239 0.1123163
0.4492493 -0.096634842 0.11230817
0.44885162 -0.097145423 0.11230004
0.44845393 -0.097656019 0.11229191
0.44805625 -0.098166607 0.11228379
0.44820768 -0.099550866 0.11200563
0.44780934 -0.1000623 0.11199749
0.447411 -0.10057375 0.11198935
0.4475598 -0.10196144 0.11171111
0.44716081 -0.10247373 0.11170296
0.44730759 -0.10386395 0.11142471
0.44690794 -0.10437709 0.11141654
0.44650826 -0.10489023 0.11140838
0.44665238 -0.10628385 0.11113007
0.44625208 -0.10679784 0.11112189
0.44585171 -0.10731185 0.1111137
0.44599321 -0.10870887 0.11083535
0.44613338 -0.11010759 0.11055697
0.44627225 -0.11150804 0.11027853
0.44586992 -0.11202459 0.11027031
0.44600677 -0.11342757 0.10999186
0.44614229 -0.11483224 0.10971338
0.44573864 -0.1153505 0.10970514
0.44694659 -0.11853572 0.10888605
0.44654095 -0.11905652 0.10887776
0.44667116 -0.12046801 0.10859917
0.44626486 -0.12098967 0.10859086
0.44906577 -0.12686564 0.10696059
0.44865549 -0.1273924 0.10695221
0.44931167 -0.12970737 0.1064031
0.44943261 -0.13113077 0.10612432
0.44955221 -0.13255587 0.10584552
0.45020172 -0.13487932 0.10529629
0.45084861 -0.13720618 0.104747
0.45202273 -0.14043482 0.10392722
0.45107591 -0.14007172 0.10418915
0.45171615 -0.1424071 0.10363971
0.45340958 -0.14654769 0.1025493
0.45351592 -0.14798979 0.10227023
0.45362097 -0.14943363 0.10199112
0.45319876 -0.1499757 0.1019825
0.45382708 -0.15232641 0.10143282
0.45340353 -0.15287021 0.10142416
0.45350394 -0.15431999 0.10114496
0.453603 -0.15577146 0.10086574
0.45370075 -0.15722466 0.10058649
0.45379716 -0.15867952 0.10030721
0.45389229 -0.16013615 0.10002788
0.45346543 -0.1606842 0.10001916
0.45355856 -0.16214332 0.09973982
0.45313105 -0.16269222 0.09973108
0.45270354 -0.16324112 0.099722341
0.45227602 -0.16378999 0.099713609
0.45184851 -0.16433889 0.099704869
0.5856719 -0.036285825 0.093894266
0.5859198 -0.037545577 0.093617089
0.58547306 -0.038119145 0.093607962
0.58502632 -0.038692713 0.093598828
0.58457965 -0.039266273 0.093589701
0.58413291 -0.039839841 0.093580574
0.58368617 -0.040413409 0.093571439
0.58323944 -0.04098697 0.093562312
0.5827927 -0.041560538 0.093553178
0.58234596 -0.042134106 0.093544051
0.58189923 -0.042707667 0.093534924
0.58145255 -0.043281235 0.09352579
0.58100581 -0.043854795 0.093516663
0.57987309 -0.043731112 0.093775749
0.579427 -0.044303823 0.093766637
0.57829624 -0.044177588 0.094025776
0.57785088 -0.04474945 0.094016671
0.57672209 -0.044620629 0.094275862
0.57559466 -0.044490132 0.094535075
0.57446855 -0.044357941 0.094794296
0.57334375 -0.044224042 0.095053561
0.57222033 -0.044088442 0.095312841
0.57109815 -0.043951102 0.095572174
0.56997734 -0.043812104 0.095831513
0.56885785 -0.043671396 0.096090876
0.56773973 -0.043528989 0.096350275
0.56662291 -0.043384876 0.096609689
0.56550735 -0.043239031 0.096869163
0.56506926 -0.043801531 0.096860208
0.56395572 -0.043653168 0.097119689
0.56351829 -0.044214815 0.097110748
0.56240678 -0.044063903 0.097370282
0.56197 -0.044624701 0.097361356
0.56153321 -0.045185503 0.09735243
0.56109643 -0.045746304 0.097343504
0.5599882 -0.045591131 0.097603098
0.55955207 -0.046151079 0.097594179
0.55911595 -0.046711028 0.097585268
0.55801034 -0.046552416 0.097844936
0.55757493 -0.047111515 0.09783604
0.55713946 -0.047670614 0.097827137
0.55670398 -0.048229713 0.097818241
0.55560172 -0.048066881 0.09807796
0.55516696 -0.04862513 0.098069072
0.55473214 -0.049183376 0.098060183
0.55429733 -0.049741626 0.098051302
0.55386257 -0.050299872 0.098042414
0.55342776 -0.050858121 0.098033525
0.55299294 -0.051416367 0.098024644
0.55255818 -0.051974617 0.098015755
0.55212337 -0.052532863 0.098006867
0.55102777 -0.052361518 0.098266721
0.55059361 -0.052918915 0.098257847
0.55015945 -0.053476311 0.098248973
0.54972535 -0.054033708 0.0982401
0.54863304 -0.053858113 0.098500028
0.54819959 -0.05441466 0.098491162
0.54710925 -0.054236509 0.09875112
0.54602021 -0.054056626 0.099011138
0.5449326 -0.05387507 0.099271148
0.54450107 -0.054429062 0.099262334
0.54341543 -0.054244965 0.099522389
0.5423311 -0.054059155 0.099782474
0.54124802 -0.053871606 0.1000426
0.54147077 -0.055163734 0.099764891
0.540389 -0.054974485 0.10002504
0.53930867 -0.054783575 0.10028522
0.53757942 -0.053847753 0.10081436
0.53845102 -0.055884752 0.10026769
0.53737324 -0.055690434 0.1005279
0.5362969 -0.055494413 0.10078815
0.53586936 -0.056043297 0.10077941
0.53544188 -0.056592181 0.10077067
0.53436816 -0.056392759 0.10103098
0.53394127 -0.056940798 0.10102225
0.53351444 -0.057488836 0.10101353
0.53308761 -0.058036864 0.1010048
0.53201711 -0.057833154 0.1012652
0.53094804 -0.057627775 0.10152559
0.52988023 -0.057420693 0.10178602
0.53009701 -0.058720447 0.10150819
0.53095335 -0.060777046 0.10096119
0.52924597 -0.059813105 0.1014908
0.52946001 -0.061116267 0.10121293
0.52903384 -0.061663449 0.10120422
0.52860767 -0.062210638 0.10119551
0.52818149 -0.06275782 0.1011868
0.52775532 -0.063305005 0.10117809
0.52732915 -0.063852184 0.10116939
0.52690297 -0.064399377 0.10116068
0.52838171 -0.067234918 0.10034414
0.52858782 -0.068548292 0.1000661
0.53005999 -0.071392357 0.099249437
0.53152812 -0.074241526 0.098432682
0.53046292 -0.074031003 0.098693185
0.52939916 -0.07381881 0.098953679
0.52644366 -0.071301229 0.10002229
0.52601486 -0.07185182 0.10001352
0.52810472 -0.075480781 0.098927222
0.52515715 -0.072953008 0.099995986
0.52410001 -0.0727323 0.10025662
0.52618259 -0.076370627 0.099170193
0.52575177 -0.076923773 0.099161386
0.52532095 -0.077476911 0.09915258
0.52489012 -0.07803005 0.099143773
0.5244593 -0.078583196 0.099134967
0.52465284 -0.07991273 0.09885668
0.52422136 -0.080466725 0.098847859
0.52378988 -0.081020713 0.098839037
0.5233584 -0.081574708 0.098830223
0.52292687 -0.082128704 0.098821402
0.52249539 -0.082682699 0.098812588
0.52206391 -0.083236694 0.098803766
0.52163243 -0.083790675 0.098794945
0.52120095 -0.08434467 0.098786131
0.52138788 -0.08568272 0.09850771
0.52095574 -0.086237565 0.098498873
0.52175778 -0.088363945 0.097950749
0.52132428 -0.088920489 0.09794189
0.52212232 -0.091051951 0.097393714
0.52107245 -0.090821885 0.097654499
0.52063829 -0.091379292 0.097645625
0.52020413 -0.091936678 0.097636752
0.51854384 -0.090912364 0.098167308
0.51811105 -0.091468051 0.098158464
0.5176782 -0.092023753 0.09814962
0.51724541 -0.092579447 0.098140769
0.48089153 -0.058774833 0.11179253
0.48049253 -0.05928712 0.11178438
0.48009351 -0.059799422 0.11177622
0.47909397 -0.059504654 0.11203806
0.47869563 -0.060016096 0.11202992
0.47709894 -0.058910072 0.11256178
0.47730044 -0.060229398 0.11228365
0.47630489 -0.059929553 0.11254555
0.47590789 -0.060439292 0.11253744
0.47551087 -0.060949031 0.11252932
0.47511384 -0.061458785 0.11252121
0.47471681 -0.061968524 0.1125131
0.47431982 -0.062478263 0.11250498
0.47392279 -0.062988006 0.11249687
0.47352576 -0.063497745 0.11248875
0.47312877 -0.064007483 0.11248063
0.47273174 -0.064517222 0.11247252
0.47233471 -0.065026961 0.11246441
0.47193769 -0.065536715 0.11245629
0.47154069 -0.066046454 0.11244818
0.47114366 -0.066556193 0.11244006
0.47074664 -0.067065932 0.11243195
0.47034964 -0.067575671 0.11242384
0.46995261 -0.06808541 0.11241572
0.46955559 -0.068595156 0.11240761
0.46915859 -0.069104895 0.1123995
0.46876156 -0.069614641 0.11239138
0.46836454 -0.070124388 0.11238327
0.46796751 -0.070634127 0.11237516
0.46757051 -0.071143866 0.11236704
0.46717349 -0.071653605 0.11235892
0.46677646 -0.072163343 0.11235081
0.46637946 -0.072673082 0.11234269
0.46598244 -0.073182821 0.11233458
0.46558541 -0.073692575 0.11232647
0.46518838 -0.074202314 0.11231835
0.46479136 -0.074712053 0.11231024
0.46439436 -0.075221792 0.11230212
0.46399733 -0.075731531 0.11229401
0.46360031 -0.076241277 0.1122859
0.46320331 -0.076751016 0.11227778
0.46280628 -0.077260755 0.11226967
0.46240926 -0.077770509 0.11226156
0.46201223 -0.078280248 0.11225344
0.46161523 -0.078789987 0.11224533
0.46121821 -0.079299726 0.11223721
0.46082118 -0.079809465 0.11222909
0.46042418 -0.080319203 0.11222098
0.46002716 -0.080828942 0.11221287
0.45906013 -0.080492511 0.11247534
0.45866376 -0.081001408 0.11246724
0.45826742 -0.081510291 0.11245915
0.45787105 -0.082019188 0.11245105
0.45747471 -0.082528077 0.11244294
0.45707837 -0.083036959 0.11243484
0.456682 -0.083545856 0.11242674
0.45628563 -0.084054746 0.11241864
0.45588928 -0.084563643 0.11241054
0.45549294 -0.085072525 0.11240244
0.45509657 -0.085581422 0.11239434
0.4547002 -0.086090311 0.11238624
0.45430386 -0.086599194 0.11237814
0.45390752 -0.087108091 0.11237004
0.45351115 -0.08761698 0.11236194
0.45311481 -0.088125862 0.11235384
0.45271844 -0.088634759 0.11234573
0.4523221 -0.089143656 0.11233763
0.45192572 -0.089652538 0.11232954
0.45152938 -0.090161428 0.11232144
0.45168978 -0.091533519 0.11204247
0.45129275 -0.092043258 0.11203436
0.45089573 -0.092552997 0.11202624
0.45049873 -0.093062736 0.11201813
0.4501017 -0.093572475 0.11201002
0.44970468 -0.094082229 0.1120019
0.44930765 -0.094591968 0.11199378
0.44946277 -0.095970854 0.11171471
0.44906509 -0.09648145 0.11170658
0.44866741 -0.096992038 0.11169845
0.44826972 -0.097502634 0.11169032
0.44787204 -0.098013222 0.1116822
0.44802317 -0.09939722 0.11140304
0.4476248 -0.099908665 0.1113949
0.44722646 -0.10042011 0.11138676
0.44737497 -0.10180754 0.11110752
0.44697598 -0.10231984 0.11109937
0.44712245 -0.1037098 0.11082012
0.44672278 -0.10422294 0.11081195
0.44632313 -0.10473608 0.11080378
0.44646695 -0.10612945 0.11052448
0.44606662 -0.10664344 0.11051629
0.44566628 -0.10715744 0.11050811
0.44580746 -0.1085542 0.11022875
0.44594729 -0.10995267 0.10994937
0.44608587 -0.11135287 0.10966993
0.44568357 -0.11186941 0.10966171
0.44582009 -0.11327214 0.10938225
0.44595531 -0.11467655 0.10910277
0.44555166 -0.11519481 0.10909452
0.44622177 -0.11749051 0.10854372
0.44635305 -0.11890007 0.10826414
0.44648296 -0.1203113 0.10798455
0.44554177 -0.11994168 0.10824756
0.44727305 -0.12403102 0.10715394
0.44846544 -0.12723416 0.10633158
0.44858807 -0.12865475 0.10605184
0.44924164 -0.13097176 0.10550068
