# .PCD v0.7 - Point Cloud Data file format
VERSION 0.7
FIELDS x y z
SIZE 4 4 4
TYPE F F F
COUNT 1 1 1
WIDTH 1364
HEIGHT 1
VIEWPOINT 0 0 0 1 0 0 0
POINTS 1364
DATA ascii
0.46010017 -0.01358225 0.10921863
0.4597277 -0.014060505 0.10921102
0.45935521 -0.014538759 0.10920341
0.45898271 -0.015017014 0.10919579
0.45861021 -0.01549527 0.10918818
0.45823771 -0.015973523 0.10918057
0.45786521 -0.01645178 0.10917296
0.45749274 -0.016930034 0.10916534
0.45772329 -0.018196421 0.1088639
0.45735013 -0.018675532 0.10885628
0.45697698 -0.019154632 0.10884865
0.45660383 -0.019633746 0.10884102
0.45623067 -0.020112846 0.10883339
0.45585752 -0.020591946 0.10882577
0.45548436 -0.02107106 0.10881814
0.45511121 -0.02155016 0.10881051
0.45533583 -0.022824205 0.10850894
0.45496199 -0.023304164 0.10850131
0.45458817 -0.023784121 0.10849367
0.45421436 -0.02426408 0.10848603
0.45384052 -0.024744039 0.10847839
0.45346671 -0.025223985 0.10847075
0.4530929 -0.025703944 0.10846311
0.45331219 -0.026984802 0.10816143
0.45293772 -0.027465606 0.10815378
0.4531551 -0.028749036 0.10785204
0.45277995 -0.029230699 0.10784437
0.4524048 -0.02971236 0.1078367
0.45261946 -0.030999163 0.10753493
0.45283282 -0.032287668 0.10723314
0.45245633 -0.032771036 0.10722544
0.45207986 -0.0332544 0.10721774
0.4517034 -0.033737753 0.10721005
0.45191342 -0.035030525 0.10690819
0.4515363 -0.035514735 0.10690048
0.45115915 -0.035998948 0.10689277
0.45078203 -0.036483157 0.10688506
0.45040488 -0.036967371 0.10687735
0.45002776 -0.03745158 0.10686965
0.44965062 -0.037935793 0.10686193
0.4492735 -0.038420003 0.10685423
0.44947758 -0.039720457 0.10655222
0.44909981 -0.040205523 0.1065445
0.448722 -0.040690582 0.10653678
0.44892341 -0.041994408 0.10623474
0.44854495 -0.042480323 0.106227
0.44816649 -0.042966239 0.10621927
0.44836527 -0.044273473 0.10591717
0.44913927 -0.046404574 0.10532068
0.46699259 -0.082855307 0.094051354
0.46715623 -0.084207639 0.09374854
0.46674994 -0.084729291 0.09374024
0.46634364 -0.085250944 0.093731932
0.46310088 -0.081602156 0.095196471
0.46269792 -0.082119554 0.095188238
0.46512473 -0.086815916 0.093707025
0.46471843 -0.087337568 0.093698718
0.4620536 -0.084509246 0.094868913
0.4622139 -0.085865833 0.094566032
0.46180961 -0.086384937 0.094557762
0.46196792 -0.08774408 0.094254844
0.46156296 -0.088264041 0.094246566
0.46115798 -0.088783987 0.094238289
0.46075302 -0.089303933 0.094230011
0.46090809 -0.090667367 0.093927003
0.46050245 -0.091188177 0.093918711
0.46009681 -0.091708973 0.093910418
0.45969117 -0.092229776 0.093902126
0.45928553 -0.092750587 0.093893841
0.45887989 -0.09327139 0.093885548
0.45847425 -0.0937922 0.093877256
0.45806864 -0.094312988 0.093868971
0.457663 -0.094833799 0.093860678
0.57877958 0.043888681 0.092347518
0.57762802 0.043971937 0.092631139
0.57721573 0.043442622 0.092622712
0.57680345 0.04291331 0.092614286
0.57639122 0.042383995 0.092605859
0.57597893 0.041854683 0.092597432
0.57556671 0.041325368 0.092589006
0.57515442 0.040796053 0.092580579
0.57474214 0.040266741 0.09257216
0.57432991 0.039737426 0.092563733
0.57391763 0.03920811 0.092555307
0.5735054 0.038678799 0.09254688
0.57236177 0.038772263 0.092830658
0.57121944 0.038867466 0.093114495
0.57080847 0.038339853 0.093106098
0.57039756 0.03781224 0.093097694
0.56925792 0.037910815 0.093381561
0.56811959 0.038011093 0.093665451
0.56698263 0.038113073 0.093949363
0.56584698 0.038216747 0.094233304
0.56543869 0.037692539 0.09422496
0.56430495 0.037798807 0.094508968
0.56317264 0.03790674 0.094792984
0.56276566 0.037384234 0.094784662
0.56163532 0.037494719 0.095068716
0.56122899 0.036973063 0.095060416
0.56082273 0.036451411 0.095052108
0.55969501 0.036565304 0.095336214
0.5592894 0.036044497 0.095327921
0.55816364 0.036160976 0.095612094
0.55775863 0.035641022 0.095603816
0.55735368 0.035121068 0.095595539
0.55694872 0.034601115 0.095587261
0.55654371 0.034081165 0.095578983
0.55542201 0.034202714 0.095863216
0.55501771 0.033683609 0.095854953
0.55461335 0.033164509 0.09584669
0.55349427 0.033289462 0.096130975
0.55309063 0.032771211 0.096122727
0.55268699 0.03225296 0.096114472
0.55228335 0.031734709 0.096106224
0.5518797 0.031216459 0.096097976
0.55147606 0.030698208 0.096089728
0.55107242 0.030179955 0.096081473
0.55066878 0.029661704 0.096073225
0.55026513 0.029143453 0.096064977
0.54986149 0.028625201 0.09605673
0.54945785 0.02810695 0.096048474
0.54905421 0.027588699 0.096040227
0.54865056 0.027070448 0.096031979
0.54824686 0.026552197 0.096023731
0.54784322 0.026033945 0.096015476
0.54743958 0.025515694 0.096007228
0.54703593 0.024997443 0.09599898
0.54663229 0.024479194 0.095990732
0.54622865 0.023960942 0.095982477
0.545825 0.023442691 0.095974229
0.54542136 0.02292444 0.095965981
0.54501772 0.022406189 0.095957734
0.54461408 0.021887938 0.095949478
0.54421043 0.021369686 0.095941231
0.54380679 0.020851435 0.095932983
0.54340315 0.020333184 0.095924735
0.54299951 0.019814931 0.09591648
0.54259586 0.01929668 0.095908232
0.54219222 0.018778428 0.095899984
0.5424841 0.017591441 0.095598795
0.54138488 0.017741926 0.095883481
0.54098123 0.017223675 0.095875233
0.54057759 0.016705424 0.095866986
0.54155976 0.014842897 0.09527275
0.53977031 0.015668921 0.095850483
0.54074985 0.013802988 0.095256194
0.54034483 0.013283039 0.095247917
0.53855938 0.014114167 0.095825739
0.5388453 0.012919525 0.095524423
0.538441 0.012400421 0.09551616
0.5380367 0.011881319 0.095507897
0.53763241 0.011362221 0.095499635
0.53722811 0.010843118 0.095491372
0.53751004 0.0096433666 0.095189981
0.53710508 0.0091234175 0.095181704
0.53670013 0.0086034629 0.095173426
0.53629512 0.0080835074 0.095165148
0.53589016 0.0075635528 0.095156871
0.53548521 0.0070436038 0.095148593
0.53508025 0.0065236492 0.095140316
0.53467524 0.0060036941 0.095132045
0.53427029 0.0054837451 0.095123768
0.53386533 0.0049637905 0.09511549
0.53346032 0.0044438355 0.095107213
0.53305537 0.0039238809 0.095098935
0.53265041 0.0034039319 0.095090657
0.5322454 0.002883977 0.09508238
0.53184044 0.0023640222 0.095074102
0.53143549 0.0018440732 0.095065825
0.53103054 0.0013241183 0.095057555
0.53062552 0.00080416352 0.095049277
0.53022057 0.00028420868 0.095040999
0.5291419 0.0004610738 0.095326111
0.5287376 -5.8029291e-05 0.095317848
0.52833331 -0.00057712651 0.095309585
0.52725726 -0.00039685942 0.095594749
0.52685362 -0.00091511081 0.095586494
0.52644998 -0.0014333621 0.095578246
0.5247069 -0.00054777355 0.096156925
0.52497363 -0.0017670986 0.095855221
0.52457064 -0.0022844982 0.095846988
0.51938039 -0.016757406 0.094205119
0.51897407 -0.017279066 0.094196811
0.5185678 -0.017800719 0.094188511
0.51816148 -0.018322377 0.094180204
0.51905882 -0.020293832 0.093584239
0.51865119 -0.020817189 0.09357591
0.51824355 -0.021340543 0.093567573
0.51848584 -0.022591388 0.093265347
0.51807755 -0.023115594 0.093257003
0.5170207 -0.022910617 0.093542583
0.51661307 -0.023433974 0.093534254
0.51685268 -0.024688223 0.093231969
0.47753933 0.01073527 0.10932225
0.47716749 0.010257866 0.10931465
0.47551718 0.011262631 0.10989525
0.47514665 0.010786932 0.10988768
0.47541407 0.0095684584 0.10958599
0.47376841 0.010579152 0.11016666
0.47339857 0.010104299 0.11015911
0.47366464 0.0088841217 0.10985739
0.47329414 0.0084084217 0.10984982
0.47292364 0.0079327226 0.10984225
0.47255313 0.007457017 0.10983467
0.47218263 0.0069813174 0.1098271
0.4718121 0.0065056174 0.10981952
0.4714416 0.0060299123 0.10981195
0.47107109 0.0055542127 0.10980438
0.47070059 0.0050785071 0.10979681
0.47096002 0.0038498247 0.10949496
0.47058886 0.0033732732 0.10948737
0.4702177 0.0028967219 0.10947978
0.46984652 0.0024201646 0.1094722
0.46947536 0.0019436134 0.10946462
0.46910417 0.001467062 0.10945703
0.46873301 0.00099051069 0.10944945
0.46836185 0.00051395345 0.10944185
0.46799067 3.7402071e-05 0.10943427
0.46761951 -0.00043914927 0.10942668
0.46724835 -0.00091570063 0.1094191
0.46687716 -0.0013922579 0.10941152
0.466506 -0.0018688092 0.10940393
0.46613482 -0.0023453606 0.10939635
0.46576366 -0.0028219118 0.10938875
0.4653925 -0.0032984633 0.10938117
0.46502134 -0.0037750145 0.10937358
0.46465015 -0.0042515779 0.109366
0.464279 -0.0047281291 0.10935842
0.46390781 -0.0052046804 0.10935083
0.46353665 -0.0056812316 0.10934324
0.46378154 -0.0069286688 0.10904107
0.46340972 -0.0074060778 0.10903347
0.46303788 -0.0078834752 0.10902587
0.46266603 -0.0083608842 0.10901827
0.46229422 -0.0088382931 0.10901067
0.46192238 -0.00931569 0.10900307
0.46216261 -0.010569048 0.10870083
0.46179011 -0.011047304 0.10869321
0.46141762 -0.011525558 0.1086856
0.46104512 -0.012003813 0.10867798
0.46067262 -0.012482068 0.10867038
0.46030012 -0.012960322 0.10866276
0.45992762 -0.013438578 0.10865515
0.45955515 -0.013916832 0.10864753
0.45918265 -0.014395087 0.10863992
0.45881015 -0.014873342 0.10863231
0.45843765 -0.015351597 0.1086247
0.45806515 -0.015829852 0.10861708
0.45769265 -0.016308106 0.10860947
0.45732018 -0.016786361 0.10860185
0.45694768 -0.017264616 0.10859425
0.45657519 -0.01774287 0.10858663
0.45620269 -0.018221125 0.10857902
0.45583019 -0.018699382 0.1085714
0.45545769 -0.019177636 0.10856379
0.45508522 -0.019655891 0.10855618
0.45531151 -0.020927131 0.10825365
0.45493835 -0.021406231 0.10824603
0.45456517 -0.021885345 0.1082384
0.45419201 -0.022364445 0.10823077
0.45381886 -0.022843558 0.10822315
0.45404118 -0.024119897 0.10792053
0.45366737 -0.024599854 0.1079129
0.45329353 -0.025079802 0.10790525
0.45291972 -0.025559759 0.10789762
0.45254591 -0.026039718 0.10788997
0.45276424 -0.027321167 0.10758729
0.45238975 -0.027801972 0.10757963
0.45260617 -0.029086003 0.10727688
0.45223102 -0.029567664 0.10726921
0.45185587 -0.030049328 0.10726155
0.45265841 -0.032142464 0.10666364
0.45228195 -0.032625828 0.10665594
0.45190546 -0.033109196 0.10664824
0.451529 -0.033592548 0.10664055
0.45173872 -0.034885064 0.10633768
0.4513616 -0.035369273 0.10632998
0.45098445 -0.035853487 0.10632227
0.45060733 -0.036337696 0.10631456
0.45023018 -0.036821909 0.10630685
0.44985306 -0.037306119 0.10629915
0.44947591 -0.037790332 0.10629144
0.44909877 -0.038274541 0.10628373
0.44930258 -0.039574739 0.10598072
0.44892478 -0.040059809 0.105973
0.44912657 -0.04136252 0.10566997
0.44874811 -0.041848436 0.10566223
0.44836965 -0.042334352 0.10565449
0.44799119 -0.042820264 0.10564676
0.44761273 -0.043306179 0.10563903
0.4665617 -0.084572583 0.093125619
0.46672305 -0.085927211 0.092821762
0.4629142 -0.081446722 0.094586864
0.46307755 -0.082798801 0.094283052
0.4626739 -0.083317056 0.094274804
0.46227026 -0.083835304 0.094266556
0.46186659 -0.084353559 0.094258301
0.46146294 -0.084871806 0.094250053
0.4616223 -0.086228997 0.093946159
0.461218 -0.086748101 0.093937896
0.46137536 -0.088107839 0.09363395
0.46097037 -0.088627785 0.093625672
0.46056542 -0.089147739 0.093617402
0.46072015 -0.090510912 0.093313389
0.46031454 -0.091031723 0.093305096
0.4599089 -0.091552518 0.093296804
0.45950326 -0.092073321 0.093288511
0.45909762 -0.092594132 0.093280226
0.45869198 -0.093114935 0.093271933
0.45828635 -0.093635745 0.093263641
0.45788074 -0.094156541 0.093255356
0.4574751 -0.094677344 0.093247063
0.45762318 -0.096048996 0.092942938
0.57858831 0.044047948 0.091722876
0.57743704 0.044130947 0.092007495
0.57702476 0.043601632 0.091999069
0.57661247 0.043072321 0.091990642
0.57620025 0.042543005 0.091982216
0.57578796 0.042013694 0.091973796
0.57537574 0.041484378 0.09196537
0.57496345 0.040955063 0.091956943
0.57455117 0.040425751 0.091948517
0.57413894 0.039896436 0.09194009
0.57372665 0.039367124 0.091931663
0.57331437 0.038837809 0.091923237
0.57290214 0.038308494 0.09191481
0.57175946 0.038402557 0.092199609
0.57061815 0.038498353 0.092484459
0.57020718 0.03797074 0.092476055
0.56979626 0.037443131 0.092467658
0.56865758 0.037542298 0.092752539
0.56752026 0.037643168 0.093037449
0.56638426 0.037745744 0.093322374
0.56597531 0.037220683 0.093314014
0.56484127 0.037325811 0.093598992
0.56370854 0.037432671 0.093884014
0.56257713 0.037541199 0.094169043
0.56217021 0.037018694 0.094160728
0.56104082 0.037129775 0.094445795
0.56063449 0.036608119 0.094437487
0.56022823 0.036086462 0.094429187
0.55910146 0.036200952 0.094714306
0.55869585 0.035680145 0.094706021
0.55829018 0.035159342 0.094697729
0.5571661 0.035277266 0.09498293
0.55676109 0.034757316 0.094974652
0.55635613 0.034237362 0.094966374
0.55595118 0.033717409 0.094958097
0.55483037 0.033839554 0.095243342
0.55442607 0.033320449 0.09523508
0.55402178 0.032801352 0.095226817
0.55361748 0.032282248 0.095218554
0.55321318 0.031763144 0.095210291
0.55280882 0.031244045 0.095202029
0.55240452 0.030724941 0.095193766
0.55200022 0.030205838 0.095185496
0.55159593 0.029686738 0.095177233
0.55119163 0.029167635 0.095168971
0.55078733 0.028648531 0.095160708
0.55038297 0.028129432 0.095152445
0.54997867 0.027610328 0.095144182
0.54886717 0.027744386 0.095429622
0.54846352 0.027226135 0.095421366
0.54805988 0.026707884 0.095413119
0.54765624 0.026189633 0.095404871
0.5472526 0.025671382 0.095396623
0.54684895 0.02515313 0.095388368
0.54644531 0.024634881 0.09538012
0.54604167 0.02411663 0.095371872
0.54563802 0.023598379 0.095363624
0.54523438 0.023080127 0.095355369
0.54483074 0.022561876 0.095347121
0.5444271 0.022043625 0.095338874
0.54402345 0.021525374 0.095330626
0.54361981 0.021007122 0.095322371
0.54321617 0.020488871 0.095314123
0.54281253 0.01997062 0.095305875
0.54310542 0.01878559 0.095003709
0.54270113 0.018266488 0.094995447
0.54229683 0.017747384 0.094987184
0.54189253 0.017228287 0.094978921
0.54148817 0.016709184 0.094970658
0.54108387 0.016190082 0.094962396
0.54067957 0.015670978 0.094954133
0.54027528 0.015151875 0.09494587
0.53987098 0.014632772 0.0949376
0.53946668 0.014113675 0.094929338
0.53906232 0.013594572 0.094921075
0.53865802 0.013075468 0.094912812
0.53894234 0.011879378 0.094610475
0.53784943 0.012037262 0.094896287
0.53744513 0.011518165 0.094888024
0.53704077 0.010999062 0.094879761
0.53732246 0.0097995652 0.094577365
0.53691751 0.0092796162 0.094569087
0.53651249 0.0087596616 0.094560817
0.53610754 0.008239706 0.094552539
0.53570259 0.0077197514 0.094544262
0.53529757 0.0071998024 0.094535984
0.53489262 0.0066798478 0.094527707
0.53448766 0.0061598928 0.094519429
0.53408271 0.0056399438 0.094511151
0.5336777 0.0051199892 0.094502874
0.53327274 0.0046000341 0.094494596
0.53286779 0.0040800795 0.094486326
0.53246278 0.0035601305 0.094478048
0.53205782 0.0030401757 0.094469771
0.53165287 0.0025202208 0.094461493
0.53124791 0.0020002718 0.094453216
0.5308429 0.001480317 0.094444938
0.53043795 0.00096036209 0.09443666
0.53003299 0.00044040725 0.094428383
0.52962798 -7.9541707e-05 0.094420113
0.52922302 -0.00059949653 0.094411835
0.52814603 -0.00042118289 0.094697975
0.52774167 -0.00094028597 0.094689712
0.52666664 -0.00075942295 0.094975889
0.52693307 -0.0019784921 0.094673179
0.52585936 -0.0017959257 0.094959386
0.52545571 -0.0023141771 0.094951138
0.52438396 -0.0021290663 0.095237382
0.52398103 -0.0026464658 0.095229149
0.518538 -0.015879462 0.09388528
0.51813239 -0.016400261 0.093876988
0.51772672 -0.016921068 0.093868703
0.51732111 -0.017441869 0.09386041
0.51887 -0.02013661 0.092967615
0.51846236 -0.020659966 0.092959285
0.51805472 -0.021183323 0.092950948
0.51829666 -0.022433911 0.092647724
0.51788843 -0.022958118 0.092639379
0.51642424 -0.023276752 0.092917629
0.51666355 -0.024530746 0.092614345
0.47709796 0.012094382 0.10906244
0.47736707 0.010878686 0.10875977
0.47571605 0.011881242 0.10934235
0.47534552 0.011405536 0.10933477
0.47497502 0.010929837 0.1093272
0.47396693 0.011196649 0.10961475
0.47359711 0.010721801 0.10960719
0.47322726 0.010246947 0.10959964
0.47349301 0.0090270266 0.10929692
0.47312251 0.0085513266 0.10928934
0.472752 0.0080756275 0.10928177
0.47238147 0.0075999219 0.1092742
0.47201097 0.0071242223 0.10926662
0.47164047 0.0066485228 0.10925905
0.47126997 0.0061728172 0.10925148
0.47089946 0.0056971177 0.10924391
0.47052896 0.0052214121 0.10923634
0.47078809 0.0039929855 0.10893348
0.4704169 0.0035164342 0.10892589
0.47004575 0.0030398828 0.10891831
0.46967459 0.0025633255 0.10891072
0.4693034 0.0020867742 0.10890314
0.46893224 0.0016102229 0.10889556
0.46856108 0.0011336715 0.10888796
0.4681899 0.00065711426 0.10888038
0.46781874 0.00018056291 0.10887279
0.46744758 -0.00029598843 0.10886521
0.46707639 -0.00077253976 0.10885762
0.46670523 -0.0012490971 0.10885004
0.46633404 -0.0017256484 0.10884245
0.46596289 -0.0022021998 0.10883486
0.46559173 -0.002678751 0.10882728
0.46522054 -0.0031553025 0.10881969
0.46484938 -0.0036318537 0.10881211
0.46447819 -0.0041084168 0.10880452
0.46410704 -0.0045849681 0.10879693
0.46373588 -0.0050615198 0.10878935
0.46336472 -0.005538071 0.10878176
0.46299353 -0.0060146223 0.10877418
0.46323746 -0.0072626611 0.10847099
0.46286562 -0.007740058 0.10846339
0.46249381 -0.008217467 0.10845579
0.46212196 -0.008694876 0.10844819
0.46175015 -0.0091722729 0.10844059
0.46199006 -0.010425377 0.10813735
0.46161756 -0.010903631 0.10812973
0.46124506 -0.011381887 0.10812212
0.46087256 -0.011860142 0.1081145
0.46050006 -0.012338396 0.10810689
0.46012756 -0.012816651 0.10809928
0.45975506 -0.013294905 0.10809167
0.45938259 -0.013773161 0.10808405
0.45901009 -0.014251416 0.10807644
0.4586376 -0.01472967 0.10806882
0.4582651 -0.015207925 0.10806122
0.4578926 -0.01568618 0.1080536
0.4575201 -0.016164435 0.10804599
0.45714763 -0.01664269 0.10803837
0.45677513 -0.017120944 0.10803076
0.45640263 -0.017599199 0.10802315
0.45603013 -0.018077454 0.10801554
0.45565763 -0.018555708 0.10800792
0.45528513 -0.019033965 0.10800031
0.45491266 -0.019512219 0.10799269
0.45454016 -0.019990474 0.10798509
0.45416766 -0.020468729 0.10797747
0.45439231 -0.021741416 0.10767391
0.45401916 -0.022220518 0.10766629
0.453646 -0.02269963 0.10765866
0.45327285 -0.02317873 0.10765103
0.45289969 -0.023657832 0.10764341
0.45252654 -0.024136944 0.10763578
0.45215338 -0.024616044 0.10762816
0.45237273 -0.025895534 0.10732449
0.45199892 -0.026375493 0.10731685
0.4522163 -0.027657531 0.10701314
0.45243236 -0.028941309 0.10670938
0.45205721 -0.02942297 0.10670172
0.45168209 -0.029904632 0.10669405
0.45248401 -0.031997256 0.10609414
0.45210755 -0.032480624 0.10608644
0.45173106 -0.032963987 0.10607875
0.45135459 -0.03344734 0.10607105
0.45156401 -0.034739602 0.10576718
0.45118687 -0.035223812 0.10575947
0.45080975 -0.035708025 0.10575177
0.4504326 -0.036192235 0.10574406
0.45005548 -0.036676448 0.10573635
0.44967833 -0.037160657 0.10572864
0.44930121 -0.037644871 0.10572094
0.44892406 -0.03812908 0.10571323
0.44912758 -0.03942902 0.10540921
0.44874978 -0.03991409 0.10540149
0.44895124 -0.041216549 0.10509746
0.44857278 -0.04170246 0.10508972
0.44819432 -0.042188376 0.10508198
0.44781587 -0.042674292 0.10507425
0.44743741 -0.043160204 0.10506652
0.46175852 -0.080974281 0.09426561
0.46038917 -0.081171215 0.094545797
0.4611156 -0.083360903 0.093944319
0.46296605 -0.087229632 0.092749514
0.46087232 -0.085234374 0.093631193
0.46103069 -0.086592153 0.093326278
0.46062639 -0.087111257 0.093318015
0.46022207 -0.087630361 0.093309753
0.46037781 -0.088991538 0.093004785
0.46053225 -0.090354457 0.092699774
0.46012661 -0.090875268 0.092691481
0.459721 -0.091396064 0.092683189
0.45931536 -0.091916867 0.092674896
0.45890972 -0.092437677 0.092666611
0.45850408 -0.09295848 0.092658319
0.45809844 -0.093479291 0.092650026
0.45769283 -0.094000086 0.092641741
0.45728719 -0.094520889 0.092633449
0.45688155 -0.0950417 0.092625156
0.57839698 0.044207215 0.091098227
0.57724607 0.044289961 0.091383852
0.57683378 0.043760646 0.091375425
0.5764215 0.043231331 0.091367006
0.57600927 0.042702015 0.09135858
0.57559699 0.042172704 0.091350153
0.5751847 0.041643389 0.091341726
0.57477248 0.041114073 0.0913333
0.57436019 0.040584762 0.091324873
0.57394797 0.040055446 0.091316447
0.57353568 0.039526135 0.09130802
0.5731234 0.038996819 0.091299593
0.57271117 0.038467504 0.091291174
0.57229888 0.037938192 0.091282748
0.57115722 0.038032848 0.091568559
0.5700168 0.03812924 0.091854423
0.56960589 0.037601631 0.091846019
0.56919497 0.037074018 0.091837622
0.56805724 0.037173785 0.092123516
0.56692088 0.037275251 0.092409439
0.56651127 0.036749337 0.092401072
0.56537688 0.036853358 0.092687033
0.56424385 0.036959078 0.092973024
0.56311208 0.037066538 0.093259059
0.56270444 0.036543179 0.093250729
0.5615747 0.036653154 0.093536787
0.56116778 0.036130652 0.093528464
0.56004 0.036243174 0.093814567
0.55963367 0.035721518 0.093806267
0.55922741 0.035199866 0.093797959
0.55810231 0.035315797 0.094084114
0.55769664 0.034794994 0.094075821
0.55729103 0.034274191 0.094067529
0.55616856 0.03439356 0.094353765
0.55576354 0.033873606 0.094345488
0.55464309 0.033995498 0.094631732
0.5542388 0.033476394 0.094623469
0.5538345 0.032957293 0.094615206
0.5534302 0.032438189 0.094606943
0.55302584 0.031919088 0.094598681
0.55262154 0.031399988 0.094590418
0.55221725 0.030880883 0.094582155
0.55181295 0.030361781 0.094573893
0.55140865 0.02984268 0.09456563
0.55100429 0.029323578 0.094557367
0.55059999 0.028804475 0.094549105
0.55019569 0.028285375 0.094540842
0.5497914 0.027766271 0.094532572
0.54868019 0.027900076 0.094819009
0.54827654 0.027381824 0.094810762
0.5478729 0.026863571 0.094802506
0.54746926 0.02634532 0.094794258
0.54706562 0.025827069 0.094786011
0.54666197 0.025308818 0.094777763
0.54625833 0.02479057 0.094769515
0.54585469 0.024272319 0.09476126
0.54545105 0.023754068 0.094753012
0.5450474 0.023235815 0.094744764
0.54464376 0.022717563 0.094736516
0.54424012 0.022199312 0.094728261
0.54383647 0.021681061 0.094720013
0.54343283 0.02116281 0.094711766
0.54372674 0.01997974 0.094408624
0.54332244 0.019460637 0.094400361
0.54291815 0.018941533 0.094392098
0.54251385 0.01842243 0.094383836
0.54210949 0.017903328 0.094375573
0.54170519 0.017384229 0.09436731
0.54130089 0.016865127 0.094359048
0.54089659 0.016346024 0.094350785
0.5404923 0.01582692 0.094342522
0.540088 0.015307818 0.09433426
0.53968364 0.014788714 0.094325997
0.53927934 0.014269617 0.094317734
0.53887504 0.013750514 0.094309472
0.53847075 0.013231411 0.094301209
0.53875476 0.012035577 0.093997858
0.53766215 0.012193205 0.094284676
0.53725779 0.011674108 0.094276413
0.53685349 0.011155005 0.094268151
0.53713489 0.0099557638 0.093964756
0.53672987 0.0094358148 0.093956478
0.53632492 0.0089158593 0.0939482
0.53591996 0.0083959047 0.093939923
0.53551495 0.0078759501 0.093931645
0.53511 0.0073560011 0.093923375
0.53470504 0.0068360465 0.093915097
0.53430003 0.0063160914 0.09390682
0.53389508 0.0057961424 0.093898542
0.53349012 0.0052761878 0.093890265
0.53308517 0.0047562327 0.093881987
0.53268015 0.0042362781 0.093873709
0.5322752 0.0037163289 0.093865432
0.53187025 0.003196374 0.093857154
0.53146523 0.0026764192 0.093848884
0.53106028 0.0021564704 0.093840607
0.53065532 0.0016365155 0.093832329
0.53025031 0.0011165607 0.093824051
0.52984536 0.00059660582 0.093815774
0.5294404 7.6656856e-05 0.093807496
0.52903545 -0.00044329799 0.093799219
0.52795869 -0.00026524015 0.094086364
0.52755439 -0.00078434322 0.094078101
0.52647966 -0.00060373516 0.094365276
0.5267458 -0.0018225494 0.094061576
0.52567238 -0.0016402379 0.094348781
0.52593714 -0.0028607557 0.09404505
0.51990402 -0.018409315 0.092375979
0.5190888 -0.019456033 0.092359319
0.51868117 -0.019979389 0.09235099
0.51827353 -0.020502744 0.09234266
0.5178659 -0.021026101 0.092334323
0.51810753 -0.022276433 0.092030093
0.51769924 -0.022800641 0.092021756
0.51623541 -0.02311953 0.092301004
0.51647443 -0.024373271 0.091996722
0.5154202 -0.024166241 0.092284337
0.476926 0.012237543 0.10850096
0.47655484 0.011760992 0.10849337
0.47490513 0.012763855 0.10907795
0.47517389 0.011548443 0.1087743
0.47480339 0.011072743 0.10876673
0.47443289 0.010597043 0.10875915
0.47342578 0.010864452 0.10904772
0.47305593 0.010389598 0.10904016
0.47268608 0.0099147493 0.1090326
0.47231624 0.0094398959 0.10902504
0.47194639 0.008965048 0.10901748
0.47157654 0.0084901946 0.10900992
0.47183934 0.0072671282 0.10870615
0.47146884 0.0067914287 0.10869858
0.47109833 0.0063157231 0.108691
0.47072783 0.0058400235 0.10868343
0.47035733 0.0053643179 0.10867586
0.46998683 0.0048886184 0.10866828
0.46961632 0.0044129188 0.10866071
0.46924579 0.0039372132 0.10865314
0.46887529 0.0034615137 0.10864557
0.46913147 0.002229936 0.10834166
0.46876031 0.0017533846 0.10833407
0.46838912 0.0012768332 0.10832649
0.46801797 0.000800276 0.1083189
0.46764678 0.00032372464 0.10831131
0.46665227 0.00060730428 0.10860013
0.46628174 0.00013159876 0.10859256
0.46591124 -0.00034410084 0.10858499
0.46554074 -0.00081980048 0.10857742
0.46517023 -0.0012955001 0.10856985
0.46479973 -0.0017712056 0.10856228
0.46442923 -0.0022469109 0.1085547
0.46405873 -0.0027226049 0.10854713
0.46368822 -0.0031983103 0.10853956
0.46331769 -0.0036740159 0.10853198
0.46294719 -0.0041497215 0.10852441
0.46319276 -0.0053949091 0.10822028
0.4628216 -0.0058714608 0.10821269
0.46245041 -0.006348012 0.10820511
0.46269339 -0.0075966413 0.10790091
0.46232155 -0.0080740508 0.10789331
0.46194971 -0.0085514598 0.10788571
0.46157789 -0.0090288566 0.10787811
0.46120605 -0.0095062656 0.10787051
0.46083423 -0.0099836625 0.10786291
0.46046239 -0.010461072 0.10785531
0.46009058 -0.010938469 0.10784771
0.45971873 -0.011415878 0.10784011
0.45934689 -0.011893275 0.10783251
0.45897508 -0.012370684 0.10782491
0.45860323 -0.012848093 0.10781731
0.45823139 -0.01332549 0.10780971
0.45785958 -0.013802899 0.10780212
0.45748773 -0.014280297 0.10779452
0.45711592 -0.014757706 0.10778692
0.45674407 -0.015235103 0.10777932
0.45637223 -0.015712511 0.10777172
0.45600042 -0.016189909 0.10776412
0.45562857 -0.016667318 0.10775652
0.45525673 -0.017144727 0.10774892
0.45488492 -0.017622124 0.10774132
0.45451307 -0.018099533 0.10773372
0.45474011 -0.019368546 0.10742921
0.45436761 -0.019846801 0.1074216
0.45399511 -0.020325055 0.10741398
0.45362261 -0.02080331 0.10740637
0.45325011 -0.021281565 0.10739876
0.45287761 -0.021759821 0.10739115
0.45250511 -0.022238076 0.10738353
0.45272684 -0.023513904 0.10707892
0.45235366 -0.023993015 0.1070713
0.4519805 -0.024472116 0.10706367
0.45219958 -0.02575135 0.106759
0.45182574 -0.026231309 0.10675136
0.45204282 -0.027513092 0.10644665
0.45166832 -0.027993897 0.10643899
0.45188344 -0.029278275 0.10613422
0.45150828 -0.029759938 0.10612655
0.4517214 -0.031046819 0.10582176
0.45193315 -0.032335415 0.10551694
0.45155668 -0.032818783 0.10550924
0.45118019 -0.033302136 0.10550155
0.45138931 -0.034594141 0.10519668
0.45101216 -0.03507835 0.10518897
0.45063505 -0.035562564 0.10518126
0.4502579 -0.036046773 0.10517356
0.44988078 -0.036530983 0.10516585
0.44950363 -0.037015196 0.10515814
0.44912651 -0.037499405 0.10515043
0.44874936 -0.037983619 0.10514273
0.44837224 -0.038467828 0.10513502
0.44857475 -0.039768372 0.10482998
0.44877592 -0.041070573 0.10452495
0.44839746 -0.041556489 0.10451721
0.448019 -0.042042404 0.10450948
0.44764054 -0.042528316 0.10450175
0.44726208 -0.043014232 0.10449401
0.46084172 -0.078635879 0.094260395
0.46157217 -0.0808191 0.093657002
0.46173489 -0.082170658 0.093351185
0.46020311 -0.081016295 0.093938194
0.45980147 -0.081531987 0.093929984
0.46068534 -0.085078686 0.093020588
0.46084341 -0.086436212 0.092714675
0.46043909 -0.086955316 0.092706412
0.46003479 -0.087474421 0.092698149
0.46019021 -0.088835336 0.092392176
0.46034434 -0.090198003 0.092086151
0.4599387 -0.090718813 0.092077866
0.4595331 -0.091239609 0.092069574
0.45912746 -0.091760412 0.092061281
0.45872182 -0.092281222 0.092052996
0.45831618 -0.092802025 0.092044704
0.45791054 -0.093322836 0.092036411
0.4575049 -0.093843631 0.092028126
0.45709929 -0.094364434 0.092019834
0.45669365 -0.094885245 0.092011541
0.45684046 -0.096257225 0.091705397
0.57705504 0.044448972 0.090760209
0.57664281 0.043919656 0.090751782
0.57623053 0.043390341 0.090743355
0.5758183 0.04286103 0.090734929
0.57540601 0.042331714 0.09072651
0.57499373 0.041802403 0.090718083
0.5745815 0.041273087 0.090709656
0.57416922 0.040743772 0.09070123
0.57375699 0.04021446 0.090692803
0.57334471 0.039685145 0.090684377
0.57293242 0.03915583 0.09067595
0.5725202 0.038626518 0.090667523
0.57210791 0.038097203 0.090659097
0.57169563 0.037567887 0.090650678
0.57055497 0.037663139 0.090937503
0.56941551 0.037760131 0.091224387
0.5690046 0.037232518 0.09121599
0.56859368 0.036704905 0.091207586
0.5674569 0.036805265 0.091494501
0.56704664 0.036278505 0.091486111
0.56591189 0.036381416 0.09177307
0.56477851 0.036486033 0.092060044
0.56364644 0.036592349 0.092347048
0.56323814 0.036068141 0.092338704
0.56210798 0.036177047 0.092625774
0.56170034 0.035653688 0.092617445
0.56057227 0.035765108 0.09290453
0.5594455 0.03587823 0.093191646
0.55903918 0.035356577 0.093183339
0.55863291 0.034834921 0.093175039
0.55750877 0.034951448 0.093462206
0.5571031 0.034430645 0.093453914
0.55598092 0.034549762 0.093741149
0.55557597 0.034029808 0.093732871
0.55517101 0.033509854 0.093724594
0.55405152 0.033632338 0.094011858
0.55364716 0.033113237 0.094003595
0.55324286 0.032594133 0.093995333
0.55283856 0.032075033 0.09398707
0.55243427 0.031555932 0.093978807
0.55202997 0.031036828 0.093970545
0.55162567 0.030517725 0.093962282
0.55122131 0.029998625 0.093954019
0.55081701 0.02947952 0.093945749
0.55041271 0.028960418 0.093937486
0.55000842 0.028441317 0.093929224
0.54960412 0.027922215 0.093920961
0.54849321 0.028055761 0.094208404
0.54808956 0.02753751 0.094200157
0.54768592 0.027019259 0.094191901
0.54728228 0.026501007 0.094183654
0.54687864 0.025982756 0.094175406
0.54647499 0.025464505 0.094167158
0.54607135 0.024946257 0.094158903
0.54566771 0.024428004 0.094150655
0.54526407 0.023909753 0.094142407
0.54486042 0.023391502 0.094134159
0.54445678 0.022873251 0.094125904
0.54405314 0.022355 0.094117656
0.54364949 0.021836748 0.094109409
0.54394376 0.020654783 0.093805276
0.54353946 0.020135684 0.093797013
0.54313517 0.01961658 0.09378875
0.54273087 0.019097477 0.093780488
0.54232651 0.018578375 0.093772225
0.54192221 0.01805927 0.093763962
0.54151791 0.017540174 0.0937557
0.54111362 0.017021071 0.093747437
0.54070932 0.016501967 0.093739174
0.54030502 0.015982864 0.093730912
0.53990066 0.015463761 0.093722649
0.53949636 0.014944658 0.093714386
0.53909206 0.014425561 0.093706124
0.53868777 0.013906457 0.093697853
0.53828347 0.013387355 0.093689591
0.53856713 0.012191776 0.093385249
0.53816217 0.011671822 0.093376972
0.53775722 0.011151873 0.093368694
0.5373522 0.010631918 0.093360417
0.53694725 0.010111963 0.093352139
0.5365423 0.0095920144 0.093343861
0.53613734 0.0090720588 0.093335584
0.53573233 0.0085521042 0.093327306
0.53532737 0.0080321496 0.093319036
0.53492242 0.0075122006 0.093310758
0.53451741 0.0069922456 0.093302481
0.53411245 0.006472291 0.093294203
0.5337075 0.0059523419 0.093285926
0.53330249 0.0054323869 0.093277648
0.53289753 0.0049124323 0.09326937
0.53249258 0.0043924772 0.093261093
0.53208762 0.0038725284 0.093252823
0.53168261 0.0033525736 0.093244545
0.53127766 0.0028326188 0.093236268
0.5308727 0.0023126698 0.09322799
0.53046769 0.0017927149 0.093219712
0.53006274 0.0012727601 0.093211435
0.52965778 0.00075280527 0.093203157
0.52925277 0.0002328563 0.09319488
0.52884781 -0.00028709855 0.093186602
0.52777141 -0.0001092965 0.093474753
0.52736712 -0.0006283996 0.093466491
0.52696282 -0.0011475027 0.093458228
0.52521956 -0.00026599746 0.094042882
0.52481657 -0.00078340294 0.094034642
0.52374548 -0.00059879286 0.094322897
0.52534556 -0.0032239151 0.09342517
0.52494127 -0.0037430122 0.093416907
0.52320468 -0.0028530015 0.094001703
0.52147067 -0.0019595448 0.094586574
0.52106905 -0.002475241 0.094578363
0.52066737 -0.0029909429 0.094570152
0.51889998 -0.019298812 0.091742694
0.51849234 -0.019822167 0.091734365
0.5180847 -0.020345524 0.091726035
0.51767707 -0.020868879 0.091717705
0.51791841 -0.022118956 0.09141247
0.51751012 -0.022643164 0.091404125
0.51604658 -0.022962309 0.091684379
0.51628524 -0.024215793 0.091379091
0.47675407 0.012380704 0.10793948
0.47510365 0.013381353 0.10852604
0.47473383 0.012906505 0.10851848
0.47436398 0.012431651 0.10851092
0.47399414 0.011956804 0.10850336
0.47235033 0.012965956 0.10909005
0.47261813 0.011749954 0.10878538
0.47224894 0.011275952 0.10877784
0.47251475 0.0100574 0.10847312
0.4721449 0.0095825465 0.10846557
0.47177505 0.0091076987 0.108458
0.47140521 0.0086328443 0.10845045
0.47103539 0.0081579965 0.10844289
0.47066554 0.007683143 0.10843533
0.4702957 0.0072082952 0.10842777
0.46992585 0.0067334413 0.10842022
0.4701857 0.0055072228 0.10811538
0.46981519 0.0050315233 0.10810781
0.46944469 0.0045558237 0.10810024
0.46907416 0.0040801181 0.10809267
0.46870366 0.0036044186 0.1080851
0.46833315 0.0031287191 0.10807752
0.46796265 0.0026530137 0.10806995
0.46759215 0.0021773139 0.10806238
0.46722165 0.0017016085 0.1080548
0.46685115 0.0012259089 0.10804723
0.46648064 0.00075020926 0.10803966
0.46611011 0.00027450381 0.10803209
0.46573961 -0.00020119581 0.10802452
0.46536911 -0.00067689543 0.10801695
0.4649986 -0.001152595 0.10800937
0.4646281 -0.0016283005 0.1080018
0.4642576 -0.002104006 0.10799423
0.4638871 -0.0025796997 0.10798665
0.46351659 -0.0030554053 0.10797908
0.46314606 -0.0035311107 0.10797151
0.46277556 -0.0040068161 0.10796393
0.46240506 -0.00448251 0.10795636
0.46264964 -0.0057282997 0.10765122
0.46227849 -0.006204851 0.10764363
0.46190733 -0.0066814022 0.10763605
0.46214929 -0.0079306336 0.10733083
0.46177748 -0.0084080426 0.10732323
0.46140563 -0.0088854404 0.10731563
0.46103379 -0.0093628494 0.10730803
0.46066198 -0.0098402463 0.10730043
0.46029013 -0.010317655 0.10729283
0.45991832 -0.010795052 0.10728523
0.45954648 -0.011272461 0.10727763
0.45917466 -0.011749859 0.10727003
0.45880282 -0.012227268 0.10726243
0.45843098 -0.012704676 0.10725483
0.45805916 -0.013182074 0.10724723
0.45768732 -0.013659483 0.10723963
0.4573155 -0.01413688 0.10723203
0.45694366 -0.014614289 0.10722443
0.45657182 -0.015091687 0.10721684
0.4562 -0.015569095 0.10720924
0.45582816 -0.016046492 0.10720164
0.45545635 -0.016523901 0.10719404
0.4550845 -0.01700131 0.10718644
0.45471266 -0.017478708 0.10717884
0.45434085 -0.017956117 0.10717124
0.45456752 -0.019224873 0.10686573
0.45419505 -0.019703129 0.10685811
0.45382255 -0.020181384 0.1068505
0.45345005 -0.020659639 0.10684289
0.45307755 -0.021137893 0.10683528
0.45270506 -0.021616148 0.10682766
0.45233256 -0.022094402 0.10682005
0.45255396 -0.023369975 0.10651443
0.4521808 -0.023849087 0.10650681
0.45180765 -0.024328187 0.10649918
0.45143449 -0.0248073 0.10649155
0.45165259 -0.026087126 0.10618587
0.45127875 -0.026567083 0.10617823
0.45149484 -0.027849456 0.1058725
0.45170966 -0.029133579 0.10556673
0.45133451 -0.029615242 0.10555906
0.45095935 -0.030096892 0.10555139
0.45117149 -0.03138439 0.10524558
0.45138228 -0.032673575 0.10493974
0.45100582 -0.033156928 0.10493205
0.45062932 -0.033640295 0.10492436
0.45083746 -0.034932889 0.10461847
0.45046034 -0.035417102 0.10461076
0.4500832 -0.035901312 0.10460305
0.44970608 -0.036385521 0.10459535
0.44932893 -0.036869735 0.10458764
0.44895181 -0.037353944 0.10457993
0.44857466 -0.037838157 0.10457222
0.44819754 -0.038322367 0.10456452
0.44839975 -0.039622657 0.10425848
0.44802195 -0.040107712 0.10425076
0.44822213 -0.041410517 0.1039447
0.44784367 -0.041896429 0.10393697
0.44746521 -0.042382345 0.10392924
0.44708675 -0.04286826 0.1039215
0.44843429 -0.045817614 0.10301861
0.44747919 -0.045484077 0.10330924
0.44709939 -0.045971695 0.10330147
0.46065596 -0.07848122 0.093653798
0.46082035 -0.079829976 0.093347013
0.4604187 -0.080345675 0.093338802
0.46001706 -0.080861375 0.093330592
0.46065611 -0.086280271 0.092103064
0.45969105 -0.085959502 0.09239348
0.45984748 -0.087318473 0.092086531
0.4600026 -0.088679142 0.09177956
0.45959765 -0.089199096 0.091771282
0.4597508 -0.090562358 0.091464251
0.45934519 -0.091083154 0.091455959
0.45893955 -0.091603957 0.091447666
0.45853391 -0.092124768 0.091439381
0.45812827 -0.092645571 0.091431089
0.45772263 -0.093166381 0.091422796
0.45731699 -0.093687177 0.091414511
0.45691136 -0.09420798 0.091406219
0.45650575 -0.09472879 0.091397926
0.45610011 -0.095249593 0.091389634
0.57645184 0.044078667 0.090128139
0.57603955 0.043549351 0.09011972
0.57562733 0.04302004 0.090111293
0.57521504 0.042490724 0.090102866
0.57480276 0.041961413 0.09009444
0.57439053 0.041432098 0.090086013
0.57397825 0.040902782 0.090077586
0.57356596 0.040373471 0.09006916
0.57315373 0.039844155 0.090060733
0.57274145 0.039314844 0.090052314
0.57232922 0.038785528 0.090043887
0.57191694 0.038256213 0.090035461
0.57150465 0.037726901 0.090027034
0.57109243 0.037197586 0.090018608
0.56995267 0.037293434 0.090306453
0.56881422 0.037391018 0.090594351
0.5684033 0.036863405 0.090585954
0.56799233 0.036335796 0.09057755
0.56685662 0.036436748 0.090865478
0.5664463 0.035909988 0.090857096
0.56531256 0.036013495 0.091145061
0.56418014 0.036118705 0.091433056
0.56377119 0.035593648 0.091424696
0.56264073 0.035701409 0.091712736
0.56151152 0.035810906 0.09200082
0.56110394 0.035287552 0.09199249
0.55997676 0.035399567 0.092280596
0.55885094 0.035513286 0.092568725
0.55844468 0.034991633 0.092560418
0.55803835 0.034469977 0.092552118
0.55691522 0.0345871 0.092840299
0.55650955 0.034066297 0.092832007
0.55538833 0.034186006 0.093120255
0.55498338 0.033666052 0.093111984
0.55386418 0.033788282 0.093400247
0.55345988 0.033269182 0.093391985
0.55305558 0.032750078 0.093383722
0.55265129 0.032230973 0.093375459
0.55224699 0.031711873 0.093367197
0.55184263 0.031192772 0.093358926
0.55143833 0.030673668 0.093350664
0.55103403 0.030154567 0.093342401
0.55062973 0.029635465 0.093334138
0.55022544 0.029116362 0.093325876
0.54982114 0.028597262 0.093317613
0.54941678 0.028078159 0.09330935
0.54901248 0.027559055 0.093301088
0.54860818 0.027039953 0.093292825
0.54820389 0.026520852 0.093284562
0.54779959 0.02600175 0.0932763
0.54739523 0.025482645 0.093268037
0.54628801 0.025620192 0.093556546
0.54658663 0.024444442 0.093251511
0.54618233 0.02392534 0.093243249
0.54577804 0.023406239 0.093234979
0.54537374 0.022887137 0.093226716
0.54496938 0.022368032 0.093218453
0.54456508 0.021848934 0.093210191
0.54416078 0.021329829 0.093201928
0.54375648 0.020810727 0.093193665
0.54335219 0.020291626 0.093185402
0.54294789 0.019772524 0.09317714
0.54254353 0.01925342 0.093168877
0.54213923 0.018734317 0.093160614
0.54242927 0.017547505 0.092855401
0.54202431 0.017027551 0.092847124
0.5416193 0.016507596 0.092838846
0.54121435 0.015987648 0.092830569
0.54080939 0.015467692 0.092822298
0.54040438 0.014947738 0.092814021
0.53999943 0.014427783 0.092805743
0.53959447 0.013907834 0.092797466
0.53918946 0.013387878 0.092789188
0.5387845 0.012867924 0.09278091
0.53837955 0.012347975 0.092772633
0.5379746 0.01182802 0.092764355
0.53756958 0.011308071 0.092756085
0.53716463 0.010788117 0.092747808
0.53675967 0.010268161 0.09273953
0.53635466 0.009748213 0.092731252
0.53594971 0.0092282575 0.092722975
0.53554475 0.0087083029 0.092714697
0.53513974 0.0081883483 0.09270642
0.53473479 0.0076683993 0.092698142
0.53432983 0.0071484442 0.092689864
0.53392488 0.0066284896 0.092681594
0.53351986 0.0061085406 0.092673317
0.53311491 0.0055885855 0.092665039
0.53270996 0.0050686309 0.092656761
0.53230494 0.0045486758 0.092648484
0.53189999 0.0040287268 0.092640206
0.53149503 0.0035087722 0.092631929
0.53109008 0.0029888174 0.092623651
0.53068507 0.0024688684 0.092615373
0.53028011 0.0019489136 0.092607103
0.52987516 0.0014289586 0.092598826
0.52947015 0.00090900384 0.092590548
0.52906519 0.00038905485 0.092582271
0.52866024 -0.00013089996 0.092573993
0.52758414 4.6647132e-05 0.092863135
0.52717984 -0.00047245595 0.092854872
0.52677548 -0.00099155901 0.09284661
0.52637118 -0.0015106621 0.092838347
0.52462989 -0.00062797096 0.093425035
0.52355909 -0.00044361668 0.093714297
0.52449113 -0.0023653659 0.093111068
0.52342099 -0.0021801698 0.093400329
0.52168626 -0.0012889283 0.093987182
0.52128464 -0.0018046245 0.093978971
0.52021849 -0.001614313 0.094268322
0.51981747 -0.0021291631 0.094260126
0.51871115 -0.01914159 0.091126069
0.51830351 -0.019664945 0.09111774
0.51789588 -0.020188302 0.09110941
0.51748824 -0.020711659 0.09110108
0.51772928 -0.021961479 0.090794846
0.51732099 -0.022485686 0.090786502
0.51585776 -0.022805087 0.091067754
0.47567201 0.014473704 0.10798168
0.47466218 0.014736348 0.10827218
0.47429302 0.014262347 0.10826464
0.47392383 0.01378835 0.10825709
0.47419265 0.0125743 0.10795145
0.4738228 0.012099452 0.10794389
0.47217962 0.013108094 0.10853259
0.4724471 0.011892348 0.10822691
0.47207794 0.011418346 0.10821937
0.47170874 0.01094435 0.10821182
0.47133955 0.010470347 0.10820428
0.47097039 0.0099963453 0.10819673
0.4706012 0.0095223496 0.10818919
0.47023204 0.0090483474 0.10818164
0.46986285 0.0085743517 0.10817409
0.47012436 0.0073509444 0.1078683
0.46975452 0.0068760905 0.10786074
0.46938467 0.0064012427 0.10785318
0.46901482 0.0059263888 0.10784563
0.46864501 0.0054515409 0.10783806
0.46827516 0.004976687 0.10783051
0.46790531 0.0045018392 0.10782295
0.46753547 0.0040269857 0.10781539
0.46779102 0.0027959195 0.10750947
0.46742052 0.00232022 0.1075019
0.46705002 0.0018445144 0.10749432
0.46667948 0.0013688148 0.10748675
0.46630898 0.00089311518 0.10747918
0.46593848 0.0004174097 0.10747161
0.46556798 -5.8289901e-05 0.10746404
0.46519747 -0.00053398951 0.10745647
0.46482697 -0.0010096892 0.10744889
0.46445647 -0.0014853947 0.10744132
0.46408597 -0.0019611001 0.10743375
0.46371546 -0.0024367939 0.10742617
0.46334493 -0.0029124992 0.1074186
0.46297443 -0.0033882048 0.10741103
0.46260393 -0.0038639102 0.10740346
0.46223342 -0.0043396042 0.10739589
0.46186292 -0.0048153093 0.10738832
0.46210656 -0.0060616904 0.10708215
0.46173537 -0.0065382416 0.10707457
0.46197706 -0.0077872169 0.10676835
0.46160522 -0.0082646264 0.10676075
0.46123338 -0.0087420233 0.10675315
0.46086156 -0.0092194322 0.10674555
0.46048972 -0.0096968291 0.10673795
0.46011791 -0.010174238 0.10673035
0.45974606 -0.010651636 0.10672275
0.45937422 -0.011129045 0.10671515
0.45900241 -0.011606442 0.10670755
0.45863056 -0.012083851 0.10669995
0.45825872 -0.01256126 0.10669235
0.4578869 -0.013038657 0.10668475
0.45751506 -0.013516066 0.10667715
0.45714325 -0.013993463 0.10666955
0.4567714 -0.014470872 0.10666195
0.45639959 -0.014948269 0.10665435
0.45602775 -0.015425678 0.10664675
0.45565593 -0.015903076 0.10663915
0.45528409 -0.016380485 0.10663155
0.45491225 -0.016857894 0.10662396
0.45454043 -0.01733529 0.10661636
0.45416859 -0.017812699 0.10660876
0.45379674 -0.018290097 0.10660116
0.45342493 -0.018767506 0.10659356
0.45305309 -0.019244904 0.10658596
0.45268127 -0.019722313 0.10657836
0.45230943 -0.020199722 0.10657076
0.45193759 -0.020677118 0.10656317
0.45156577 -0.021154527 0.10655557
0.45178753 -0.022428986 0.10624895
0.45141503 -0.02290724 0.10624134
0.45163479 -0.024184261 0.10593469
0.45126164 -0.024663374 0.10592707
0.45147941 -0.025942942 0.10562038
0.45110559 -0.026422899 0.10561274
0.45132136 -0.027705017 0.10530601
0.4509469 -0.028185833 0.10529836
0.4505724 -0.028666638 0.1052907
0.45078558 -0.029952196 0.1049839
0.45099738 -0.031239437 0.10467709
0.45062158 -0.031721946 0.10466941
0.45083141 -0.033011723 0.10436255
0.45045492 -0.033495087 0.10435486
0.45007846 -0.033978455 0.10434717
0.44970199 -0.034461807 0.10433947
0.44990849 -0.03575585 0.10403255
0.44953135 -0.03624006 0.10402484
0.44915423 -0.036724273 0.10401713
0.44877708 -0.037208483 0.10400943
0.44839996 -0.037692692 0.10400172
0.44860253 -0.038991868 0.1036947
0.44822472 -0.039476939 0.10368697
0.44784695 -0.039961994 0.10367925
0.44804683 -0.041264541 0.1033722
0.44766837 -0.041750457 0.10336446
0.44728991 -0.042236373 0.10335673
0.44633576 -0.041902248 0.10364837
0.44768304 -0.044849988 0.10274249
0.44730324 -0.045337591 0.10273472
0.44692346 -0.045825209 0.10272696
0.46103594 -0.079159364 0.092747621
0.46006921 -0.078841403 0.093038999
0.45966822 -0.079356253 0.093030803
0.45983097 -0.080706447 0.092722997
0.45999247 -0.082058385 0.092415132
0.46015257 -0.083412006 0.092107266
0.45974958 -0.083929405 0.092099026
0.45990771 -0.085285559 0.091791123
0.45950407 -0.085803814 0.091782875
0.45910043 -0.086322062 0.09177462
0.4592559 -0.087681621 0.091466658
0.45885158 -0.088200726 0.091458395
0.45900506 -0.089562848 0.091150396
0.4586001 -0.090082802 0.091142118
0.45875162 -0.091447502 0.090834051
0.45834601 -0.091968313 0.090825759
0.45794037 -0.092489116 0.090817466
0.45753473 -0.093009926 0.090809181
0.45712909 -0.093530722 0.090800889
0.45672345 -0.094051525 0.090792596
0.45631781 -0.094572335 0.090784311
0.45591217 -0.095093139 0.090776019
0.45550656 -0.095613949 0.090767726
0.57626086 0.044237677 0.089504503
0.57584858 0.043708365 0.089496076
0.57543629 0.04317905 0.08948765
0.57502407 0.042649735 0.089479223
0.57461178 0.042120423 0.089470796
0.57419956 0.041591108 0.08946237
0.57378727 0.041061793 0.089453943
0.57337499 0.040532481 0.089445524
0.57296276 0.040003166 0.089437097
0.57255048 0.039473854 0.089428671
0.57213819 0.038944539 0.089420244
0.57172596 0.038415223 0.089411817
0.57131368 0.037885912 0.089403391
0.57090145 0.037356596 0.089394964
0.56976199 0.037452187 0.089683816
0.56935042 0.036923725 0.089675404
0.56821293 0.037021905 0.089964315
0.56780201 0.036494296 0.089955911
0.56739104 0.035966683 0.089947514
0.56625628 0.036068231 0.090236463
0.56584597 0.035541471 0.090228081
0.56471318 0.035645574 0.090517059
0.56430358 0.035119664 0.090508692
0.56317276 0.035226323 0.090797707
0.56204331 0.035334677 0.09108676
0.56091511 0.035444774 0.091375865
0.56050748 0.034921415 0.091367528
0.55938131 0.035034031 0.091656655
0.55825645 0.035148341 0.091945797
0.55785018 0.034626685 0.091937497
0.55744386 0.034105033 0.09192919
0.55632168 0.034222752 0.092218392
0.55520076 0.034342203 0.092507645
0.5547958 0.033822253 0.092499368
0.55439079 0.033302296 0.09249109
0.5532726 0.033425122 0.092780374
0.55286831 0.032906022 0.092772111
0.55246401 0.032386918 0.092763849
0.55205965 0.031867817 0.092755586
0.55165535 0.031348713 0.092747323
0.55125105 0.03082961 0.092739061
0.55084676 0.030310512 0.092730798
0.55044246 0.029791407 0.092722535
0.5500381 0.029272305 0.092714265
0.5496338 0.028753204 0.092706002
0.5492295 0.028234102 0.09269774
0.5488252 0.027714998 0.092689477
0.54842091 0.027195895 0.092681214
0.54801661 0.026676795 0.092672952
0.54761225 0.026157692 0.092664689
0.54720795 0.02563859 0.092656426
0.54680365 0.025119489 0.092648163
0.54639935 0.024600385 0.092639901
0.54599506 0.024081282 0.092631638
0.54559076 0.023562182 0.092623375
0.5451864 0.023043079 0.092615113
0.5447821 0.022523977 0.09260685
0.5443778 0.022004876 0.092598587
0.54397351 0.021485772 0.092590317
0.54356921 0.02096667 0.092582054
0.54316485 0.020447569 0.092573792
0.54276055 0.019928467 0.092565529
0.5430516 0.018743608 0.09225934
0.54264665 0.018223654 0.092251062
0.54224163 0.017703705 0.092242785
0.54183668 0.017183751 0.092234507
0.54143173 0.016663795 0.09222623
0.54102677 0.016143847 0.092217959
0.54062176 0.015623892 0.092209682
0.5402168 0.015103937 0.092201404
0.53981185 0.014583982 0.092193127
0.53940684 0.014064034 0.092184849
0.53900188 0.013544078 0.092176571
0.53859693 0.013024123 0.092168294
0.53819191 0.012504174 0.092160016
0.53778696 0.01198422 0.092151746
0.53738201 0.011464271 0.092143469
0.53697705 0.010944316 0.092135191
0.53657204 0.010424361 0.092126913
0.53616709 0.0099044116 0.092118636
0.53576213 0.009384457 0.092110358
0.53535712 0.0088645024 0.092102081
0.53495216 0.0083445478 0.092093803
0.53454721 0.0078245988 0.092085525
0.53414226 0.0073046437 0.092077255
0.53373724 0.0067846887 0.092068978
0.53333229 0.0062647397 0.0920607
0.53292733 0.0057447851 0.092052422
0.53252232 0.00522483 0.092044145
0.53211737 0.0047048754 0.092035867
0.53171241 0.0041849264 0.09202759
0.5313074 0.0036649716 0.092019312
0.53090245 0.0031450167 0.092011034
0.53049749 0.0026250677 0.092002764
0.53009254 0.0021051129 0.091994487
