# .PCD v0.7 - Point Cloud Data file format
VERSION 0.7
FIELDS x y z
SIZE 4 4 4
TYPE F F F
COUNT 1 1 1
WIDTH 1371
HEIGHT 1
VIEWPOINT 0 0 0 1 0 0 0
POINTS 1371
DATA ascii
0.52907461 0.024500567 0.0097040376
0.52865833 0.02396615 0.0096955309
0.52889508 0.02279146 0.0092656808
0.52913046 0.021615038 0.0088357823
0.52936453 0.020436948 0.0084058754
0.52894628 0.019899976 0.0083973277
0.52917838 0.018719334 0.0079673827
0.52940911 0.017536987 0.0075374078
0.52963853 0.016352938 0.0071074092
0.52986664 0.015167154 0.0066773579
0.53009343 0.013979699 0.0062473048
0.53031886 0.012790549 0.0058172215
0.53054297 0.011599693 0.0053871144
0.6083343 0.10745861 0.00503424
0.60790944 0.10691313 0.0050255568
0.60672128 0.10686554 0.0054369573
0.60553443 0.10681965 0.0058483887
0.60434884 0.10677551 0.0062598651
0.60316467 0.10673303 0.0066713472
0.60198176 0.10669225 0.0070828595
0.60080022 0.10665318 0.0074943956
0.59961998 0.10661583 0.0079059806
0.59844106 0.10658016 0.0083175711
0.59726351 0.10654619 0.0087291887
0.59608722 0.10651392 0.0091408361
0.59566903 0.10597695 0.0091322884
0.59449476 0.10594723 0.009543974
0.59407717 0.10541111 0.0095354393
0.59365964 0.10487499 0.0095269056
0.59248799 0.10484871 0.0099386666
0.59207106 0.10431344 0.0099301459
0.59090143 0.10428968 0.010341926
0.59048522 0.10375527 0.010333419
0.590069 0.10322084 0.010324912
0.588902 0.10320049 0.01073675
0.58848643 0.10266692 0.010728256
0.58807087 0.10213335 0.010719763
0.58765525 0.10159978 0.010711269
0.58649158 0.10158368 0.011123171
0.58607668 0.10105097 0.011114691
0.58566177 0.10051825 0.011106212
0.58524686 0.099985525 0.011097731
0.58408648 0.099973716 0.011509723
0.58367223 0.099441849 0.011501256
0.58325797 0.098909982 0.01149279
0.58284372 0.098378114 0.011484324
0.58168668 0.09837053 0.011896361
0.58127314 0.097839512 0.011887908
0.58011806 0.097834475 0.012299989
0.57970518 0.097304307 0.012291551
0.57855213 0.097301826 0.012703669
0.57813984 0.096772514 0.012695244
0.57772756 0.096243195 0.012686818
0.57657719 0.096244119 0.013098991
0.57616556 0.095715657 0.013090578
0.57575399 0.095187195 0.013082166
0.57460618 0.095191546 0.013494418
0.57419527 0.09466394 0.013486019
0.57304949 0.094670817 0.013898287
0.57263923 0.094144054 0.013889902
0.57149541 0.094153486 0.01430221
0.57108581 0.093627572 0.014293838
0.56994402 0.09363956 0.014706188
0.56953508 0.093114495 0.014697829
0.56912613 0.092589438 0.014689472
0.56798702 0.092604823 0.015101878
0.56757873 0.092080615 0.015093533
0.56717044 0.091556408 0.015085189
0.56676215 0.0910322 0.015076845
0.56635386 0.090507992 0.0150685
0.56594557 0.089983784 0.015060156
0.56553733 0.089459576 0.015051811
0.56512904 0.088935368 0.015043466
0.56472075 0.08841116 0.015035123
0.56431246 0.087886952 0.015026778
0.56390417 0.087362744 0.015018433
0.56349587 0.086838536 0.015010089
0.56308758 0.086314328 0.015001744
0.56267929 0.08579012 0.0149934
0.562271 0.085265912 0.014985056
0.56186271 0.084741704 0.014976711
0.56145447 0.084217496 0.014968366
0.56104618 0.083693288 0.014960022
0.5599196 0.083724879 0.015372705
0.55951196 0.08320152 0.015364373
0.55910432 0.082678162 0.015356042
0.55798042 0.08271312 0.015768757
0.5575735 0.082190618 0.01576044
0.55716652 0.081668109 0.015752122
0.55604529 0.081706472 0.016164891
0.55563897 0.081184819 0.016156588
0.5552327 0.080663167 0.016148284
0.55482638 0.080141507 0.01613998
0.55370849 0.080184124 0.016552819
0.55330282 0.079663321 0.01654453
0.55289721 0.079142518 0.01653624
0.55249155 0.078621715 0.016527949
0.55137694 0.078668624 0.016940875
0.55097193 0.07814867 0.016932599
0.55056697 0.077628717 0.016924322
0.55016202 0.077108763 0.016916044
0.549757 0.076588809 0.016907768
0.54935205 0.076068856 0.016899491
0.5489471 0.075548902 0.016891215
0.54854214 0.075028948 0.016882937
0.54813713 0.074508995 0.016874662
0.54773217 0.073989041 0.016866384
0.54732722 0.073469087 0.016858108
0.54692221 0.072949141 0.016849831
0.54651725 0.072429188 0.016841555
0.5461123 0.071909234 0.016833277
0.54570729 0.07138928 0.016825002
0.54530233 0.070869327 0.016816724
0.54489738 0.070349373 0.016808446
0.54449242 0.069829419 0.016800171
0.54408741 0.069309466 0.016791893
0.54368246 0.068789512 0.016783617
0.5432775 0.068269558 0.01677534
0.54287249 0.067749605 0.016767064
0.54246753 0.067229651 0.016758787
0.54206258 0.066709697 0.016750511
0.54235071 0.06560161 0.016320692
0.5419451 0.065080807 0.016312402
0.5422312 0.063970201 0.015882561
0.54182488 0.063448541 0.015874257
0.54141855 0.062926888 0.015865954
0.54101229 0.062405236 0.01585765
0.54060596 0.06188358 0.015849346
0.5401997 0.061361924 0.015841043
0.54048115 0.060245357 0.01541111
0.54007417 0.059722856 0.015402793
0.53966725 0.059200346 0.015394475
0.53926027 0.058677841 0.015386158
0.53885329 0.058155335 0.015377841
0.53844637 0.05763283 0.015369523
0.53803939 0.057110325 0.015361206
0.53763241 0.056587819 0.015352888
0.53722548 0.056065314 0.015344571
0.53750032 0.054940239 0.014914504
0.53709269 0.05441688 0.014906173
0.53668505 0.053893525 0.014897842
0.53627741 0.053370167 0.014889511
0.53586984 0.052846808 0.014881181
0.53614074 0.051716596 0.014451009
0.53573245 0.051192384 0.014442666
0.53532416 0.050668176 0.014434321
0.53491586 0.050143972 0.014425976
0.53450757 0.049619764 0.014417632
0.53409928 0.049095556 0.014409287
0.53369099 0.048571348 0.014400943
0.53395659 0.04743436 0.013970682
0.53354764 0.046909299 0.013962325
0.53313869 0.046384238 0.013953966
0.53272974 0.045859184 0.013945608
0.5323208 0.045334123 0.013937251
0.53191185 0.044809066 0.013928892
0.53217274 0.043666117 0.01349854
0.53176314 0.043140206 0.013490169
0.53135353 0.0426143 0.013481798
0.5316118 0.041467946 0.013051392
0.53120154 0.040941186 0.013043006
0.53079122 0.040414426 0.013034621
0.53038096 0.039887667 0.013026236
0.53063595 0.038737062 0.012595762
0.53022498 0.038209449 0.012587364
0.530478 0.03705626 0.012156824
0.53006637 0.036527794 0.012148412
0.5296548 0.035999332 0.012139999
0.52990514 0.034842771 0.011709431
0.52949286 0.034313455 0.011701006
0.52974117 0.033154342 0.011270396
0.52998817 0.031993527 0.010839757
0.53023386 0.030831011 0.010409093
0.53047824 0.029666759 0.009978381
0.53006333 0.029134043 0.0099699004
0.53030568 0.027967267 0.0095391693
0.52989012 0.027433697 0.0095306765
0.52947456 0.026900131 0.0095221829
0.52905899 0.02636656 0.0095136892
0.52929801 0.025195533 0.0090828873
0.52888179 0.024661111 0.0090743797
0.52911884 0.023487534 0.0086435406
0.5287019 0.02295226 0.0086350199
0.52893704 0.021776095 0.0082041174
0.52917081 0.020598259 0.0077732108
0.52875257 0.020061286 0.0077646631
0.52898431 0.018880904 0.0073337117
0.52921474 0.01769881 0.0069027371
0.52944386 0.016515017 0.006471735
0.52967167 0.015329488 0.0060406839
0.52989811 0.014142289 0.0056096278
0.53012323 0.012953394 0.0051785409
0.60533822 0.10698301 0.0052077011
0.60415298 0.10693861 0.0056201816
0.60296905 0.10689587 0.0060326667
0.60178649 0.10685484 0.0064451788
0.60060525 0.10681551 0.0068577146
0.59942532 0.10677791 0.0072703031
0.59824669 0.10674198 0.0076829004
0.59706944 0.10670776 0.0080955205
0.59665054 0.10616993 0.0080869598
0.59547526 0.10613826 0.0084996214
0.59505707 0.10560129 0.0084910737
0.59388375 0.10557217 0.0089037754
0.59346616 0.10503604 0.0088952417
0.59304863 0.10449993 0.008886707
0.59187794 0.10447424 0.009299485
0.59146106 0.10393897 0.0092909643
0.59104413 0.1034037 0.0092824437
0.58987617 0.10338139 0.009695258
0.5894599 0.10284697 0.0096867513
0.58904368 0.10231255 0.0096782437
0.58787835 0.10229364 0.010091108
0.58746278 0.10176007 0.010082615
0.58704716 0.1012265 0.010074122
0.58588451 0.101211 0.010487037
0.5854696 0.10067828 0.010478557
0.58505464 0.10014556 0.010470076
0.58463973 0.099612847 0.010461597
0.58348036 0.099601626 0.010874605
0.58306611 0.099069759 0.010866139
0.58265185 0.098537892 0.010857672
0.5822376 0.098006025 0.010849206
0.58108151 0.097999036 0.01126226
0.58066791 0.097468019 0.011253808
0.57951385 0.097463578 0.011666902
0.57910097 0.09693341 0.011658463
0.57794887 0.096931525 0.012071602
0.57753658 0.096402213 0.012063176
0.57712436 0.095872894 0.012054751
0.57597488 0.095874406 0.01246794
0.57556331 0.095345944 0.012459528
0.5744158 0.095350049 0.01287278
0.57400489 0.094822437 0.012864381
0.57285941 0.09482906 0.013277652
0.57244915 0.094302297 0.013269267
0.57130569 0.094311476 0.013682579
0.57089609 0.093785562 0.013674207
0.57048649 0.093259655 0.013665835
0.56934565 0.093272232 0.014079201
0.56893671 0.092747174 0.014070843
0.56852776 0.092222109 0.014062485
0.56811881 0.091697052 0.014054127
0.56698132 0.09171389 0.014467561
0.56657302 0.091189675 0.014459216
0.56616473 0.090665467 0.014450871
0.56575644 0.090141259 0.014442527
0.56534815 0.089617051 0.014434183
0.56493986 0.089092843 0.014425838
0.56453162 0.088568635 0.014417494
0.56412333 0.088044427 0.014409149
0.56371504 0.087520219 0.014400804
0.56330675 0.086996011 0.014392461
0.56289846 0.086471803 0.014384116
0.56249017 0.085947596 0.014375771
0.56208187 0.085423388 0.014367427
0.56167358 0.08489918 0.014359082
0.56126529 0.084374972 0.014350738
0.560857 0.083850764 0.014342394
0.55973077 0.083882101 0.01475608
0.55932313 0.083358742 0.014747748
0.5589155 0.082835384 0.014739417
0.55850786 0.082312025 0.014731087
0.55738497 0.082347587 0.015144818
0.55697799 0.081825078 0.015136501
0.55657107 0.081302568 0.015128183
0.5554508 0.081341527 0.015541969
0.55504447 0.080819875 0.015533665
0.55463821 0.080298223 0.015525362
0.55352056 0.080340579 0.015939204
0.55311495 0.079819776 0.015930913
0.55270928 0.079298973 0.015922625
0.55230367 0.07877817 0.015914334
0.551898 0.078257367 0.015906043
0.55078435 0.078304864 0.016319986
0.5503794 0.077784911 0.016311709
0.54997438 0.077264965 0.016303433
0.54956943 0.076745011 0.016295156
0.54916447 0.076225057 0.01628688
0.54875946 0.075705104 0.016278602
0.54835451 0.07518515 0.016270326
0.54794955 0.074665196 0.016262049
0.5475446 0.074145243 0.016253773
0.54713959 0.073625289 0.016245496
0.54673463 0.073105335 0.01623722
0.54632968 0.072585382 0.016228942
0.54592466 0.072065428 0.016220666
0.54551971 0.071545482 0.016212389
0.54511476 0.071025528 0.016204111
0.54470974 0.070505574 0.016195836
0.54430479 0.069985621 0.016187558
0.54389983 0.069465667 0.016179282
0.54349488 0.068945713 0.016171005
0.54308987 0.06842576 0.016162729
0.54268491 0.067905806 0.016154451
0.54297405 0.06679967 0.015723657
0.54326183 0.065691873 0.015292854
0.54285556 0.065170221 0.01528455
0.54244924 0.064648569 0.015276247
0.54204297 0.064126909 0.015267942
0.54163665 0.063605256 0.015259638
0.54192048 0.062492348 0.014828757
0.5415135 0.061969843 0.014820441
0.54110658 0.061447337 0.014812123
0.5406996 0.060924832 0.014803805
0.54029262 0.060402326 0.014795489
0.5398857 0.059879821 0.014787171
0.54016483 0.05876096 0.014356195
0.53975719 0.058237601 0.014347864
0.53934962 0.057714242 0.014339534
0.53894198 0.057190888 0.014331202
0.53853434 0.056667533 0.014322871
0.53812671 0.056144174 0.014314541
0.53771913 0.055620816 0.01430621
0.53731149 0.055097461 0.014297878
0.53690386 0.054574102 0.014289548
0.53717643 0.053446695 0.013858414
0.53676814 0.052922487 0.01385007
0.53635991 0.052398283 0.013841726
0.53595161 0.051874075 0.013833381
0.53554332 0.051349863 0.013825037
0.53513503 0.050825655 0.013816692
0.53472674 0.050301448 0.013808347
0.53431845 0.04977724 0.013800004
0.534585 0.048642211 0.01336877
0.53417605 0.04811715 0.013360412
0.5337671 0.047592092 0.013352054
0.53335816 0.047067031 0.013343696
0.53294921 0.04654197 0.013335338
0.53254026 0.046016917 0.01332698
0.53213131 0.045491856 0.013318622
0.53239262 0.044350017 0.01288728
0.53198302 0.043824106 0.012878909
0.53157336 0.043298196 0.012870537
0.53183204 0.042152956 0.012439142
0.53142172 0.041626193 0.012430756
0.53101146 0.041099433 0.012422372
0.5306012 0.040572669 0.012413986
0.53085649 0.039423171 0.011982523
0.53044558 0.038895562 0.011974124
0.53069896 0.037743475 0.011542598
0.53028733 0.037215013 0.011534186
0.5298757 0.036686551 0.011525773
0.53012639 0.035531096 0.011094215
0.52971411 0.035001785 0.01108579
0.52996284 0.033843778 0.010654187
0.5302102 0.032684065 0.010222562
0.53045619 0.031522658 0.0097909085
0.53004193 0.030990791 0.0097824419
0.53028601 0.029826792 0.0093507264
0.52987111 0.029294075 0.0093422458
0.53011316 0.028127557 0.0089105153
0.5296976 0.027593985 0.0089020217
0.52928203 0.027060421 0.008893528
0.52952141 0.025890496 0.0084617399
0.52910519 0.025356079 0.0084532322
0.52934259 0.024183603 0.0080214003
0.52892572 0.023648335 0.0080128796
0.52916116 0.022473272 0.0075809876
0.52874362 0.021937151 0.0075724535
0.52897704 0.020759571 0.0071405428
0.52920914 0.019580293 0.0067086057
0.5287903 0.01904247 0.0067000445
0.52902037 0.017860632 0.0062680659
0.52924919 0.016677096 0.0058360575
0.5294767 0.015491824 0.005404003
0.60235131 0.10651664 0.005385357
0.60116971 0.1064762 0.0057988861
0.59998941 0.10643747 0.0062124357
0.59881043 0.10640046 0.0066260407
0.59763283 0.10636514 0.0070396513
0.59645653 0.1063315 0.0074532889
0.59603763 0.10579368 0.0074447277
0.5948633 0.1057626 0.0078584095
0.59444505 0.10522562 0.0078498619
0.59327275 0.1051971 0.0082635805
0.59285522 0.10466098 0.0082550459
0.59243762 0.10412486 0.0082465122
0.59126788 0.10409977 0.0086603072
0.59085101 0.1035645 0.0086517865
0.59043413 0.10302923 0.0086432658
0.58926708 0.10300751 0.0090570934
0.58885086 0.1024731 0.0090485858
0.58843464 0.10193867 0.0090400791
0.58727026 0.10192036 0.0094539607
0.5868547 0.10138679 0.009445467
0.58643907 0.10085322 0.0094369734
0.58602351 0.10031965 0.0094284797
0.58486247 0.10030559 0.0098424219
0.58444756 0.099772878 0.0098339422
0.58328843 0.099761404 0.010247954
0.58287418 0.099229544 0.010239488
0.58245993 0.09869767 0.010231021
0.58204567 0.098165803 0.010222555
0.58088994 0.098158553 0.010636612
0.58047634 0.097627543 0.010628159
0.58006275 0.097096525 0.010619706
0.57890964 0.097092681 0.011033818
0.57849675 0.096562512 0.011025378
0.57808381 0.096032351 0.01101694
0.57693338 0.096031904 0.011431105
0.57578421 0.096033163 0.011845298
0.57537264 0.095504701 0.011836886
0.57422549 0.095508546 0.012251141
0.57381451 0.09498094 0.012242743
0.57266939 0.094987303 0.012657017
0.57225913 0.09446054 0.012648632
0.57184881 0.093933783 0.012640247
0.57070631 0.093943551 0.013054576
0.5702967 0.093417645 0.013046204
0.5698871 0.09289173 0.013037832
0.56874728 0.092904903 0.013452211
0.56833833 0.092379846 0.013443854
0.56792939 0.091854788 0.013435495
0.56752044 0.091329724 0.013427137
0.56711149 0.090804666 0.01341878
0.56670254 0.090279609 0.013410421
0.5662936 0.089754552 0.013402063
0.56588465 0.089229494 0.013393706
0.5654757 0.08870443 0.013385347
0.56506675 0.088179372 0.013376989
0.56465781 0.087654315 0.013368632
0.5642488 0.087129258 0.013360273
0.56311762 0.087153494 0.013774832
0.56270933 0.086629286 0.013766487
0.56230104 0.086105078 0.013758143
0.56189275 0.085580871 0.013749799
0.56148446 0.085056663 0.013741454
0.56107616 0.084532455 0.013733109
0.56066787 0.084008239 0.013724765
0.55954194 0.084039323 0.014139454
0.5591343 0.083515964 0.014131123
0.55872667 0.082992606 0.014122793
0.55831903 0.082469247 0.014114461
0.55719644 0.082504548 0.014529197
0.55678946 0.081982046 0.014520879
0.55638254 0.081459537 0.014512561
0.55526257 0.081498243 0.01492735
0.55485624 0.080976583 0.014919046
0.55444998 0.080454931 0.014910743
0.55333269 0.080497034 0.015325585
0.55292702 0.079976231 0.015317296
0.55252141 0.079455428 0.015309005
0.55211574 0.078934625 0.015300715
0.55171013 0.078413822 0.015292425
0.55130446 0.077893019 0.015284134
0.55089885 0.077372216 0.015275844
0.55049324 0.076851405 0.015267554
0.55008757 0.076330602 0.015259263
0.54968196 0.075809799 0.015250973
0.54927629 0.075288996 0.015242683
0.54887068 0.074768193 0.015234393
0.54846501 0.07424739 0.015226102
0.5480594 0.073726587 0.015217812
0.54765379 0.073205777 0.015209522
0.54724813 0.072684973 0.015201231
0.54684252 0.07216417 0.015192942
0.54643685 0.071643367 0.015184651
0.54603124 0.071122564 0.01517636
0.54562563 0.070601761 0.015168071
0.54521996 0.070080951 0.01515978
0.54481435 0.069560148 0.01515149
0.54440868 0.069039345 0.0151432
0.54400307 0.068518542 0.015134909
0.5435974 0.067997739 0.015126619
0.54388624 0.066891894 0.014694843
0.54347992 0.066370241 0.01468654
0.54307365 0.065848589 0.014678235
0.54266733 0.065326929 0.014669931
0.54226106 0.064805277 0.014661628
0.54185474 0.064283617 0.014653324
0.54213893 0.063171826 0.014221453
0.54173195 0.062649317 0.014213135
0.54132497 0.062126812 0.014204819
0.54091805 0.061604306 0.014196501
0.54051107 0.061081797 0.014188183
0.54079127 0.059964895 0.013756231
0.54038364 0.059441537 0.013747901
0.539976 0.058918178 0.01373957
0.53956836 0.058394823 0.013731239
0.53916079 0.057871465 0.013722908
0.53875315 0.05734811 0.013714577
0.53834552 0.056824751 0.013706246
0.53793788 0.056301396 0.013697916
0.5375303 0.055778038 0.013689584
0.53712267 0.055254683 0.013681253
0.5373956 0.054128382 0.013249131
0.5369873 0.053604174 0.013240786
0.53657901 0.053079966 0.013232442
0.53617072 0.052555759 0.013224097
0.53576243 0.052031551 0.013215752
0.53535414 0.051507343 0.013207408
0.53494591 0.050983135 0.013199064
0.53453761 0.050458927 0.013190719
0.53480452 0.049325 0.012758496
0.53439558 0.048799943 0.012750139
0.53398663 0.048274882 0.01274178
0.53357768 0.047749825 0.012733422
0.53316873 0.047224764 0.012725065
0.53275979 0.046699706 0.012716706
0.53302211 0.045559824 0.012284392
0.53261244 0.045033913 0.01227602
0.53220284 0.044508006 0.012267649
0.53179324 0.043982096 0.012259278
0.53205222 0.042837959 0.011826891
0.53164196 0.042311199 0.011818507
0.5312317 0.041784436 0.011810121
0.531488 0.040636897 0.011377682
0.53107709 0.040109284 0.011369283
0.53133148 0.03895916 0.010936781
0.53091985 0.038430694 0.010928369
0.53050828 0.037902232 0.010919956
0.53009665 0.03737377 0.010911544
0.5303477 0.036219422 0.010478997
0.52993542 0.035690106 0.01047057
0.53018445 0.034533206 0.010037982
0.52977151 0.034003042 0.010029542
0.53001857 0.03284359 0.0095969131
0.53026432 0.031682435 0.009164257
0.53050876 0.030519545 0.0087315515
0.53009385 0.029986827 0.0087230718
0.52967894 0.02945411 0.0087145912
0.5299207 0.028287845 0.0082818605
0.52950507 0.027754275 0.0082733668
0.52974486 0.026585462 0.0078405887
0.52932858 0.026051039 0.007832082
0.52891237 0.025516624 0.0078235753
0.52914947 0.024344403 0.0073907422
0.52938533 0.023170447 0.0069578607
0.52896774 0.022634327 0.0069493265
0.52920151 0.021457855 0.0065164263
0.52878332 0.020920882 0.0065078787
0.52901512 0.019741861 0.0060749347
0.52924562 0.01856113 0.0056419666
0.52947474 0.017378703 0.0052089714
0.60097444 0.10663879 0.0051612053
0.59979445 0.1065998 0.0055757617
0.59861577 0.10656254 0.0059903702
0.59819555 0.10602301 0.005981782
0.5970189 0.10598828 0.0063964059
0.59584355 0.10595524 0.00681106
0.59466958 0.10592391 0.0072257416
0.59425133 0.10538694 0.007217194
0.59307933 0.10535815 0.0076319161
0.59266174 0.10482204 0.0076233819
0.59224421 0.10428591 0.0076148477
0.59182662 0.1037498 0.0076063136
0.59140909 0.10321367 0.0075977794
0.59024096 0.10319003 0.0080126049
0.58982408 0.10265476 0.0080040842
0.58865803 0.10263364 0.0084189251
0.58824182 0.10209922 0.0084104175
0.58782554 0.1015648 0.0084019108
0.58740932 0.10103038 0.0083934041
0.5869931 0.10049596 0.0083848964
0.58583099 0.10047995 0.0087998221
0.58541542 0.099946372 0.0087913284
0.58425534 0.099932909 0.0092062913
0.58384043 0.099400192 0.0091978107
0.58342552 0.098867476 0.009189331
0.58226806 0.098857448 0.009604373
0.58185381 0.09832558 0.0095959073
0.58143955 0.097793721 0.0095874406
0.58028477 0.09778706 0.010002515
0.57987118 0.09725605 0.0099940617
0.57945758 0.096725032 0.009985609
0.57830542 0.096721783 0.010400734
0.57789254 0.096191615 0.010392295
0.57674235 0.096190915 0.010807464
0.57633013 0.095661603 0.010799038
0.57518196 0.095663458 0.011214248
0.57403511 0.095667049 0.011629507
0.57362413 0.095139436 0.011621108
0.57247931 0.095145546 0.012036386
0.57206905 0.094618782 0.012028
0.57165879 0.094092026 0.012019616
0.57124847 0.093565263 0.012011231
0.57083821 0.093038499 0.012002845
0.56969738 0.09304972 0.0124182
0.56928778 0.092523806 0.01240983
0.56887811 0.091997899 0.012401458
0.56846851 0.091471992 0.012393086
0.56805891 0.090946078 0.012384715
0.5676493 0.090420172 0.012376343
0.5672397 0.089894257 0.012367971
0.5668301 0.089368351 0.0123596
0.56569517 0.089387223 0.012775077
0.56528622 0.088862166 0.012766719
0.56487727 0.088337108 0.012758361
0.56446832 0.087812044 0.012750003
0.56405938 0.087286986 0.012741645
0.56292844 0.08731097 0.013157207
0.56252021 0.086786762 0.013148863
0.56211191 0.086262554 0.013140518
0.56170362 0.085738346 0.013132174
0.56129533 0.085214138 0.013123829
0.56088704 0.08468993 0.013115484
0.56047875 0.084165722 0.013107141
0.56007046 0.083641514 0.013098796
0.55894548 0.083673187 0.013514502
0.55853784 0.083149828 0.01350617
0.5581302 0.082626469 0.01349784
0.55700791 0.082661517 0.013913575
0.55660093 0.082139008 0.013905257
0.55619401 0.081616506 0.013896939
0.55507433 0.081654951 0.014312732
0.55466807 0.081133299 0.014304428
0.55426174 0.080611639 0.014296124
0.55314475 0.080653489 0.01471197
0.55273914 0.080132686 0.01470368
0.55233347 0.079611883 0.01469539
0.55192786 0.07909108 0.014687099
0.5515222 0.078570276 0.01467881
0.55111659 0.078049473 0.014670519
0.55071092 0.07752867 0.014662229
0.55030531 0.07700786 0.014653939
0.5498997 0.076487057 0.014645648
0.54949403 0.075966254 0.014637358
0.54908842 0.075445451 0.014629068
0.54868275 0.074924648 0.014620777
0.54827714 0.074403845 0.014612488
0.54787153 0.073883042 0.014604197
0.54746586 0.073362231 0.014595906
0.54706025 0.072841428 0.014587617
0.54665458 0.072320625 0.014579326
0.54624897 0.071799822 0.014571036
0.5458433 0.071279019 0.014562746
0.54613578 0.070178539 0.014130048
0.54572952 0.069656886 0.014121744
0.54532319 0.069135226 0.01411344
0.54491693 0.068613574 0.014105137
0.5445106 0.068091914 0.014096832
0.54410434 0.067570262 0.014088528
0.54369801 0.067048609 0.014080225
0.54329175 0.066526949 0.014071921
0.54357821 0.06541881 0.013639101
0.54317129 0.064896308 0.013630783
0.54276431 0.064373799 0.013622466
0.54235733 0.063851297 0.013614149
0.5419504 0.063328788 0.013605831
0.54154342 0.062806278 0.013597514
0.54113644 0.062283777 0.013589197
0.54141766 0.061168827 0.013156272
0.54101008 0.060645472 0.013147941
0.54060245 0.060122114 0.01313961
0.54019481 0.059598755 0.013131279
0.53978717 0.0590754 0.013122948
0.53937954 0.058552045 0.013114617
0.53897196 0.058028687 0.013106287
0.53856432 0.057505328 0.013097956
0.53815669 0.056981973 0.013089624
0.53774905 0.056458618 0.013081294
0.53734148 0.05593526 0.013072963
0.53761476 0.054810066 0.012639849
0.53720647 0.054285858 0.012631506
0.53679818 0.05376165 0.012623161
0.53638989 0.053237442 0.012614816
0.5359816 0.052713238 0.012606472
0.5355733 0.05218903 0.012598128
0.53516501 0.051664818 0.012589783
0.53475672 0.05114061 0.012581439
0.53434849 0.050616402 0.012573094
0.5346151 0.049482733 0.012139868
0.53420615 0.048957676 0.01213151
0.5337972 0.048432615 0.012123152
0.53406119 0.047295544 0.011689875
0.53365153 0.046769634 0.011681504
0.53324193 0.046243723 0.011673132
0.53283232 0.045717813 0.01166476
0.53242272 0.045191903 0.011656389
0.53201312 0.044665992 0.011648017
0.53227246 0.043522961 0.011214646
0.5318622 0.042996202 0.01120626
0.53145188 0.042469442 0.011197875
0.5317086 0.041323006 0.010764446
0.53129762 0.040795397 0.010756047
0.53155237 0.039646376 0.010322555
0.5311408 0.039117914 0.010314143
0.53072917 0.038589451 0.010305731
0.5303176 0.038060989 0.010297318
0.53056896 0.036907747 0.0098637808
0.53015673 0.036378432 0.0098553551
0.52974445 0.035849117 0.0098469295
0.52999318 0.034692474 0.0094133373
0.5302406 0.033534124 0.0089797219
0.53048664 0.03237408 0.0085460758
0.53007239 0.031842213 0.0085376091
0.53031653 0.030679578 0.0081039006
0.52990162 0.03014686 0.00809542
0.52948672 0.029614143 0.0080869403
0.52972817 0.028448135 0.0076532029
0.52931255 0.027914565 0.0076447092
0.52955204 0.026746009 0.0072109275
0.52913576 0.026211586 0.0072024208
0.52937323 0.025040472 0.0067686019
0.52895635 0.024505204 0.0067600813
0.52919185 0.023331502 0.0063261962
0.52942604 0.022156138 0.0058923066
0.52900779 0.021619167 0.0058837589
0.52923995 0.020441247 0.0054498282
0.5294708 0.01926163 0.0050158706
0.59800088 0.10618509 0.0053461078
0.59682453 0.10615011 0.0057617347
0.59564954 0.10611681 0.0061773923
0.59523064 0.10557899 0.0061688311
0.59405762 0.10554825 0.006584526
0.59363937 0.10501128 0.0065759784
0.59246832 0.10498309 0.0069917175
0.59205073 0.10444697 0.0069831833
0.5916332 0.10391085 0.0069746491
0.59121561 0.10337473 0.006966115
0.59079808 0.10283861 0.0069575808
0.58963096 0.10281556 0.0073734233
0.58921403 0.10228029 0.0073649026
0.58879715 0.10174502 0.007356382
0.58763272 0.10172535 0.0077722529
0.5872165 0.10119092 0.0077637462
0.58680028 0.1006565 0.007755239
0.586384 0.10012209 0.0077467319
0.5852229 0.10010666 0.0081626745
0.58480734 0.099573098 0.0081541808
0.5836482 0.099560231 0.0085701561
0.5832333 0.099027507 0.0085616764
0.58281839 0.09849479 0.0085531967
0.58240348 0.097962074 0.008544717
0.58198857 0.097429357 0.0085362364
0.58083338 0.097421631 0.0089523224
0.58041912 0.096889764 0.0089438567
0.57926601 0.096884549 0.0093599614
0.57811415 0.096881047 0.0097760893
0.57770121 0.096350878 0.0097676506
0.57655138 0.096349932 0.010183822
0.57613915 0.095820613 0.010175397
0.57499129 0.095822215 0.010591607
0.57384473 0.095825545 0.011007869
0.57343382 0.095297933 0.01099947
0.57228929 0.095303789 0.011415751
0.57187897 0.094777033 0.011407366
0.57146871 0.094250269 0.01139898
0.57105845 0.093723506 0.011390596
0.57064819 0.09319675 0.01138221
0.57023787 0.092669986 0.011373825
0.56982762 0.092143223 0.01136544
0.56941736 0.091616467 0.011357055
0.56827879 0.091629975 0.011773454
0.56786919 0.091104068 0.011765082
0.56745952 0.090578154 0.011756712
0.56704992 0.090052247 0.01174834
0.56664032 0.08952634 0.011739968
0.56623071 0.089000426 0.011731597
0.5650968 0.089019895 0.012148091
0.56468785 0.088494837 0.012139733
0.5642789 0.08796978 0.012131374
0.56386995 0.087444723 0.012123017
0.56346101 0.086919658 0.012114659
0.56305206 0.086394601 0.0121063
0.56192279 0.086420029 0.012522889
0.5615145 0.085895821 0.012514545
0.5611062 0.085371614 0.012506201
0.56069791 0.084847406 0.012497856
0.56028962 0.084323198 0.012489512
0.55988133 0.08379899 0.012481167
0.55875665 0.083830409 0.012897876
0.55834901 0.08330705 0.012889545
0.55794138 0.082783692 0.012881215
0.55681938 0.082818478 0.013297956
0.55641246 0.082295977 0.013289639
0.55600548 0.081773467 0.013281321
0.5548861 0.081811659 0.013698113
0.55447984 0.081290007 0.013689809
0.55407351 0.080768347 0.013681506
0.55366725 0.080246694 0.013673202
0.55326092 0.079725042 0.013664898
0.55285466 0.079203382 0.013656594
0.55244833 0.07868173 0.01364829
0.55204207 0.078160077 0.013639987
0.55163574 0.077638417 0.013631683
0.55122948 0.077116765 0.013623379
0.55082315 0.076595113 0.013615075
0.55041689 0.076073453 0.013606771
0.55001056 0.0755518 0.013598467
0.54960424 0.075030141 0.013590164
0.54919797 0.074508488 0.01358186
0.54879165 0.073986836 0.013573556
0.54838538 0.073465176 0.013565252
0.54797906 0.072943524 0.013556948
0.54757279 0.072421871 0.013548644
0.54716647 0.071900211 0.013540341
0.5467602 0.071378559 0.013532037
0.54635388 0.070856899 0.013523733
0.54594761 0.070335247 0.013515429
0.54554129 0.069813594 0.013507125
0.54513502 0.069291934 0.013498821
0.5447287 0.068770282 0.013490518
0.54432237 0.06824863 0.013482214
0.54391611 0.06772697 0.01347391
0.54350978 0.067205317 0.013465606
0.54379666 0.066098288 0.0130318
0.54338974 0.065575778 0.013023483
0.54298276 0.065053269 0.013015165
0.54257578 0.064530768 0.013006847
0.54285932 0.063419476 0.01257297
0.54245174 0.062896125 0.01256464
0.5420441 0.062372766 0.012556309
0.54163647 0.061849408 0.012547977
0.54122883 0.061326049 0.012539647
0.54082125 0.060802694 0.012531316
0.54041362 0.060279336 0.012522985
0.54000598 0.059755977 0.012514654
0.53959835 0.059232622 0.012506323
0.53919071 0.058709268 0.012497992
0.53878313 0.058185909 0.012489662
0.5383755 0.05766255 0.01248133
0.53796786 0.057139196 0.012472999
0.53824216 0.056015961 0.012038911
0.53783387 0.055491753 0.012030566
0.53742564 0.054967545 0.012022221
0.53701735 0.054443337 0.012013877
0.53660905 0.053919129 0.012005532
0.53620076 0.053394921 0.011997188
0.53647041 0.05226576 0.01156303
0.53606147 0.051740702 0.011554671
0.53565252 0.051215645 0.011546314
0.53524357 0.050690588 0.011537956
0.53483456 0.050165527 0.011529597
0.53442562 0.049640466 0.01152124
0.53401667 0.049115408 0.011512881
0.53428102 0.047979444 0.011078615
0.53387141 0.04745353 0.011070243
0.53346181 0.04692762 0.011061871
0.53305221 0.046401713 0.0110535
0.5326426 0.045875803 0.011045129
0.53223294 0.045349889 0.011036757
0.53249264 0.044207968 0.010602396
0.53208238 0.043681208 0.01059401
0.53167212 0.043154445 0.010585626
0.53192914 0.042009119 0.010151207
0.53151822 0.041481506 0.010142808
0.53177333 0.040333595 0.0097083254
0.5313617 0.039805129 0.0096999137
0.53095013 0.039276671 0.009691501
0.5305385 0.038748208 0.0096830893
0.53079027 0.037596069 0.009248565
0.53037798 0.037066758 0.0092401393
0.53062773 0.03591207 0.0088055711
0.53021479 0.035381906 0.0087971315
0.53046256 0.034224663 0.0083625261
0.53004897 0.033693649 0.0083540734
0.53029478 0.032533858 0.0079194242
0.53053927 0.031372327 0.0074847257
0.53012431 0.030839613 0.0074762455
0.5297094 0.030306894 0.0074677658
0.52995121 0.029141996 0.0070330417
0.52953565 0.028608425 0.0070245485
0.52977544 0.027440974 0.0065897768
0.52935922 0.026906552 0.0065812701
0.52959704 0.025736548 0.0061464612
0.52918011 0.025201272 0.0061379406
0.52941602 0.024028685 0.005703066
0.52965051 0.022854423 0.0052681863
0.52923226 0.02231745 0.0052596387
0.5962106 0.10577325 0.0051184893
0.59579104 0.10523458 0.0051099146
0.59461766 0.10520273 0.005526599
0.5934456 0.10517259 0.0059433142
0.59302741 0.10463562 0.0059347665
0.59260917 0.10409864 0.0059262188
0.59219092 0.10356167 0.0059176711
0.59177274 0.1030247 0.0059091235
0.5906046 0.10299966 0.0063259164
0.59018707 0.10246354 0.0063173827
0.58902091 0.10244109 0.0067342417
0.58860403 0.10190582 0.0067257211
0.5881871 0.10137055 0.0067172004
0.58702368 0.10135147 0.0071340883
0.58660746 0.10081705 0.0071255811
0.58619118 0.10028262 0.007117074
0.58503038 0.10026696 0.0075340196
0.58461481 0.099733382 0.007525526
0.58345604 0.099720262 0.0079425052
0.58304107 0.099187545 0.0079340255
0.58262616 0.098654822 0.0079255458
0.58221126 0.098122105 0.0079170652
0.58179635 0.097589388 0.0079085855
0.58064151 0.097581409 0.0083256718
0.58022726 0.097049542 0.0083172051
0.57907438 0.097044073 0.0087343128
0.57866079 0.096513055 0.0087258602
0.57750994 0.09651015 0.0091430051
0.5763604 0.096508943 0.0095601808
0.57594818 0.095979623 0.0095517552
0.57480061 0.095980972 0.0099689681
0.57438904 0.095452502 0.0099605564
0.57324344 0.095456436 0.010377832
0.57283247 0.094928823 0.010369433
0.57168895 0.094935276 0.010786731
0.57127863 0.094408512 0.010778346
0.57086837 0.093881749 0.01076996
0.57045811 0.093354993 0.010761576
0.57004786 0.092828229 0.01075319
0.56963754 0.092301466 0.010744805
0.56922728 0.09177471 0.01073642
0.56881702 0.091247946 0.010728035
0.56840676 0.090721183 0.010719649
0.56799644 0.090194426 0.010711265
0.56758618 0.089667663 0.01070288
0.5664506 0.089684322 0.011120336
0.56604099 0.089158416 0.011111964
0.56563133 0.088632502 0.011103594
0.56522173 0.088106595 0.011095222
0.56408948 0.088127509 0.011512746
0.56368053 0.087602451 0.011504388
0.56327158 0.087077394 0.011496031
0.56286258 0.086552337 0.011487672
0.56245363 0.086027272 0.011479314
0.56204468 0.085502215 0.011470956
0.56091708 0.085529089 0.011888576
0.56050879 0.085004881 0.011880231
0.5601005 0.084480673 0.011871886
0.5596922 0.083956465 0.011863542
0.55856782 0.083987631 0.012281251
0.55816019 0.083464272 0.01227292
0.55775255 0.082940914 0.01226459
0.55734491 0.082417555 0.012256258
0.55622393 0.082452938 0.012674017
0.55581695 0.081930436 0.012665699
0.55540997 0.081407927 0.012657382
0.55429161 0.081446715 0.013075191
0.55388534 0.080925062 0.013066887
0.55347902 0.080403402 0.013058583
0.55307275 0.07988175 0.01305028
0.55266643 0.079360098 0.013041976
0.55226016 0.078838438 0.013033671
0.55185384 0.078316785 0.013025368
0.55144751 0.077795133 0.013017064
0.55104125 0.077273473 0.01300876
0.55063492 0.076751821 0.013000457
0.55022866 0.076230161 0.012992153
0.54982233 0.075708508 0.012983848
0.54941607 0.075186856 0.012975545
0.54971254 0.074092843 0.012540938
0.54930562 0.073570333 0.012532622
0.54889864 0.073047832 0.012524304
0.54849166 0.072525322 0.012515986
0.54808474 0.072002821 0.012507669
0.54767776 0.071480311 0.012499352
0.54727077 0.070957802 0.012491034
0.54686385 0.0704353 0.012482717
0.54645687 0.069912791 0.0124744
0.54604989 0.069390289 0.012466082
0.54564297 0.06886778 0.012457765
0.54523599 0.068345271 0.012449447
0.54482901 0.067822769 0.01244113
0.54442209 0.06730026 0.012432813
0.54401511 0.066777758 0.012424495
0.54360813 0.066255249 0.012416178
0.5438934 0.065146774 0.011981338
0.54348576 0.064623415 0.011973007
0.54307812 0.064100057 0.011964676
0.54267049 0.063576698 0.011956345
0.54226291 0.063053347 0.011948015
0.54254419 0.061939728 0.011513075
0.54213589 0.06141552 0.01150473
0.5417276 0.060891312 0.011496386
0.54131931 0.060367104 0.011488041
0.54091108 0.059842896 0.011479696
0.54050279 0.059318684 0.011471353
0.54009449 0.058794476 0.011463008
0.5396862 0.058270268 0.011454663
0.53927791 0.057746064 0.011446319
0.53886962 0.057221856 0.011437974
0.53846133 0.056697648 0.01142963
0.53805304 0.05617344 0.011421286
0.53764474 0.055649228 0.011412941
0.53723645 0.05512502 0.011404596
0.53682816 0.054600812 0.011396252
0.53641993 0.054076605 0.011387908
0.53668988 0.052948553 0.01095276
0.53628093 0.052423496 0.010944401
0.53587198 0.051898435 0.010936043
0.53546304 0.051373377 0.010927686
0.53505409 0.05084832 0.010919327
0.53464514 0.050323259 0.010910969
0.53423619 0.049798202 0.010902612
0.5345009 0.048663341 0.010467355
0.53409129 0.04813743 0.010458983
0.53368169 0.04761152 0.010450612
0.53327203 0.047085609 0.01044224
0.53286242 0.046559703 0.010433869
0.53245282 0.046033788 0.010425497
0.53271288 0.044892974 0.0099901455
0.53230262 0.044366214 0.0099817608
0.53189236 0.043839451 0.0099733751
0.53148204 0.043312691 0.0099649904
0.53173876 0.042167619 0.0095295683
0.53132784 0.041640006 0.0095211696
0.53158265 0.040492348 0.0090856878
0.53117102 0.039963886 0.0090772752
0.53075945 0.039435424 0.0090688635
0.53101152 0.038284395 0.0086333491
0.5305993 0.03775508 0.0086249234
0.5308494 0.036601502 0.0081893653
0.53043646 0.036071338 0.0081809266
0.53068459 0.034915201 0.0077453312
0.53027099 0.034384187 0.0077368785
0.5305171 0.033225503 0.0073012393
0.53076196 0.032065082 0.0068655545
0.53034705 0.031532362 0.0068570743
0.52993214 0.030999646 0.0068485946
0.53017426 0.029835852 0.006412881
0.52975869 0.029302284 0.0064043873
0.52999884 0.028135937 0.0059686261
0.52958262 0.02760152 0.0059601194
0.5298208 0.026432617 0.005524321
0.52940392 0.025897348 0.0055158003
0.52964014 0.024725862 0.0050799358
0.52922255 0.024189742 0.0050714016
0.59199721 0.10372298 0.0052850037
0.59157896 0.10318601 0.005276456
0.59116071 0.10264903 0.0052679083
0.58999366 0.1026246 0.0056857215
0.58957607 0.10208847 0.0056771873
0.58841091 0.10206662 0.0060950601
0.58799398 0.10153135 0.0060865395
0.58683085 0.10151201 0.0065044304
0.58641464 0.10097759 0.0064959233
0.58599836 0.10044317 0.0064874166
0.58483785 0.10042724 0.0069053615
0.58442229 0.099893674 0.0068968683
0.58326381 0.099880293 0.0073148506
0.58284891 0.099347576 0.0073063709
0.582434 0.09881486 0.0072978907
0.58201909 0.098282143 0.007289411
0.58160412 0.09774942 0.0072809309
0.58044958 0.097741187 0.0076990235
0.58003533 0.097209319 0.0076905573
0.57888281 0.097203597 0.0081086652
0.57846922 0.09667258 0.0081002126
0.57731867 0.096669413 0.0085183606
0.57616943 0.096667953 0.0089365365
0.57575721 0.096138634 0.0089281108
0.57460994 0.096139722 0.0093463305
0.57419837 0.095611259 0.0093379179
0.57378674 0.095082797 0.0093295062
0.57264215 0.095087327 0.0097477986
0.57223117 0.094559714 0.0097393999
0.57182026 0.094032101 0.0097310012
0.57140934 0.093504488 0.0097226026
0.57026803 0.093513235 0.010140941
0.56985778 0.092986472 0.010132556
0.56944752 0.092459716 0.01012417
0.5690372 0.091932952 0.010115786
0.56862694 0.091406189 0.0101074
0.56821668 0.090879433 0.010099015
0.56780642 0.090352669 0.01009063
0.5673961 0.089825906 0.010082245
0.56698585 0.08929915 0.010073859
0.56657559 0.088772386 0.010065475
0.56544161 0.088790491 0.010483962
0.56503201 0.088264585 0.01047559
0.5646224 0.08773867 0.010467218
0.56349105 0.087760188 0.010885756
0.5630821 0.08723513 0.010877399
0.56267315 0.086710066 0.01086904
0.5622642 0.086185008 0.010860682
0.56185526 0.085659951 0.010852325
0.56144631 0.085134894 0.010843966
0.5603196 0.085162356 0.011262606
0.55991137 0.084638149 0.011254261
0.55950308 0.084113941 0.011245918
0.55909479 0.083589733 0.011237573
0.55797136 0.083621494 0.011656298
0.55756372 0.083098136 0.011647968
0.55715609 0.082574777 0.011639637
0.55674851 0.082051419 0.011631305
0.55562842 0.082087398 0.012050077
0.5552215 0.081564896 0.01204176
0.55481452 0.081042387 0.012033443
0.55440754 0.080519885 0.012025125
0.55400062 0.079997376 0.012016808
0.55359364 0.079474866 0.012008491
0.55318666 0.078952365 0.012000173
0.55277973 0.078429855 0.011991856
0.55237275 0.077907354 0.011983538
0.55196577 0.077384844 0.011975221
0.55226463 0.076294489 0.011539666
0.55185699 0.075771138 0.011531334
0.55144942 0.075247779 0.011523004
0.55104178 0.074724421 0.011514673
0.55063415 0.074201062 0.011506342
0.55022651 0.073677704 0.011498011
0.54981887 0.073154353 0.01148968
0.5494113 0.072630994 0.011481349
0.54900366 0.072107635 0.011473019
0.54859602 0.071584277 0.011464687
0.54818839 0.071060918 0.011456356
0.54778081 0.070537567 0.011448026
0.54737318 0.070014209 0.011439695
0.54696554 0.06949085 0.011431363
0.5465579 0.068967491 0.011423033
0.54615027 0.068444133 0.011414702
0.54574269 0.067920782 0.01140637
0.54533505 0.067397423 0.01139804
0.54492742 0.066874065 0.011389709
0.54451978 0.066350706 0.011381378
0.54411221 0.065827347 0.011373047
0.54370457 0.065303996 0.011364716
0.54329693 0.064780638 0.011356385
0.5428893 0.064257279 0.011348055
0.54317164 0.063145623 0.010912138
0.54276335 0.062621415 0.010903794
0.54235506 0.062097203 0.01089545
0.54194677 0.061572995 0.010887105
0.54153848 0.061048787 0.01087876
0.54113019 0.060524579 0.010870416
0.54072189 0.060000371 0.010862072
0.5403136 0.059476163 0.010853727
0.53990537 0.058951955 0.010845383
0.53949708 0.058427747 0.010837038
0.53908879 0.057903539 0.010828693
0.53868049 0.057379331 0.01082035
0.5382722 0.056855123 0.010812005
0.53786391 0.056330916 0.01080366
0.53745562 0.055806704 0.010795316
0.53704733 0.055282496 0.010786971
0.53663903 0.054758292 0.010778627
0.5369094 0.053631347 0.010342485
0.53650045 0.053106286 0.010334128
0.53609151 0.052581228 0.01032577
0.53568256 0.052056167 0.010317411
0.53527361 0.05153111 0.010309054
0.53486466 0.051006053 0.010300696
0.53513038 0.049873147 0.0098644663
0.53472078 0.04934724 0.0098560946
0.53431112 0.048821326 0.0098477229
0.53390151 0.04829542 0.0098393513
0.53349191 0.047769509 0.0098309796
0.53308231 0.047243599 0.0098226089
0.5326727 0.046717688 0.0098142372
0.53293312 0.045577977 0.0093778959
0.5325228 0.045051217 0.0093695112
0.53211254 0.044524457 0.0093611255
0.53237033 0.043381345 0.0089247301
0.53195935 0.042853732 0.0089163315
0.53154844 0.042326119 0.0089079328
0.53180355 0.041179568 0.0084714619
0.53139198 0.040651105 0.0084630493
0.53098035 0.040122639 0.0084546376
0.53056878 0.039594181 0.008446225
0.53082055 0.038443409 0.0080097048
0.53040826 0.037914094 0.0080012791
0.53065807 0.03676077 0.0075647207
0.53090656 0.03560574 0.0071281358
0.53049296 0.035074722 0.0071196831
0.53073949 0.033917148 0.0066830576
0.53098464 0.03275783 0.0062463796
0.53056973 0.032225117 0.0062378999
0.53015482 0.031692397 0.0062294197
0.53039736 0.03052971 0.0057927165
0.52998179 0.029996142 0.0057842229
0.5302223 0.028830905 0.0053474754
0.52980602 0.028296482 0.0053389682
0.58980018 0.10278565 0.0050540571
0.58938265 0.10224953 0.0050455229
0.58896506 0.10171341 0.0050369888
0.58780086 0.10169215 0.0054558781
0.58738399 0.10115688 0.0054473579
0.58622181 0.10113814 0.0058662659
0.58580554 0.10060371 0.0058577587
0.58464539 0.10058753 0.0062767072
0.58422977 0.10005396 0.006268214
0.58307159 0.10004033 0.0066871997
0.58265668 0.099507608 0.0066787195
0.58224177 0.098974891 0.0066702398
0.58182687 0.098442174 0.0066617597
0.58141196 0.097909458 0.00665328
0.58025771 0.097900964 0.0070723724
0.57984346 0.097369097 0.0070639062
0.57869118 0.097363122 0.0074830172
0.57827765 0.096832104 0.0074745645
0.5771274 0.096828684 0.007893716
0.57671446 0.096298516 0.0078852773
0.57556623 0.096297644 0.0083044693
0.57515395 0.095768332 0.0082960436
0.57474166 0.095239021 0.0082876179
0.57359606 0.095241554 0.008706864
0.57318449 0.094713092 0.0086984523
0.57277286 0.09418463 0.0086900396
0.57236129 0.093656167 0.0086816279
0.57121897 0.093662985 0.0091009643
0.57080799 0.093135372 0.0090925656
0.57039708 0.092607766 0.009084167
0.56998616 0.092080154 0.0090757683
0.56957519 0.091552541 0.0090673696
0.56916428 0.091024928 0.009058971
0.5687533 0.090497315 0.0090505723
0.56761634 0.090510912 0.0094699953
0.56720608 0.089984149 0.0094616096
0.56679583 0.089457393 0.0094532249
0.56638551 0.088930629 0.0094448393
0.56597525 0.088403866 0.0094364546
0.56556499 0.08787711 0.009428069
0.56443262 0.08789666 0.009847587
0.56402302 0.087370753 0.0098392153
0.56361341 0.086844839 0.0098308437
0.56320381 0.086318932 0.009822472
0.56207478 0.086342745 0.010242054
0.56166583 0.08581768 0.010233697
0.56125689 0.085292622 0.010225338
0.56084794 0.084767565 0.01021698
0.55972219 0.084795631 0.010636633
0.55931389 0.084271424 0.010628289
0.55890566 0.083747216 0.010619944
0.55849737 0.083223008 0.010611599
0.55737489 0.083255358 0.011031343
0.55696726 0.082731999 0.011023012
0.55655968 0.082208641 0.01101468
0.55615205 0.081685282 0.01100635
0.55574441 0.081161931 0.010998019
0.55533677 0.080638573 0.010989687
0.5549292 0.080115214 0.010981357
0.55452156 0.079591855 0.010973026
0.55411392 0.079068497 0.010964695
0.55370629 0.078545146 0.010956364
0.55329865 0.078021787 0.010948033
0.55289108 0.077498429 0.010939702
0.55248344 0.07697507 0.010931372
0.5520758 0.076451711 0.01092304
0.55166817 0.07592836 0.010914709
0.55126059 0.075405002 0.010906379
0.55085295 0.074881643 0.010898048
0.55044532 0.074358284 0.010889716
0.55003768 0.073834926 0.010881386
0.54963005 0.073311575 0.010873055
0.54922247 0.072788216 0.010864724
0.54881483 0.072264858 0.010856393
0.5484072 0.071741499 0.010848062
0.54799956 0.07121814 0.010839731
0.54759192 0.070694789 0.010831401
0.54718435 0.070171431 0.010823069
0.54677671 0.069648072 0.010814738
0.54636908 0.069124714 0.010806408
0.54596144 0.068601355 0.010798077
0.54555386 0.068078004 0.010789745
0.54514623 0.067554645 0.010781415
0.54473859 0.067031287 0.010773084
0.54433095 0.066507928 0.010764753
0.54392332 0.065984569 0.010756422
0.54351574 0.065461218 0.010748091
0.54310811 0.06493786 0.01073976
0.54270047 0.064414501 0.010731429
0.54298252 0.063303098 0.01029451
0.54257423 0.06277889 0.010286165
0.54216594 0.062254682 0.010277821
0.54175764 0.061730474 0.010269476
0.54134935 0.061206266 0.010261132
0.54094106 0.060682058 0.010252788
0.54053277 0.06015785 0.010244443
0.54012448 0.059633639 0.010236098
0.53971618 0.059109431 0.010227754
0.53930789 0.058585223 0.01021941
0.53889966 0.058061015 0.010211065
0.53849137 0.057536811 0.010202721
0.53808308 0.057012603 0.010194376
0.53767478 0.056488395 0.010186031
0.53726649 0.055964183 0.010177688
0.5368582 0.055439975 0.010169343
0.53712893 0.054314137 0.0097322157
0.53671998 0.053789079 0.009723857
0.53631103 0.053264018 0.0097154994
0.53590208 0.052738961 0.0097071417
0.53549314 0.0522139 0.009698783
0.53508419 0.051688842 0.0096904254
0.5353502 0.050557047 0.0092532067
0.5349406 0.050031137 0.009244835
0.534531 0.049505226 0.0092364633
0.53412139 0.048979316 0.0092280917
0.53371179 0.048453409 0.00921972
0.53330219 0.047927499 0.0092113484
0.53289253 0.047401585 0.0092029767
0.5331533 0.046262983 0.0087656463
0.53274304 0.045736223 0.0087572606
0.53233278 0.04520946 0.0087488759
0.53192252 0.0446827 0.0087404903
0.53217995 0.043539844 0.0083030919
0.53176898 0.043012232 0.0082946932
0.5320245 0.041866787 0.0078572324
0.53161287 0.041338325 0.0078488197
0.5312013 0.040809859 0.007840408
0.53078967 0.040281396 0.0078319954
0.53104186 0.039131731 0.0073944889
0.53062958 0.038602419 0.0073860632
0.53087974 0.037450198 0.0069485153
0.53046679 0.036920033 0.0069400761
0.53071499 0.03576526 0.0065024882
0.53096181 0.034608796 0.0060648727
0.53120738 0.033450585 0.0056272084
0.53079247 0.032917865 0.0056187282
0.53037757 0.032385148 0.0056102485
0.5306204 0.031223567 0.0051725553
0.53020483 0.030689999 0.0051640621
0.58602899 0.10129868 0.005236608
0.58561271 0.10076426 0.0052281008
0.58445287 0.10074782 0.0056480528
0.5840373 0.10021425 0.0056395591
0.58287936 0.10020036 0.0060595451
0.58246446 0.099667646 0.0060510649
0.58204955 0.099134922 0.0060425852
0.58163464 0.098602206 0.0060341051
0.58121973 0.098069489 0.0060256254
0.58006579 0.098060742 0.0064457213
0.57965153 0.097528875 0.0064372546
0.57849962 0.097522639 0.0068573691
0.57808602 0.096991628 0.0068489164
0.57693607 0.096987948 0.0072690714
0.57652318 0.096457779 0.0072606322
0.57611024 0.095927618 0.0072521931
0.57496297 0.095927343 0.0076724021
0.57455069 0.095398031 0.0076639764
0.57413846 0.094868712 0.0076555507
0.57372618 0.094339401 0.0076471251
0.57331389 0.093810089 0.0076386989
0.57290167 0.09328077 0.0076302732
0.57175899 0.093286455 0.0080505777
0.57134742 0.092757992 0.0080421651
0.57093579 0.09222953 0.0080337534
0.57052422 0.091701068 0.0080253407
0.57011259 0.091172606 0.008016929
0.56970102 0.090644144 0.0080085164
0.56856298 0.090655811 0.008428934
0.56815201 0.090128206 0.0084205354
0.5677411 0.089600593 0.0084121367
0.56733018 0.08907298 0.008403738
0.56691921 0.088545367 0.0083953394
0.56578517 0.088562116 0.0088158194
0.56537491 0.088035353 0.0088074347
0.56496465 0.087508589 0.0087990491
0.5638333 0.087528743 0.0092195841
0.56342363 0.087002829 0.0092112124
0.56301403 0.086476922 0.0092028407
0.56260443 0.085951008 0.0091944691
0.56147635 0.085975416 0.0096150674
0.5610674 0.085450359 0.0096067097
0.56065845 0.084925294 0.009598352
0.55953306 0.084953107 0.010019008
0.55912477 0.084428899 0.010010663
0.55871648 0.083904691 0.010002319
0.55830824 0.083380483 0.0099939751
0.55789995 0.082856275 0.0099856304
0.55749166 0.082332067 0.0099772858
0.55637085 0.082365863 0.010398059
0.55596322 0.081842504 0.010389728
0.55555558 0.081319153 0.010381397
0.55514795 0.080795795 0.010373066
0.55474037 0.080272436 0.010364735
0.55433273 0.079749078 0.010356404
0.5539251 0.079225719 0.010348073
0.55351746 0.078702368 0.010339743
0.55310982 0.078179009 0.010331412
0.55270225 0.077655651 0.01032308
0.55229461 0.077132292 0.01031475
0.55188698 0.076608934 0.010306419
0.55147934 0.076085582 0.010298088
0.5510717 0.075562224 0.010289757
0.55066413 0.075038865 0.010281426
0.55025649 0.074515507 0.010273095
0.54984885 0.073992148 0.010264765
0.54944122 0.073468789 0.010256433
0.54903364 0.072945438 0.010248102
0.54862601 0.07242208 0.010239772
0.54821837 0.071898721 0.010231441
