# .PCD v0.7 - Point Cloud Data file format
VERSION 0.7
FIELDS x y z
SIZE 4 4 4
TYPE F F F
COUNT 1 1 1
WIDTH 1350
HEIGHT 1
VIEWPOINT 0 0 0 1 0 0 0
POINTS 1350
DATA ascii
0.5886811 0.016605141 0.040905558
0.58754802 0.016646663 0.04128721
0.5864163 0.016689911 0.041668952
0.5852859 0.016734822 0.042050738
0.58484519 0.016176056 0.04202836
0.58371681 0.016223505 0.042410247
0.58258981 0.016272649 0.042792205
0.58146405 0.016323518 0.043174256
0.58033967 0.016376048 0.043556344
0.57990164 0.015820665 0.043534104
0.57877922 0.015875731 0.043916296
0.57765824 0.015932495 0.044298556
0.57722151 0.015378803 0.044276383
0.57566643 0.014885265 0.044636607
0.57454938 0.014947138 0.045019098
0.57411402 0.014395142 0.044996992
0.572999 0.014459528 0.045379557
0.57188529 0.014525602 0.045762192
0.57145125 0.0139753 0.045740154
0.57101721 0.013424995 0.045718115
0.57058316 0.012874694 0.04569608
0.57014918 0.012324392 0.045674041
0.56971514 0.011774087 0.045652006
0.5692811 0.011223786 0.045629967
0.56884706 0.01067348 0.045607932
0.56841302 0.010123178 0.045585893
0.56797898 0.0095728738 0.045563858
0.56754494 0.0090225721 0.045541819
0.5671109 0.0084722675 0.04551978
0.56667686 0.0079219658 0.045497745
0.56624281 0.0073716645 0.045475706
0.56580877 0.0068213595 0.045453671
0.56537473 0.0062710578 0.045431633
0.56494069 0.0057207532 0.045409597
0.56450665 0.0051704515 0.045387559
0.56407261 0.0046201469 0.045365524
0.56363857 0.0040698452 0.045343485
0.56320459 0.0035195407 0.045321446
0.56277055 0.0029692417 0.045299411
0.5623365 0.0024189372 0.045277372
0.56190246 0.0018686325 0.045255337
0.56213135 0.00068078854 0.044827782
0.56169665 0.00012963654 0.044805709
0.56126195 -0.00042151549 0.044783637
0.56082726 -0.00097266166 0.044761568
0.56039256 -0.0015238137 0.044739496
0.55995786 -0.0020749599 0.044717424
0.56018209 -0.0032687306 0.044289634
0.55974668 -0.0038207299 0.044267531
0.55931133 -0.0043727234 0.044245426
0.55887598 -0.0049247229 0.04422332
0.55909693 -0.0061227619 0.043795332
0.55866086 -0.0066756029 0.043773193
0.55822486 -0.0072284439 0.043751054
0.55778879 -0.0077812904 0.043728914
0.55735272 -0.0083341319 0.043706775
0.55691671 -0.0088869724 0.043684639
0.55648065 -0.0094398195 0.0436625
0.55669624 -0.010644599 0.043234263
0.55625951 -0.011198287 0.04321209
0.55647308 -0.012405609 0.042783756
0.5560357 -0.012960144 0.042761549
0.55624723 -0.014170003 0.042333111
0.55645746 -0.015381556 0.04190461
0.55601877 -0.015937787 0.041882336
0.55622703 -0.017151909 0.041453701
0.55578762 -0.017708985 0.041431393
0.55599385 -0.018925617 0.041002683
0.55555379 -0.019483542 0.040980343
0.555758 -0.020702709 0.040551532
0.55596089 -0.021923579 0.040122658
0.55551952 -0.022483192 0.040100247
0.55572045 -0.02370663 0.039671242
0.55591995 -0.024931729 0.039242193
0.55611819 -0.026158521 0.038813077
0.556315 -0.027387004 0.038383894
0.55587095 -0.027950007 0.038361348
0.5554269 -0.028513011 0.038338803
0.55498284 -0.029076016 0.038316257
0.55390126 -0.028969303 0.038700517
0.60139978 0.019930154 0.036955502
0.60165101 0.018771403 0.036528122
0.60120165 0.018201627 0.036505304
0.60075223 0.017631851 0.036482487
0.60030282 0.017062077 0.036459669
0.59915614 0.017085509 0.036841586
0.59870738 0.016516581 0.036818802
0.59825867 0.015947651 0.036796018
0.59711456 0.015974507 0.037178092
0.59597182 0.01600302 0.03756021
0.59483045 0.016033227 0.037942391
0.5936904 0.016065126 0.038324643
0.59255171 0.016098717 0.038706966
0.59141427 0.016134035 0.039089378
0.59027821 0.016171018 0.039471831
0.58914351 0.016209686 0.039854355
0.58801013 0.016250055 0.040236946
0.58687812 0.016292112 0.040619608
0.58574736 0.016335899 0.041002359
0.58461797 0.016381346 0.041385151
0.58348995 0.016428484 0.041768014
0.58236325 0.016477318 0.042150944
0.5819239 0.01592024 0.042128637
0.58079916 0.015971644 0.042511694
0.58036041 0.015415417 0.042489421
0.57923776 0.015469329 0.042872552
0.57811642 0.015524929 0.043255754
0.57699639 0.015582227 0.043639023
0.57655966 0.015028539 0.04361685
0.57544166 0.015088379 0.04400022
0.57388955 0.014597944 0.04436158
0.57277489 0.014662019 0.044745117
0.57234019 0.014110867 0.044723049
0.57122749 0.01417748 0.04510669
0.57079345 0.013627175 0.045084652
0.57035941 0.013076873 0.045062616
0.56992537 0.012526572 0.045040578
0.56949139 0.011976267 0.045018543
0.56905735 0.011425965 0.044996504
0.5686233 0.010875661 0.044974465
0.56818926 0.010325359 0.04495243
0.56775522 0.0097750546 0.044930391
0.56732118 0.0092247529 0.044908356
0.56688714 0.0086744484 0.044886317
0.5664531 0.0081241466 0.044864282
0.56601906 0.0075738444 0.044842243
0.56558502 0.0070235399 0.044820208
0.56515098 0.0064732381 0.044798169
0.56471694 0.0059229336 0.04477613
0.56428289 0.0053726318 0.044754095
0.56384885 0.0048223273 0.044732057
0.56341481 0.0042720255 0.044710021
0.56298077 0.0037217208 0.044687983
0.56254679 0.0031714221 0.044665948
0.56211275 0.0026211173 0.044643909
0.56167871 0.0020708127 0.044621874
0.56190729 0.00088327948 0.044193342
0.56147254 0.0003321275 0.04417127
0.56103784 -0.00021902453 0.044149201
0.56060314 -0.00077017071 0.044127129
0.56016845 -0.0013213228 0.044105057
0.55973375 -0.0018724689 0.044082988
0.55995762 -0.0030659284 0.043654222
0.55952227 -0.0036179277 0.043632116
0.55908692 -0.0041699214 0.043610014
0.55930817 -0.0053668017 0.043181084
0.5588721 -0.0059196488 0.043158945
0.5584361 -0.0064724893 0.043136805
0.55800003 -0.0070253303 0.043114666
0.55756402 -0.0075781774 0.043092526
0.55712795 -0.0081310179 0.043070387
0.55669194 -0.0086838594 0.043048248
0.55690777 -0.0098874867 0.042619076
0.55647111 -0.010441175 0.042596903
0.55668497 -0.011647338 0.042167626
0.55624759 -0.012201874 0.04214542
0.55645949 -0.013410574 0.041716043
0.55602145 -0.013965957 0.041693803
0.55623132 -0.015177199 0.041264325
0.55579257 -0.015733428 0.041242048
0.55600053 -0.01694724 0.04081244
0.55620706 -0.018162718 0.040382791
0.55641222 -0.019379886 0.039953075
0.55597156 -0.019938651 0.039930698
0.55617476 -0.021158362 0.039500881
0.55573332 -0.021717977 0.039478473
0.55529195 -0.02227759 0.039456062
0.55549252 -0.023500716 0.039026082
0.55633295 -0.025389832 0.038188484
0.55588961 -0.025951987 0.038165972
0.55608612 -0.027180158 0.037735812
0.55628127 -0.028410032 0.03730559
0.55583656 -0.028973876 0.037283011
0.55539185 -0.029537728 0.037260428
0.55494714 -0.030101579 0.037237849
0.6025691 0.018961847 0.035489526
0.60141933 0.018980738 0.035872243
0.60096997 0.01841096 0.035849426
0.60052055 0.017841186 0.035826609
0.60007119 0.017271411 0.035803791
0.59962177 0.016701635 0.035780974
0.59917235 0.016131861 0.03575816
0.59802735 0.016156675 0.036141112
0.59688359 0.016183218 0.036524162
0.59574121 0.01621142 0.036907256
0.59460014 0.016241316 0.037290413
0.59346044 0.016272904 0.037673637
0.59232205 0.016306186 0.038056932
0.59118497 0.016341193 0.038440321
0.59004933 0.016377863 0.03882375
0.58891493 0.016416222 0.039207246
0.58778191 0.01645628 0.039590813
0.58665019 0.016498026 0.039974447
0.58551979 0.016541502 0.040358175
0.58439082 0.016586637 0.040741943
0.5839501 0.016027868 0.040719569
0.58282304 0.016075542 0.041103438
0.58169734 0.016124908 0.041487373
0.581258 0.015567834 0.041465066
0.58013427 0.015619775 0.041849133
0.57901192 0.015673375 0.04223324
0.57789093 0.015728664 0.042617418
0.57745355 0.015174129 0.042595211
0.57633454 0.015231963 0.042979486
0.57521689 0.015291492 0.043363836
0.57478082 0.014738648 0.043341696
0.57322973 0.014248753 0.043704063
0.57211608 0.014313358 0.04408861
0.57168138 0.013762209 0.044066541
0.57056969 0.013829355 0.044451188
0.57013565 0.013279053 0.044429149
0.56970161 0.012728752 0.044407114
0.56926757 0.012178447 0.044385076
0.56883359 0.011628145 0.04436304
0.56839955 0.011077841 0.044341002
0.56796551 0.010527539 0.044318967
0.56753147 0.0099772345 0.044296928
0.56709743 0.0094269328 0.044274893
0.56666338 0.0088766282 0.044252854
0.56622934 0.0083263265 0.044230815
0.5657953 0.0077760248 0.04420878
0.56536126 0.0072257202 0.044186741
0.56492722 0.0066754185 0.044164706
0.56449318 0.0061251139 0.044142667
0.56405914 0.0055748122 0.044120632
0.5636251 0.0050245076 0.044098593
0.56319106 0.0044742059 0.044076558
0.56275702 0.0039239009 0.044054519
0.56232303 0.0033736022 0.044032484
0.56255257 0.0021880686 0.043603048
0.56211787 0.0016369167 0.043580975
0.56168318 0.0010857704 0.043558907
0.56124848 0.00053461845 0.043536834
0.56081372 -1.653357e-05 0.043514762
0.56037903 -0.00056767976 0.043492693
0.55994433 -0.0011188318 0.043470621
0.56016856 -0.002311138 0.043040913
0.55973321 -0.0028631256 0.043018807
0.5592978 -0.003415125 0.042996701
0.55886245 -0.0039671184 0.042974599
0.55908334 -0.0051636891 0.042544696
0.55864733 -0.0057165357 0.042522557
0.55821127 -0.0062693767 0.042500418
0.55777526 -0.0068222177 0.042478278
0.55733919 -0.0073750643 0.042456139
0.55755609 -0.008576679 0.042026058
0.55711937 -0.0091303671 0.042003885
0.55668265 -0.0096840616 0.041981712
0.55689687 -0.010889062 0.041551497
0.55645949 -0.011443603 0.04152929
0.55602211 -0.011998138 0.041507084
0.55623364 -0.013206527 0.041076731
0.55644387 -0.014416611 0.040646311
0.55600512 -0.01497284 0.040624037
0.55621338 -0.0161855 0.040193491
0.55642027 -0.017399814 0.039762899
0.55598021 -0.017957738 0.039740559
0.55618507 -0.019174596 0.039309867
0.55638856 -0.020393141 0.038879108
0.55594718 -0.020952761 0.038856696
0.55614877 -0.022173882 0.038425811
0.55570668 -0.022734342 0.038403366
0.55590624 -0.023957971 0.037972406
0.55610442 -0.025183296 0.037541375
0.55630124 -0.026410315 0.037110277
0.55649674 -0.027639024 0.036679111
0.55669093 -0.028869459 0.036247853
0.55624557 -0.029434152 0.036225237
0.5558002 -0.02999885 0.036202624
0.55726546 -0.032570824 0.034953747
0.60233706 0.019171491 0.034832671
0.60118765 0.019190071 0.035216365
0.60143691 0.018030249 0.034786969
0.60098684 0.017459625 0.034764118
0.60053682 0.016889006 0.034741268
0.60008675 0.016318383 0.034718417
0.59963667 0.015747761 0.034695566
0.59849131 0.015771419 0.035079464
0.59734726 0.015796771 0.035463426
0.59620452 0.015823849 0.035847485
0.59506315 0.015852587 0.036231585
0.59392315 0.015883019 0.036615752
0.59278446 0.015915141 0.036999986
0.59164709 0.015948959 0.037384287
0.59051102 0.015984502 0.037768684
0.58937633 0.016021704 0.038153123
0.58824295 0.0160606 0.038537629
0.58711094 0.016101195 0.038922202
0.5859803 0.016143477 0.039306846
0.58485091 0.016187487 0.039691579
0.58372289 0.016233157 0.040076356
0.58259618 0.016280521 0.040461201
0.58215618 0.015722599 0.040438861
0.5810315 0.015772501 0.040823806
0.5805921 0.015215424 0.040801499
0.57946938 0.015267902 0.041186571
0.57834804 0.015322039 0.041571688
0.57722807 0.015377864 0.041956872
0.57610941 0.015435387 0.042342126
0.57567269 0.014881699 0.042319953
0.57455605 0.014941761 0.042705309
0.57300532 0.014451555 0.043068647
0.57256991 0.013899559 0.043046545
0.57145727 0.0139647 0.043432102
0.57102257 0.01341355 0.043410029
0.5699119 0.013481233 0.04379569
0.56947786 0.012930932 0.043773651
0.56904382 0.012380627 0.043751616
0.56860977 0.011830325 0.043729577
0.56817579 0.011280021 0.043707538
0.56774175 0.010729719 0.043685503
0.56730771 0.010179414 0.043663464
0.56687367 0.0096291127 0.043641429
0.56643963 0.0090788081 0.043619391
0.56600559 0.0085285064 0.043597355
0.56557155 0.0079782046 0.043575317
0.56513751 0.0074279001 0.043553282
0.56470346 0.0068775984 0.043531243
0.56426942 0.0063272933 0.043509204
0.56383538 0.0057769916 0.043487169
0.56340134 0.0052266871 0.04346513
0.5629673 0.0046763853 0.043443095
0.56253326 0.0041260808 0.043421056
0.56209922 0.0035757818 0.043399021
0.56232846 0.0023905595 0.042968608
0.56189376 0.0018394076 0.04294654
0.56145906 0.0012882614 0.042924467
0.56102437 0.0007371094 0.042902395
0.56058967 0.00018595738 0.042880327
0.56015491 -0.00036518878 0.042858254
0.56037951 -0.0015563363 0.042427603
0.55994409 -0.0021083357 0.042405501
0.55950874 -0.0026603234 0.042383395
0.55907339 -0.0032123227 0.042361289
0.55929464 -0.0044077346 0.041930448
0.55885857 -0.0049605756 0.041908309
0.55842257 -0.0055134222 0.041886169
0.5579865 -0.0060662632 0.04186403
0.55755043 -0.0066191042 0.041841891
0.55776763 -0.0078195669 0.041410867
0.55733097 -0.0083732549 0.041388698
0.55689424 -0.0089269429 0.041366525
0.55710876 -0.01013079 0.040935367
0.55667138 -0.010685326 0.040913161
0.556234 -0.011239868 0.040890954
0.5564459 -0.012447097 0.040459659
0.55665642 -0.013656023 0.0400283
0.55621767 -0.014212253 0.040006027
0.55642623 -0.015423753 0.039574537
0.55598688 -0.01598083 0.03955223
0.55619341 -0.017194834 0.039120667
0.55639857 -0.018410532 0.038689032
0.55595785 -0.018969305 0.038666658
0.55616105 -0.020187538 0.038234923
0.55636293 -0.021407507 0.037803099
0.55592084 -0.021967968 0.037780654
0.55612069 -0.023190439 0.037348751
0.55631918 -0.024414605 0.036916777
0.55651635 -0.025640467 0.036484741
0.55671221 -0.026868016 0.036052633
0.55754596 -0.028762693 0.03521084
0.55773842 -0.029994478 0.034778565
0.55792964 -0.031227954 0.034346219
0.55748224 -0.031795189 0.034323506
0.55767137 -0.033031207 0.033891059
0.60280466 0.018793097 0.033768337
0.60095602 0.019399406 0.034560487
0.60120493 0.018239893 0.034130119
0.60075486 0.017669272 0.034107268
0.60030478 0.01709865 0.034084417
0.59985471 0.016528027 0.034061566
0.59940463 0.015957406 0.034038715
0.59825963 0.015980754 0.034423582
0.59711593 0.016005795 0.034808524
0.59597355 0.01603256 0.035193555
0.59483254 0.016060989 0.035578631
0.59369284 0.016091108 0.03596377
0.59255445 0.01612292 0.03634898
0.59141749 0.016156426 0.036734257
0.59028172 0.016191658 0.037119627
0.58914739 0.016228551 0.037505042
0.58801436 0.016267136 0.03789052
0.58688271 0.016307417 0.038276069
0.58575237 0.016349388 0.038661685
0.58462334 0.016393088 0.039047398
0.58349568 0.016438449 0.039433148
0.58305496 0.015879679 0.039410774
0.58192927 0.015927579 0.039796624
0.58080494 0.01597717 0.040182546
0.5803656 0.015420093 0.040160239
0.57924324 0.015472259 0.040546287
0.57812226 0.015526085 0.04093238
0.57700258 0.015581599 0.041318536
0.57656521 0.015027064 0.041296329
0.57544756 0.015085123 0.04168259
0.57501084 0.014531433 0.041660417
0.57389522 0.014592031 0.042046782
0.5723455 0.014102361 0.04241113
0.57079846 0.013616042 0.04277559
0.57036376 0.013064893 0.042753521
0.5692541 0.013133112 0.043140188
0.56882006 0.012582808 0.043118149
0.56838602 0.012032506 0.043096114
0.56795198 0.011482201 0.043074075
0.567518 0.010931899 0.04305204
0.56708395 0.010381594 0.043030001
0.56664991 0.0098312926 0.043007966
0.56621587 0.009280988 0.042985927
0.56578183 0.0087306863 0.042963888
0.56534779 0.0081803845 0.042941853
0.56491375 0.00763008 0.042919815
0.56447971 0.0070797782 0.042897779
0.56404567 0.0065294737 0.042875741
0.56361163 0.005979172 0.042853706
0.56317759 0.0054288674 0.042831667
0.56274354 0.0048785657 0.042809632
0.5623095 0.0043282611 0.042787593
0.56187546 0.0037779622 0.042765558
0.56210434 0.0025930512 0.042334169
0.56166965 0.0020418991 0.042312101
0.56123495 0.0014907529 0.042290028
0.56080025 0.00093960087 0.042267956
0.56036556 0.00038844888 0.042245887
0.56059039 -0.00080154056 0.041814297
0.56015503 -0.0013535341 0.041792192
0.55971968 -0.0019055335 0.041770086
0.55928427 -0.0024575212 0.041747984
0.55884892 -0.0030095205 0.041725878
0.55906981 -0.0042046211 0.041294061
0.5586338 -0.0047574621 0.041271921
0.55819774 -0.0053103087 0.041249782
0.55776173 -0.0058631497 0.041227642
0.55797923 -0.0070624542 0.04079568
0.5575425 -0.0076161427 0.040773507
0.55710584 -0.0081698308 0.040751334
0.55666912 -0.0087235188 0.040729161
0.55688328 -0.0099270549 0.040297031
0.5564459 -0.01048159 0.040274825
0.55600852 -0.011036132 0.040252618
0.55622005 -0.012243051 0.039820351
0.55643022 -0.013451666 0.039388016
0.55663913 -0.014662007 0.038955588
0.55619973 -0.015219084 0.038933277
0.55576032 -0.015776163 0.03891097
0.5559665 -0.016989855 0.03847843
0.55617136 -0.018205242 0.038045824
0.55637485 -0.019422324 0.03761315
0.55593348 -0.019981937 0.037590742
0.556135 -0.021201594 0.037157938
0.55633521 -0.022422908 0.036725096
0.55653399 -0.023645915 0.036292184
0.55673152 -0.024870617 0.035859205
0.55820811 -0.027423829 0.034605131
0.55923259 -0.030550167 0.033328127
0.55878454 -0.031118248 0.033305377
0.55897409 -0.032353133 0.032871965
0.5591622 -0.033589687 0.032438513
0.55807662 -0.033490993 0.032826401
0.60257232 0.019003052 0.033110507
0.60282022 0.017842973 0.032679107
0.60097289 0.018449539 0.033473264
0.60052282 0.017878916 0.033450413
0.60007274 0.017308295 0.033427563
0.59962267 0.016737673 0.033404712
0.59917265 0.016167052 0.033381861
0.59872258 0.015596431 0.03335901
0.59757853 0.015620311 0.03374489
0.5964359 0.015645888 0.034130838
0.59529448 0.01567319 0.034516878
0.59415448 0.015702153 0.03490296
0.59301579 0.015732808 0.035289109
0.59187847 0.015765157 0.035675328
0.59074247 0.0157992 0.036061611
0.58960778 0.015834967 0.036447991
0.58847439 0.015872393 0.036834411
0.58734244 0.015911518 0.037220903
0.58621174 0.01595233 0.037607457
0.58508247 0.015994839 0.037994083
0.58395439 0.016039075 0.038380802
0.58282775 0.016084969 0.038767561
0.58170241 0.016132558 0.039154392
0.58126241 0.015574633 0.039132047
0.5801391 0.015624762 0.039518978
0.5796997 0.015067686 0.039496671
0.57857835 0.015120387 0.039883725
0.57745838 0.015174748 0.040270828
0.57633972 0.015230799 0.040657993
0.57590234 0.014676264 0.040635787
0.57478571 0.014734857 0.041023057
0.57367039 0.014795144 0.041410394
0.57323438 0.014242304 0.041388255
0.57212102 0.014305163 0.041775718
0.57057434 0.013818533 0.042141154
0.57013965 0.013267384 0.042119082
0.5685963 0.012784988 0.042484686
0.56816226 0.012234686 0.042462651
0.56772822 0.011684381 0.042440612
0.56729424 0.01113408 0.042418573
0.5668602 0.010583775 0.042396538
0.56642616 0.010033473 0.042374499
0.56599212 0.0094831688 0.042352464
0.56555808 0.0089328671 0.042330425
0.56512403 0.0083825653 0.04230839
0.56468999 0.0078322608 0.042286351
0.56425595 0.0072819586 0.042264316
0.56382191 0.0067316541 0.042242277
0.56338787 0.0061813523 0.042220239
0.56295383 0.0056310478 0.042198204
0.56251979 0.005080746 0.042176165
0.56208575 0.004530441 0.04215413
0.56165171 0.0039801425 0.042132091
0.56188023 0.0027955421 0.041699734
0.56144553 0.0022443901 0.041677661
0.56101084 0.0016932439 0.041655589
0.56057614 0.0011420918 0.04163352
0.56014144 0.00059093983 0.041611448
0.56036597 -0.00059873832 0.041178882
0.55993056 -0.0011507319 0.04115678
0.55949521 -0.0017027312 0.041134674
0.55905986 -0.0022547189 0.041112568
0.55862445 -0.0028067185 0.041090462
0.55884504 -0.004001508 0.040657673
0.55840898 -0.004554349 0.040635534
0.55797297 -0.0051071956 0.040613394
0.55819082 -0.0063053416 0.040180489
0.5577541 -0.0068590296 0.040158316
0.55731738 -0.0074127181 0.040136144
0.55688065 -0.0079664066 0.040113971
0.55644399 -0.0085200947 0.040091798
0.55665779 -0.0097233197 0.039658695
0.55622041 -0.010277855 0.039636489
0.55578303 -0.010832396 0.039614283
0.55599421 -0.012039005 0.039181039
0.55620408 -0.013247307 0.038747728
0.55641258 -0.014457338 0.038314328
0.55597323 -0.015014416 0.038292017
0.5561797 -0.016226949 0.037858538
0.55638486 -0.017441185 0.037424993
0.55594414 -0.017999951 0.037402615
0.55614734 -0.019216722 0.036968965
0.55570596 -0.019776337 0.036946557
0.55590713 -0.020995682 0.036512781
0.55610693 -0.022216683 0.036078963
0.55630541 -0.023439379 0.035645075
0.55650258 -0.024663771 0.035211124
0.55861801 -0.027879132 0.033542648
0.55944967 -0.029773373 0.032696947
0.55964023 -0.031006258 0.032262627
0.55855358 -0.030909536 0.03265145
0.55874276 -0.032144111 0.032217063
0.558294 -0.032713041 0.032194279
0.55848116 -0.033950131 0.031759817
0.55930215 -0.035857923 0.030913573
0.60258752 0.018053241 0.032020304
0.60074085 0.018659184 0.03281641
0.60029078 0.018088562 0.032793559
0.59984076 0.017517941 0.032770708
0.59939069 0.016947318 0.032747857
0.59894061 0.016376697 0.032725006
0.59849054 0.015806075 0.032702155
0.5973469 0.015829645 0.033089012
0.59620452 0.015854912 0.033475932
0.59506351 0.015881903 0.033862948
0.59392381 0.015910553 0.034250002
0.59278548 0.015940899 0.034637127
0.59164852 0.015972935 0.035024319
0.59051287 0.016006667 0.035411581
0.58937848 0.016042123 0.035798933
0.58824551 0.016079238 0.03618633
0.58711386 0.016118051 0.036573794
0.58598351 0.016158553 0.036961325
0.58485454 0.016200753 0.037348926
0.58372688 0.016244678 0.037736617
0.58260053 0.01629026 0.038124353
0.58147556 0.016337538 0.038512155
0.58103555 0.015779613 0.038489811
0.57991254 0.015829429 0.038877718
0.5794732 0.015272355 0.038855411
0.57835215 0.015324744 0.039243441
0.57723254 0.015378795 0.039631516
0.57679451 0.014823412 0.039609276
0.57567686 0.014879999 0.039997451
0.57456058 0.014938281 0.040385693
0.57412386 0.014384593 0.04036352
0.57300955 0.014445417 0.040751867
0.57257354 0.013892573 0.040729728
0.5714612 0.013955969 0.041118201
0.56991553 0.013469875 0.041484643
0.56948084 0.012918726 0.041462574
0.56904614 0.012367576 0.041440502
0.56861144 0.011816424 0.041418429
0.56817675 0.011265276 0.041396361
0.56774205 0.010714127 0.041374288
0.56730729 0.010162978 0.041352216
0.5668726 0.0096118283 0.041330148
0.5664379 0.009060679 0.041308075
0.5660032 0.008509527 0.041286003
0.56556851 0.0079583777 0.041263934
0.56513381 0.0074072289 0.041241862
0.56469911 0.0068560797 0.04121979
0.56426436 0.0063049309 0.041197721
0.56382966 0.0057537789 0.041175649
0.56339496 0.0052026296 0.04115358
0.56296027 0.0046514836 0.041131508
0.56252557 0.0041003316 0.041109435
0.56209087 0.0035491795 0.041087367
0.56165618 0.0029980333 0.041065294
0.56122142 0.0024468813 0.041043222
0.56078672 0.001895735 0.041021153
0.56035203 0.0013445831 0.040999081
0.55991733 0.00079343107 0.040977009
0.5601415 -0.00039593613 0.040543471
0.55970615 -0.00094792969 0.040521365
0.55927074 -0.0014999291 0.040499263
0.55883539 -0.0020519167 0.040477157
0.55840003 -0.0026039162 0.040455051
0.55862021 -0.0037983947 0.040021285
0.55818421 -0.0043512355 0.039999146
0.55774814 -0.0049040825 0.039977007
0.55796564 -0.0061019175 0.03954313
0.55752897 -0.0066556055 0.039520957
0.55709225 -0.007209294 0.039498784
0.55665553 -0.007762982 0.039476611
0.55621886 -0.0083166705 0.039454438
0.55643231 -0.0095195845 0.039020356
0.55599493 -0.01007412 0.038998149
0.55555755 -0.010628661 0.038975943
0.55576837 -0.011834959 0.038541727
0.55597788 -0.01304295 0.038107444
0.55618608 -0.014252669 0.037673067
0.55574673 -0.014809747 0.037650757
0.55595285 -0.016021971 0.037216302
0.55615765 -0.017235894 0.03678178
0.55636114 -0.018451506 0.036347192
0.55591977 -0.019011119 0.03632478
0.55612129 -0.020229308 0.035890065
0.55567926 -0.020789769 0.035867624
0.5558787 -0.02201046 0.03543283
0.55671769 -0.023893923 0.034585588
0.55691385 -0.02511885 0.034150623
0.55902725 -0.028333807 0.032478217
0.55857986 -0.028901048 0.0324555
0.55813247 -0.029468281 0.032432787
0.55896014 -0.031366166 0.031584941
0.55851144 -0.031935088 0.031562157
0.55806267 -0.032504018 0.031539373
0.55888498 -0.034408648 0.030691285
0.55906975 -0.035647966 0.030255744
0.60235482 0.018263508 0.031361502
0.60120612 0.018280029 0.031749081
0.60005879 0.018298207 0.032136708
0.59960872 0.017727586 0.032113858
0.59915864 0.017156964 0.032091007
0.59870857 0.016586343 0.032068156
0.59825855 0.016015721 0.032045305
0.59780848 0.015445097 0.032022454
0.59597319 0.016063934 0.032821029
0.59483254 0.016090615 0.033209018
0.5936932 0.016118955 0.033597048
0.59255522 0.016148988 0.033985149
0.59141856 0.016180715 0.034373313
0.59028322 0.016214134 0.034761548
0.58914924 0.01624928 0.03514988
0.58801657 0.016286084 0.035538249
0.58688527 0.016324587 0.035926685
0.58575529 0.016364777 0.036315192
0.58462667 0.016406665 0.036703765
0.58349931 0.016450278 0.037092432
0.58237338 0.01649555 0.037481144
0.5812487 0.016542517 0.037869923
0.5808087 0.015984593 0.037847579
0.57968605 0.016034098 0.038236458
0.5792467 0.015477023 0.038214151
0.57812601 0.015529102 0.038603157
0.5770067 0.015582841 0.038992204
0.57656866 0.015027458 0.038969964
0.57545137 0.015083735 0.039359115
0.575014 0.014529198 0.039336909
0.57389873 0.014588017 0.03972616
0.57346201 0.014034326 0.039703988
0.57234871 0.014095686 0.04009334
0.57123673 0.014158771 0.040482786
0.57080138 0.013606775 0.040460683
0.56969142 0.013672366 0.040850207
0.56925672 0.013121217 0.040828135
0.56882203 0.012570068 0.040806063
0.56838733 0.012018916 0.040783994
0.56795263 0.011467767 0.040761922
0.56751794 0.010916618 0.040739849
0.56708324 0.010365468 0.040717781
0.56664848 0.0098143192 0.040695708
0.56621379 0.00926317 0.040673636
0.56577909 0.0087120188 0.040651567
0.56534439 0.0081608696 0.040629495
0.5649097 0.0076097203 0.040607423
0.564475 0.0070585711 0.040585354
0.5640403 0.0065074218 0.040563282
0.56360555 0.0059562698 0.040541209
0.56317085 0.005405121 0.040519141
0.56273615 0.0048539746 0.040497068
0.56230146 0.0043028225 0.040474996
0.56186676 0.0037516707 0.040452927
0.56143206 0.0032005245 0.040430855
0.56099737 0.0026493724 0.040408783
0.56056267 0.0020982262 0.040386714
0.56012791 0.0015470743 0.040364642
0.55969322 0.00099592225 0.040342569
0.55991709 -0.00019313392 0.039908059
0.55948168 -0.00074512744 0.039885953
0.55904633 -0.0012971269 0.039863847
0.55861098 -0.0018491145 0.039841745
0.55883151 -0.0030424406 0.039407037
0.55839545 -0.0035952814 0.039384898
0.55795944 -0.0041481224 0.039362758
0.55817723 -0.0053447993 0.038927939
0.55774051 -0.0058984933 0.038905766
0.55730385 -0.0064521814 0.038883593
0.55686712 -0.0070058699 0.03886142
0.5564304 -0.0075595579 0.038839251
0.55599368 -0.0081132464 0.038817078
0.55620682 -0.0093158484 0.03838202
0.55576944 -0.0098703848 0.038359813
0.55533206 -0.010424926 0.038337607
0.55554259 -0.011630912 0.037902415
0.55575174 -0.012838593 0.037467156
0.55595958 -0.014048001 0.037031807
0.55616605 -0.015259071 0.03659641
0.55637121 -0.016471831 0.03616095
0.5559305 -0.017030604 0.036138572
0.55613363 -0.018245904 0.035703007
0.5556922 -0.018805519 0.0356806
0.55589342 -0.020023394 0.035244908
0.55609322 -0.021242928 0.034809172
0.55629164 -0.022464154 0.034373373
0.55712932 -0.024347842 0.033524148
0.55668455 -0.024911692 0.033501565
0.55943578 -0.028787866 0.031411838
0.55834919 -0.028692646 0.031802546
0.55981541 -0.031252362 0.030539326
0.55936599 -0.031822138 0.030516509
0.55891657 -0.032391913 0.030493693
0.55910301 -0.033628378 0.030057281
0.55928814 -0.034866538 0.029620802
0.55883741 -0.035438012 0.029597918
0.60212213 0.018473776 0.030702699
0.60097373 0.018489985 0.031091254
0.60052299 0.017918516 0.03106837
0.60007226 0.017347047 0.031045485
0.59962153 0.01677558 0.031022601
0.59847659 0.016795987 0.031411301
0.59802651 0.016225366 0.03138845
0.59757644 0.015654743 0.031365599
0.59643412 0.01567854 0.031754438
0.59460151 0.016299328 0.032555088
0.59346253 0.016327355 0.032944094
0.59232491 0.016357079 0.033333167
0.59118861 0.016388493 0.033722308
0.59005362 0.016421603 0.034111518
0.58891994 0.016456436 0.034500822
0.58778763 0.016492929 0.034890167
0.58665669 0.016531121 0.035279579
0.58552706 0.016571 0.035669059
0.58439875 0.016612578 0.036058608
0.5832718 0.016655881 0.036448251
0.58214617 0.016700841 0.036837935
0.58170545 0.016142072 0.036815558
0.58058184 0.016189571 0.037205342
0.57945955 0.016238768 0.037595198
0.57902014 0.015681691 0.037572891
0.57789981 0.015733458 0.037962869
0.57746112 0.015177231 0.037940595
0.57634282 0.015231505 0.038330652
0.57590479 0.014676122 0.038308412
0.57478851 0.014732934 0.038698573
0.57367361 0.014791441 0.039088797
0.57323688 0.01423775 0.039066624
0.57212394 0.014298799 0.039456952
0.57168794 0.013745956 0.039434813
0.57057697 0.013809577 0.039825268
0.57014155 0.013257581 0.039803166
0.5697062 0.012705584 0.03978106
0.56927079 0.012153587 0.039758954
0.56883544 0.011601591 0.039736848
0.56840008 0.011049595 0.039714746
0.56796467 0.010497598 0.03969264
0.56752932 0.0099456022 0.039670534
0.56709397 0.0093936054 0.039648429
0.56665856 0.0088416114 0.039626326
0.5662232 0.0082896156 0.039604221
0.56578785 0.0077376189 0.039582115
0.56535244 0.0071856221 0.039560009
0.56491709 0.0066336258 0.039537907
0.56448174 0.0060816295 0.039515801
0.56404632 0.0055296328 0.039493695
0.56361097 0.0049776393 0.039471589
0.56317562 0.0044256402 0.039449483
0.56274021 0.0038736465 0.039427381
0.56230485 0.0033216472 0.039405275
0.5618695 0.0027696535 0.039383169
0.56143409 0.0022176541 0.039361063
0.56099874 0.0016656606 0.039338961
0.56056339 0.0011136612 0.039316855
0.56012797 0.00056166766 0.039294749
0.55969262 9.6682797e-06 0.039272644
0.55925727 -0.00054232526 0.039250541
0.55882186 -0.0010943246 0.039228436
0.55904275 -0.0022864803 0.038792785
0.55860668 -0.0028393271 0.03877065
0.55817068 -0.0033921681 0.03874851
0.55838883 -0.0045876862 0.038312752
0.55795211 -0.0051413747 0.038290579
0.55751538 -0.0056950687 0.038268406
0.55707866 -0.0062487572 0.038246233
0.556642 -0.0068024453 0.03822406
0.5568561 -0.0080030421 0.037788097
0.55641872 -0.0085575776 0.03776589
0.5559814 -0.0091121132 0.037743684
0.55554402 -0.0096666496 0.037721477
0.55575478 -0.010871482 0.037285347
0.55596429 -0.012078005 0.036849145
0.55617243 -0.013286255 0.036412854
0.55573308 -0.013843332 0.036390547
0.5559392 -0.015054092 0.035954177
0.556144 -0.01626654 0.035517741
0.55570328 -0.016825313 0.035495363
0.55590606 -0.018040303 0.035058822
0.55610758 -0.01925702 0.034622192
0.55630767 -0.020475395 0.034185518
0.55586499 -0.021036703 0.034163039
0.55734473 -0.023576839 0.03289767
0.55690002 -0.024140684 0.032875091
0.55709487 -0.02536587 0.032438118
0.55984366 -0.029241331 0.030343482
0.56067127 -0.031136248 0.029491832
0.56085873 -0.032370709 0.029054513
0.56104481 -0.033606898 0.028617103
0.55995727 -0.033513647 0.029008744
0.56014204 -0.034751531 0.028571265
0.55969065 -0.035323843 0.028548347
0.59979761 0.020446077 0.031281095
0.60143799 0.018111726 0.030020978
0.60029066 0.018128473 0.030410541
0.59983993 0.017557003 0.030387657
0.5993892 0.016985536 0.030364772
0.59893847 0.016414069 0.030341888
0.59848773 0.0158426 0.030319003
0.5973444 0.015864387 0.030708747
0.59620243 0.015887873 0.031098558
0.59437054 0.016508039 0.031901158
0.59323192 0.016535757 0.03229114
0.5920946 0.016565168 0.032681186
0.59095865 0.016596273 0.033071302
0.58982402 0.01662907 0.033461489
0.5886907 0.016663594 0.033851765
0.58755875 0.016699776 0.034242086
0.58642811 0.016737657 0.03463247
0.58529884 0.016777225 0.035022926
0.58417088 0.01681849 0.035413451
0.58304423 0.016861482 0.035804067
0.58191895 0.016906131 0.036194727
0.58147824 0.016347362 0.036172349
0.58035499 0.016394552 0.03656311
0.57923305 0.016443435 0.036953937
0.57879364 0.015886361 0.03693163
0.57767367 0.015937816 0.037322585
0.57723498 0.015381589 0.037300311
0.57611704 0.015435551 0.03769134
0.575679 0.014880168 0.0376691
0.57456303 0.01493667 0.038060233
0.57412565 0.014382133 0.038038027
0.57301176 0.014441174 0.038429264
0.57189918 0.014501913 0.038820565
0.57146311 0.013949069 0.038798425
0.57035249 0.01401238 0.039189856
0.56991714 0.013460383 0.039167751
0.56948173 0.012908386 0.039145645
0.56904638 0.01235639 0.039123543
0.56861103 0.011804393 0.039101437
0.56817561 0.011252397 0.039079331
0.56774026 0.0107004 0.039057225
0.56730491 0.010148404 0.039035123
0.5668695 0.0095964074 0.039013017
0.56643414 0.0090444144 0.038990911
0.56599879 0.0084924176 0.038968805
0.56556338 0.0079404209 0.038946703
0.56512803 0.0073884246 0.038924597
0.56469262 0.0068364278 0.038902491
0.56425726 0.0062844316 0.038880385
0.56382191 0.0057324353 0.038858283
0.5633865 0.0051804418 0.038836177
0.56295115 0.0046284422 0.038814072
0.5625158 0.0040764487 0.038791966
0.56208038 0.0035244492 0.038769864
0.56164503 0.0029724557 0.038747758
0.56120968 0.0024204564 0.038725652
0.56077427 0.0018684628 0.038703546
0.56033891 0.0013164635 0.038681444
0.55990356 0.00076446985 0.038659338
0.55946815 0.00021247049 0.038637232
0.5590328 -0.00033952305 0.038615126
0.55925399 -0.0015305321 0.038178537
0.55881792 -0.0020833672 0.038156401
0.55838192 -0.002636214 0.038134262
0.55794585 -0.0031890548 0.038112123
0.5581637 -0.004384262 0.037675388
0.55772698 -0.0049379505 0.037653215
0.55729026 -0.0054916446 0.037631042
0.55685353 -0.0060453331 0.037608869
0.55641687 -0.0065990211 0.037586696
0.55663061 -0.0077993069 0.037149761
0.55619329 -0.0083538424 0.037127554
0.55575591 -0.008908378 0.037105348
0.55596703 -0.010112053 0.036668275
0.55617678 -0.011317423 0.036231134
0.55573809 -0.011873648 0.036208861
0.55594593 -0.013081587 0.035771593
0.55550653 -0.013638664 0.035749286
0.55571234 -0.014849112 0.035311941
0.55591679 -0.01606125 0.034874529
0.55611992 -0.017275082 0.034437049
0.55632174 -0.01849064 0.03399948
0.55587965 -0.019051109 0.033977035
0.55607945 -0.02026917 0.033539385
0.55627787 -0.021488929 0.03310167
0.5571155 -0.023369683 0.032248612
0.55731064 -0.024593703 0.031810701
0.55750442 -0.025819393 0.031372748
0.55897379 -0.028370442 0.030103978
0.55916363 -0.029601237 0.029665794
0.55935204 -0.030833693 0.02922757
0.55953914 -0.032067843 0.028789278
0.55908906 -0.032638468 0.028766427
0.55863899 -0.033209085 0.028743576
0.55882341 -0.034446627 0.028305147
0.60210812 0.019466624 0.029408012
0.59956592 0.02065541 0.030625215
0.60120529 0.018321995 0.029362176
0.60005832 0.018338429 0.029752715
0.59960759 0.01776696 0.02972983
0.59915686 0.017195493 0.029706946
0.59870613 0.016624024 0.029684061
0.5982554 0.016052555 0.029661175
0.59711242 0.016074033 0.030051894
0.59597075 0.016097208 0.030442679
0.59413958 0.01671675 0.03124723
0.59300125 0.016744157 0.031638183
0.59186429 0.016773259 0.032029208
0.5907287 0.016804051 0.032420296
0.58959442 0.016836539 0.032811455
0.5884614 0.01687075 0.033202708
0.5873298 0.016906621 0.033594001
0.58619952 0.01694419 0.033985361
0.58507061 0.016983448 0.034376793
0.58394301 0.017024403 0.034768291
0.58281666 0.017067084 0.035159882
0.58169174 0.017111422 0.035551514
0.58125103 0.016552653 0.03552914
0.58012813 0.01659953 0.035920873
0.57900649 0.016648104 0.036312677
0.57856715 0.016091028 0.03629037
0.57744747 0.016142175 0.036682297
0.57700878 0.015585947 0.036660023
0.5758912 0.015639598 0.037052032
0.57545316 0.015084215 0.037029788
0.57433754 0.015140405 0.037421897
0.57390022 0.014585869 0.037399691
0.57278663 0.014644599 0.0377919
0.57234991 0.014090911 0.037769727
0.57123834 0.014152182 0.038162038
0.57012802 0.014215182 0.038554445
0.56969267 0.013663185 0.038532339
0.56925732 0.013111188 0.038510233
0.56882191 0.012559192 0.038488127
0.56838655 0.012007196 0.038466025
0.5679512 0.011455199 0.038443919
0.56751579 0.010903203 0.038421813
0.56708044 0.010351206 0.038399708
0.56664509 0.0097992094 0.038377605
0.56620967 0.0092472164 0.0383555
0.56577432 0.0086952196 0.038333394
0.56533897 0.0081432229 0.038311288
0.56490356 0.0075912266 0.038289186
0.5644682 0.0070392303 0.03826708
0.56403285 0.006487234 0.038244974
0.56359744 0.0059352373 0.038222868
0.56316209 0.0053832438 0.038200766
0.56272668 0.0048312442 0.03817866
0.56229132 0.0042792507 0.038156554
0.56185597 0.0037272514 0.038134448
0.56142056 0.0031752579 0.038112346
0.56098521 0.0026232586 0.03809024
0.56054986 0.0020712649 0.038068134
0.56011444 0.0015192656 0.038046028
0.55967909 0.00096727209 0.038023926
0.55924374 0.00041527269 0.03800182
0.55946523 -0.0007745722 0.037564289
0.55902922 -0.001327419 0.037542149
0.55859315 -0.001880254 0.037520014
0.55815709 -0.0024331007 0.037497874
0.55837524 -0.0036271494 0.037060197
0.55793852 -0.0041808379 0.037038028
0.55750185 -0.0047345259 0.037015855
0.55706513 -0.00528822 0.036993682
0.55662841 -0.0058419085 0.036971509
0.55619168 -0.0063955965 0.036949337
0.55640519 -0.0075955712 0.036511425
0.55596781 -0.0081501072 0.036489218
0.55553043 -0.0087046428 0.036467012
0.55574119 -0.0099080065 0.036028963
0.55595064 -0.011113065 0.03559085
0.55551195 -0.01166929 0.035568573
0.55571944 -0.012876919 0.035130333
0.55528003 -0.013433996 0.035108026
0.55548549 -0.014644133 0.034669705
0.55568957 -0.015855959 0.03423132
0.55589235 -0.017069479 0.033792868
0.55609381 -0.018284729 0.03335432
0.5562939 -0.019501638 0.03291573
0.55649269 -0.020720243 0.032477073
0.5566901 -0.021940537 0.03203835
0.55752641 -0.023821544 0.031183284
0.55772048 -0.025046069 0.030744389
0.55791324 -0.026272289 0.030305427
0.55874282 -0.028161731 0.02945005
0.55893224 -0.029392214 0.029010892
0.55912036 -0.03062436 0.028571691
0.5593071 -0.031858198 0.028132424
0.55885702 -0.032428823 0.028109573
0.55840695 -0.032999441 0.028086722
0.55795693 -0.033570066 0.028063871
0.60232681 0.020249207 0.028772129
0.60187536 0.019676892 0.028749211
0.60142398 0.019104578 0.028726291
0.60097259 0.018532261 0.028703373
0.59982592 0.018548386 0.029094888
0.59937519 0.017976915 0.029072002
0.59892446 0.017405448 0.029049117
0.59847373 0.01683398 0.029026233
0.598023 0.016262513 0.029003348
0.59757227 0.015691044 0.028980464
0.59573913 0.016306542 0.029786801
0.59277064 0.016952559 0.030985229
0.59232324 0.016385324 0.030962514
0.5911873 0.016414961 0.031354547
0.59005266 0.016446291 0.031746645
0.5889194 0.016479312 0.032138813
0.58778745 0.016514057 0.032531071
0.58665681 0.016550466 0.032923374
0.5855276 0.016588569 0.033315744
0.58439964 0.016628364 0.033708181
0.58327305 0.016669853 0.034100689
0.58214778 0.016713068 0.03449329
0.58102381 0.016757943 0.034885932
0.57990122 0.016804511 0.035278641
0.57878 0.016852772 0.035671417
0.57834059 0.016295698 0.03564911
0.57722133 0.016346531 0.036042012
0.57678264 0.015790304 0.036019739
0.57634389 0.015234074 0.035997465
0.57522732 0.015288261 0.03639048
0.57478929 0.014732878 0.036368236
0.57367474 0.014789605 0.036761355
0.5725615 0.014848023 0.03715454
0.57212478 0.014294335 0.037132367
0.57101351 0.014355295 0.037525654
0.5705775 0.013802455 0.037503514
0.5694682 0.013865987 0.037896927
0.56903285 0.013313991 0.037874822
0.5685975 0.012761994 0.037852716
0.56816208 0.012209998 0.03783061
0.56772673 0.011658002 0.037808508
0.56729138 0.011106005 0.037786402
0.56685597 0.010554008 0.037764296
0.56642061 0.010002011 0.03774219
0.56598526 0.0094500184 0.037720088
0.56554985 0.0088980217 0.037697982
0.5651145 0.0083460258 0.037675876
0.56467915 0.0077940291 0.03765377
0.56424373 0.0072420323 0.037631664
0.56380838 0.006690036 0.037609562
0.56337303 0.0061380398 0.037587456
0.56293762 0.0055860458 0.037565351
0.56250226 0.0050340467 0.037543245
0.56206691 0.0044820532 0.037521143
0.5616315 0.0039300537 0.037499037
0.56119615 0.0033780602 0.037476931
0.5607608 0.0028260609 0.037454825
0.56032538 0.0022740671 0.037432723
0.55989003 0.0017220678 0.037410617
0.55945468 0.0011700743 0.037388511
0.55967647 -1.8618064e-05 0.036950041
0.55924046 -0.00057145895 0.036927901
0.55880439 -0.0011243058 0.036905766
0.55836838 -0.0016771408 0.036883626
0.55793232 -0.0022299876 0.036861487
0.55815011 -0.0034237253 0.036422838
0.55771339 -0.0039774138 0.036400665
0.55727667 -0.0045311018 0.036378492
0.55684 -0.0050847959 0.036356319
0.55640328 -0.0056384844 0.036334146
0.55661708 -0.0068373005 0.035895295
0.5561797 -0.0073918365 0.035873089
0.55574232 -0.007946372 0.035850883
0.55530494 -0.0085009076 0.035828676
0.55551535 -0.0097039603 0.035389654
0.55572444 -0.010908708 0.034950562
0.55528575 -0.011464933 0.034928288
0.55549288 -0.012672249 0.034489073
0.55505353 -0.013229327 0.034466766
0.55525863 -0.014439153 0.034027472
0.55546236 -0.015650669 0.033588111
0.55566484 -0.016863879 0.033148684
0.55586594 -0.018078815 0.032709163
0.55606568 -0.019295415 0.032269597
0.5562641 -0.020513708 0.031829964
0.55646122 -0.021733692 0.031390268
0.55729681 -0.023614077 0.030533252
0.55749053 -0.024838289 0.030093383
0.55768293 -0.026064198 0.029653447
0.55851179 -0.027953018 0.02879612
0.55870092 -0.02918319 0.028355986
0.55888867 -0.030415025 0.027915813
0.56034672 -0.032976098 0.026640696
0.55989534 -0.033548411 0.026617777
0.55944389 -0.034120731 0.026594859
0.55835867 -0.034026716 0.026989492
0.60119128 0.019314844 0.028067488
0.6007399 0.01874253 0.02804457
0.60098338 0.01758212 0.027606269
0.59983706 0.017597899 0.027998732
0.59938568 0.017025584 0.027975814
0.59893429 0.016453268 0.027952896
0.59848291 0.015880954 0.027929977
0.59803146 0.015308637 0.027907059
0.59253997 0.01716096 0.030332273
0.59209257 0.016593724 0.030309558
0.59095699 0.016623052 0.030702565
0.58982271 0.016654069 0.031095639
0.5886898 0.016686779 0.03148878
0.58755815 0.016721213 0.031882014
0.58642793 0.016757313 0.032275293
0.58529902 0.016795104 0.032668635
0.58417141 0.016834587 0.033062048
0.58304518 0.016875764 0.033455532
0.58192021 0.01691867 0.033849105
0.58079666 0.016963234 0.034242719
0.57967436 0.017009491 0.034636404
0.57923436 0.016451567 0.03461406
0.57811409 0.016500365 0.035007849
0.57767475 0.015943291 0.034985539
0.57655644 0.015994661 0.035379451
0.57611775 0.015438431 0.035357177
0.57500148 0.015492307 0.035751168
0.57456344 0.014936924 0.035728928
0.57344925 0.01499334 0.036123019
0.57301188 0.014438801 0.036100812
0.57189965 0.014497759 0.036495004
0.57146293 0.013944071 0.036472831
0.57035273 0.014005568 0.036867127
0.56991667 0.013452724 0.036844987
0.5694806 0.01289988 0.036822848
0.56904459 0.012347039 0.036800709
0.56860852 0.011794196 0.036778569
0.56817251 0.011241351 0.03675643
0.56773645 0.010688511 0.03673429
0.56730044 0.010135666 0.036712155
0.56686437 0.0095828231 0.036690015
0.56642836 0.0090299817 0.036667876
0.5659923 0.0084771384 0.036645737
0.56555623 0.0079242941 0.036623597
0.56512022 0.0073714536 0.036601458
0.56468415 0.0068186098 0.036579318
0.56424814 0.006265766 0.036557183
0.56381208 0.005712925 0.036535043
0.56337607 0.0051600812 0.036512904
0.56294 0.0046072402 0.036490764
0.56250399 0.0040543936 0.036468625
0.56206793 0.0035015526 0.036446486
0.56163192 0.0029487116 0.036424346
0.56119585 0.0023958648 0.036402211
0.56075984 0.0018430239 0.036380071
0.56032377 0.001290183 0.036357932
0.55988771 0.00073733629 0.036335792
0.5594517 0.00018449539 0.036313653
0.55967182 -0.0010055477 0.035874166
0.5592351 -0.001559236 0.035851993
0.55879837 -0.0021129244 0.03582982
0.55836171 -0.0026666126 0.035807647
0.55792499 -0.0032203009 0.035785474
0.55748826 -0.0037739892 0.035763301
0.55705154 -0.0043276772 0.035741128
0.55661488 -0.0048813717 0.035718955
0.55617815 -0.0054350598 0.035696782
0.5563916 -0.0066335653 0.035256959
0.55595422 -0.0071881008 0.035234753
0.55551684 -0.0077426364 0.035212547
0.55507946 -0.0082971724 0.03519034
0.55528957 -0.009499914 0.034750342
0.5554983 -0.010704351 0.034310278
0.55505961 -0.011260575 0.034288004
0.55526638 -0.012467581 0.033847813
0.55547184 -0.013676248 0.03340758
0.55567586 -0.014886611 0.032967277
0.55587864 -0.016098663 0.03252691
0.5560801 -0.017312441 0.032086447
0.5562802 -0.018527882 0.031645942
0.55647892 -0.019745018 0.031205369
0.55667633 -0.020963842 0.030764731
0.55751258 -0.02284191 0.029905835
0.55770665 -0.024064971 0.029465025
0.55789936 -0.025289722 0.029024146
0.55809075 -0.026516166 0.028583203
0.55891836 -0.028405238 0.027723866
0.55910641 -0.029635914 0.02728275
0.55929309 -0.03086829 0.026841568
0.56011403 -0.032765832 0.025981894
0.55966258 -0.033338144 0.025958974
0.55921119 -0.033910461 0.025936056
0.55812633 -0.033816759 0.026331663
0.6005072 0.018952796 0.027385769
0.60075033 0.017792698 0.026946492
0.60029823 0.017219538 0.026923539
0.59984618 0.016646376 0.026900588
0.59939408 0.016073212 0.026877634
0.59825015 0.01609122 0.027271176
0.59849 0.014926889 0.026831729
0.59230936 0.017369362 0.029679319
0.59186196 0.016802127 0.029656604
0.59072667 0.016831141 0.030050585
0.58959275 0.016861849 0.030444633
0.58846021 0.016894247 0.03083875
0.58732891 0.016928371 0.031232959
0.58619899 0.016964158 0.031627212
0.58507043 0.017001638 0.03202153
0.58394319 0.017040811 0.032415915
0.58281726 0.017081678 0.032810371
0.58169264 0.017124271 0.033204921
0.58056945 0.017168524 0.033599511
0.57944751 0.01721447 0.033994168
0.57900751 0.016656548 0.033971827
0.57788759 0.016705034 0.034366589
0.57744819 0.01614796 0.034344278
0.57700884 0.015590882 0.034321971
0.57589155 0.015642788 0.034716893
0.57545286 0.015086558 0.034694619
0.57433766 0.01514097 0.035089616
0.57389957 0.014585587 0.035067376
0.57278639 0.014642537 0.035462476
0.57167453 0.014701183 0.03585764
0.5712378 0.014147495 0.035835471
0.57080108 0.013593804 0.035813298
0.57036436 0.013040116 0.035791125
0.56925583 0.013102993 0.03618646
0.56881982 0.012550153 0.036164321
0.56838375 0.011997309 0.036142182
0.56794769 0.011444465 0.036120042
0.56751168 0.010891624 0.036097907
0.56707561 0.01033878 0.036075767
0.5666396 0.0097859362 0.036053628
0.56620353 0.0092330957 0.036031488
0.56576753 0.0086802514 0.036009349
0.56533146 0.0081274081 0.03598721
0.56489545 0.0075745666 0.03596507
0.56445938 0.0070217228 0.035942934
0.56402332 0.0064688791 0.035920795
0.56358731 0.0059160381 0.035898656
0.56315124 0.0053631943 0.035876516
0.56271523 0.0048103533 0.035854377
0.56227916 0.0042575067 0.035832237
0.56184316 0.0037046657 0.035810098
0.56140709 0.0031518249 0.035787962
0.56097108 0.0025989781 0.035765823
0.56053501 0.0020461371 0.035743684
0.56009901 0.0014932962 0.035721544
0.56032008 0.00030525884 0.035281152
0.55988336 -0.00024842942 0.035258979
0.55944669 -0.00080212357 0.035236806
0.55900997 -0.0013558118 0.035214633
0.55857325 -0.0019095001 0.03519246
0.55813652 -0.0024631885 0.035170287
0.55769986 -0.0030168768 0.035148114
0.55726314 -0.003570565 0.035125941
0.55682641 -0.0041242531 0.035103768
0.55638969 -0.0046779471 0.035081595
0.55660349 -0.0058752941 0.03464083
0.55616611 -0.0064298296 0.03461862
0.55572873 -0.0069843656 0.034596413
0.55529135 -0.0075389012 0.034574207
0.55485398 -0.0080934372 0.034552
0.55506372 -0.0092958678 0.03411103
0.5552721 -0.010499993 0.033669993
0.55483341 -0.011056217 0.033647716
0.55503988 -0.012262912 0.033206552
0.55524498 -0.013471269 0.032765344
0.55544871 -0.014681321 0.032324068
0.55565113 -0.015893061 0.031882726
0.55585223 -0.017106529 0.03144129
0.55605197 -0.018321659 0.03099981
0.55625033 -0.019538483 0.030558262
0.55644739 -0.020756997 0.030116647
0.55792272 -0.023291647 0.028836666
0.55811578 -0.024515245 0.028394848
0.55830753 -0.02574053 0.027952962
0.55849791 -0.026967512 0.027511008
0.55932409 -0.028856808 0.026649689
0.55951118 -0.030088022 0.026207566
0.56033272 -0.031983249 0.025346009
0.56051642 -0.033218693 0.024903717
0.56006432 -0.033791855 0.024880763
0.56024605 -0.035029843 0.02443837
0.55852711 -0.034272507 0.025254335
0.60096931 0.018576439 0.026309667
0.60051727 0.018003277 0.026286716
0.60006517 0.017430115 0.026263762
0.59961313 0.016856954 0.026240811
0.59985328 0.01569378 0.025800426
0.59801745 0.016301489 0.026612373
0.59825695 0.015137468 0.026171952
0.59642446 0.015749443 0.026984096
0.59459466 0.016364768 0.027796347
0.59276754 0.016983518 0.028608762
0.59163129 0.017010527 0.029003648
0.59049636 0.017039232 0.029398605
0.5893628 0.017069627 0.029793626
0.58823055 0.017101714 0.030188717
0.58709961 0.017135527 0.030583901
0.58597004 0.017171005 0.030979129
0.58484185 0.017208174 0.031374421
0.58371496 0.017247034 0.031769782
0.58258939 0.01728759 0.032165214
0.58146513 0.017329874 0.032560736
0.58034223 0.017373815 0.032956302
0.57922065 0.017419448 0.033351935
0.57878065 0.016861526 0.033329595
0.5776611 0.016909704 0.033725329
0.57722169 0.016352627 0.033703018
0.57678235 0.015795549 0.033680711
0.57634294 0.015238475 0.033658404
0.57522666 0.015290915 0.034054331
0.57478797 0.014734688 0.034032058
0.57367378 0.014789633 0.034428064
0.57256091 0.014846272 0.034824137
0.57212353 0.014291736 0.03480193
0.57101268 0.01435092 0.035198107
0.57057595 0.013797228 0.035175934
0.57013923 0.01324354 0.035153762
0.56970251 0.012689848 0.035131589
0.56926584 0.01213616 0.035109416
0.56882912 0.011582472 0.035087243
0.5683924 0.011028782 0.03506507
