# .PCD v0.7 - Point Cloud Data file format
VERSION 0.7
FIELDS x y z
SIZE 4 4 4
TYPE F F F
COUNT 1 1 1
WIDTH 1397
HEIGHT 1
VIEWPOINT 0 0 0 1 0 0 0
POINTS 1397
DATA ascii
0.73523307 -0.18245134 0.10952235
0.73633695 -0.18201031 0.10995427
0.73744023 -0.18157135 0.11038616
0.73854285 -0.18113445 0.11081801
0.7387647 -0.18041375 0.11082959
0.73986632 -0.17997995 0.1112614
0.74008787 -0.1792603 0.11127298
0.74118859 -0.1788296 0.11170471
0.74140978 -0.17811097 0.11171627
0.74163097 -0.17739235 0.11172783
0.74273044 -0.1769658 0.11215953
0.74382925 -0.1765413 0.11259118
0.74404979 -0.17582475 0.1126027
0.74427032 -0.17510819 0.11261423
0.74449092 -0.17439163 0.11262576
0.74471146 -0.17367508 0.11263727
0.74580836 -0.17325678 0.11306883
0.7460286 -0.17254126 0.11308033
0.74712455 -0.17212607 0.11351182
0.74734443 -0.17141159 0.11352332
0.74756438 -0.17069709 0.11353481
0.74778432 -0.1699826 0.1135463
0.7480042 -0.16926812 0.11355779
0.74822414 -0.16855362 0.11356928
0.74931782 -0.16814567 0.11400066
0.74953747 -0.16743222 0.11401214
0.75063026 -0.16702738 0.11444349
0.75084955 -0.16631496 0.11445495
0.75106883 -0.16560254 0.11446641
0.75216031 -0.16520183 0.11489766
0.75237924 -0.16449045 0.11490911
0.75259823 -0.16377905 0.11492055
0.75281721 -0.16306767 0.11493199
0.75390708 -0.16267212 0.11536317
0.75412571 -0.16196176 0.11537459
0.75434434 -0.16125141 0.11538602
0.75456303 -0.16054106 0.11539745
0.75478166 -0.1598307 0.11540887
0.75500029 -0.15912035 0.11542029
0.75521898 -0.15841 0.11543172
0.75543761 -0.15769964 0.11544314
0.75652462 -0.15731341 0.11587417
0.75674295 -0.1566041 0.11588558
0.75696129 -0.15589477 0.11589698
0.75717962 -0.15518545 0.1159084
0.75739795 -0.15447612 0.11591981
0.75761628 -0.15376681 0.11593121
0.75783461 -0.15305749 0.11594262
0.75805295 -0.15234818 0.11595403
0.75827128 -0.15163885 0.11596543
0.75848961 -0.15092953 0.11597684
0.75870794 -0.15022022 0.11598825
0.75892627 -0.14951089 0.11599965
0.7591446 -0.14880157 0.11601106
0.75936294 -0.14809225 0.11602248
0.75958127 -0.14738293 0.11603388
0.75893599 -0.14633398 0.11562593
0.75915462 -0.14562362 0.11563735
0.75937331 -0.14491327 0.11564878
0.75959194 -0.14420292 0.1156602
0.75981057 -0.14349256 0.11567163
0.76002926 -0.14278221 0.11568305
0.76024789 -0.14207186 0.11569447
0.76046652 -0.1413615 0.1157059
0.76068521 -0.14065115 0.11571732
0.76090384 -0.1399408 0.11572874
0.76112247 -0.13923045 0.11574017
0.76134115 -0.13852009 0.11575159
0.76155978 -0.13780972 0.11576302
0.76177841 -0.13709937 0.11577445
0.76199704 -0.13638903 0.11578587
0.76221573 -0.13567866 0.11579729
0.76243436 -0.13496831 0.11580872
0.76265299 -0.13425796 0.11582014
0.76287168 -0.1335476 0.11583156
0.76309031 -0.13283725 0.11584299
0.76330894 -0.1321269 0.11585441
0.76352763 -0.13141654 0.11586583
0.76374626 -0.13070619 0.11587726
0.76396489 -0.12999584 0.11588868
0.7633276 -0.12892105 0.11548115
0.76354659 -0.12820965 0.11549259
0.76376551 -0.12749827 0.11550403
0.7639845 -0.12678687 0.11551547
0.76420349 -0.12607549 0.11552691
0.76442242 -0.12536409 0.11553835
0.7646414 -0.12465271 0.1155498
0.76486039 -0.12394132 0.11556123
0.76507932 -0.12322994 0.11557268
0.76529831 -0.12251855 0.11558411
0.76551729 -0.12180717 0.11559556
0.76573622 -0.12109578 0.11560699
0.76595521 -0.12038439 0.11561844
0.7661742 -0.11967299 0.11562988
0.76639313 -0.11896161 0.11564132
0.76661211 -0.11825022 0.11565276
0.7668311 -0.11753883 0.1156642
0.76705003 -0.11682744 0.11567564
0.76726902 -0.11611605 0.11568708
0.76748794 -0.11540467 0.11569852
0.76770693 -0.11469328 0.11570997
0.76792592 -0.1139819 0.1157214
0.76814485 -0.1132705 0.11573285
0.76751518 -0.11217089 0.11532572
0.76773447 -0.11145847 0.11533717
0.76795375 -0.11074604 0.11534863
0.76817304 -0.11003362 0.11536009
0.76754493 -0.10892883 0.11495301
0.76776451 -0.10821537 0.11496449
0.76798415 -0.10750192 0.11497596
0.76735735 -0.10639299 0.11456897
0.76757723 -0.1056785 0.11458047
0.76779717 -0.10496401 0.11459196
0.76717162 -0.10385095 0.11418504
0.76739186 -0.10313544 0.11419655
0.76676726 -0.10201928 0.11378968
0.76698786 -0.10130272 0.1138012
0.76636422 -0.10018346 0.11339437
0.76658511 -0.099465869 0.11340591
0.76680595 -0.098748274 0.11341745
0.76618356 -0.097624861 0.11301068
0.76640475 -0.096906237 0.11302224
0.76578337 -0.095779739 0.11261554
0.76600486 -0.09506008 0.11262712
0.76622641 -0.094340421 0.11263869
0.76560628 -0.093209788 0.11223204
0.76582807 -0.092489094 0.11224364
0.76604992 -0.091768399 0.11225522
0.76627177 -0.091047704 0.11226682
0.76565325 -0.089911893 0.11186026
0.7658754 -0.08919017 0.11187187
0.76525778 -0.088051245 0.11146536
0.76548022 -0.087328494 0.11147698
0.76486361 -0.086186484 0.11107052
0.76508635 -0.085462689 0.11108217
0.7644707 -0.084317572 0.11067575
0.7646938 -0.083592743 0.1106874
0.76407909 -0.082444526 0.11028106
0.76430255 -0.081718668 0.11029273
0.76452595 -0.080992803 0.11030441
0.7639125 -0.079840459 0.10989812
0.76329964 -0.078686029 0.10949184
0.7635237 -0.077958092 0.10950354
0.76291186 -0.076800577 0.10909735
0.76230067 -0.075640991 0.10869118
0.76169008 -0.074479342 0.10828503
0.76108015 -0.07331562 0.10787892
0.76047075 -0.072149806 0.10747284
0.75986212 -0.070981957 0.1070668
0.7592541 -0.069812022 0.1066608
0.75864667 -0.068640031 0.10625483
0.75803989 -0.067465954 0.10584886
0.75743377 -0.06628982 0.10544296
0.75682825 -0.06511163 0.10503709
0.75622344 -0.063931368 0.10463125
0.75561923 -0.062749036 0.10422544
0.75501561 -0.061564613 0.10381966
0.75441265 -0.060378145 0.10341391
0.75381035 -0.059189606 0.10300821
0.7532087 -0.057999007 0.10260253
0.75177711 -0.056359153 0.10177924
0.75117701 -0.055163369 0.10137364
0.75057757 -0.053965528 0.10096809
0.74997878 -0.052765623 0.10056258
0.74938059 -0.051563621 0.10015707
0.74878305 -0.050359581 0.099751614
0.74735755 -0.048700102 0.09892866
0.74676162 -0.047490876 0.098523289
0.74533832 -0.045824144 0.097700424
0.74391633 -0.044153281 0.096877649
0.74332291 -0.042935774 0.096472405
0.74190319 -0.041257687 0.095649749
0.74131137 -0.040035032 0.095244579
0.73906744 -0.037889075 0.094004616
0.73765147 -0.036198579 0.093182161
0.73623681 -0.034503903 0.092359759
0.73647422 -0.033732545 0.092372164
0.73506147 -0.032031719 0.091549873
0.73529953 -0.031258278 0.091562316
0.73141527 -0.028150801 0.089488156
0.72753423 -0.025032965 0.087414183
0.6565032 -0.20304203 0.076515868
0.65764725 -0.2024696 0.076950938
0.65879065 -0.20189926 0.077385992
0.6590367 -0.20109998 0.077398852
0.66824722 -0.20262103 0.081633136
0.66938615 -0.20206515 0.082067944
0.67142028 -0.20174545 0.082924835
0.67255765 -0.20119473 0.083359562
0.67369443 -0.20064612 0.083794266
0.67393565 -0.19986235 0.083806872
0.67596596 -0.19955504 0.084663562
0.67710078 -0.19901261 0.085098155
0.67823499 -0.19847226 0.085532725
0.68026209 -0.1981753 0.086389251
0.6813947 -0.19764011 0.086823732
0.68520552 -0.19783719 0.088524058
0.6872285 -0.19755366 0.089380354
0.68925023 -0.1972743 0.090236612
0.69127065 -0.19699904 0.091092788
0.69328988 -0.19672795 0.091948897
0.69530773 -0.19646098 0.092804931
0.6973244 -0.19619815 0.093660921
0.69933975 -0.19593944 0.094516814
0.69957304 -0.19518152 0.094529003
0.70158654 -0.19492903 0.095384829
0.70359868 -0.19468068 0.096240558
0.70472014 -0.19418167 0.096674465
0.70673013 -0.19394055 0.097530097
0.70784998 -0.19344671 0.097963907
0.70985764 -0.19321282 0.09881942
0.71097594 -0.19272415 0.09925314
0.71209359 -0.19223757 0.099686854
0.71321058 -0.19175304 0.10012051
0.71432698 -0.19127059 0.10055415
0.71544266 -0.19079019 0.10098775
0.7165578 -0.19031188 0.10142132
0.71767223 -0.18983562 0.10185486
0.71878606 -0.18936142 0.10228836
0.71989924 -0.18888931 0.10272182
0.72101176 -0.18841925 0.10315525
0.72123867 -0.18768202 0.1031671
0.72323501 -0.18748537 0.10402201
0.72434562 -0.18702151 0.10445536
0.72457159 -0.18628737 0.10446716
0.726565 -0.18610004 0.10532193
0.72767371 -0.18564239 0.10575517
0.72878182 -0.1851868 0.10618836
0.72988927 -0.1847333 0.10662153
0.73099607 -0.18428186 0.10705466
0.73210227 -0.1838325 0.10748777
0.73232603 -0.1831056 0.10749946
0.73343128 -0.18265933 0.10793251
0.73365468 -0.18193346 0.10794418
0.73475891 -0.18149029 0.10837718
0.73586255 -0.1810492 0.10881015
0.73696554 -0.18061015 0.10924309
0.73718804 -0.1798874 0.10925471
0.73829013 -0.17945148 0.1096876
0.73851228 -0.17872976 0.1096992
0.73961335 -0.17829692 0.11013204
0.73983514 -0.17757623 0.11014362
0.74093527 -0.17714649 0.11057641
0.74115682 -0.17642684 0.11058798
0.74137831 -0.17570718 0.11059956
0.74247718 -0.17528158 0.11103228
0.74269837 -0.17456296 0.11104383
0.74291956 -0.17384434 0.11105539
0.74314076 -0.17312571 0.11106694
0.74423808 -0.17270531 0.1114996
0.74445891 -0.17198771 0.11151113
0.74555522 -0.17157039 0.11194371
0.74577582 -0.17085384 0.11195524
0.74599636 -0.17013727 0.11196677
0.74621689 -0.16942072 0.11197829
0.74643749 -0.16870415 0.11198981
0.74665803 -0.1679876 0.11200134
0.74775213 -0.16757752 0.11243381
0.74797237 -0.166862 0.11244532
0.74906546 -0.16645502 0.11287773
0.7492854 -0.16574052 0.11288922
0.74950534 -0.16502602 0.11290071
0.75059718 -0.16462319 0.11333306
0.75081676 -0.16390973 0.11334454
0.75190771 -0.16351001 0.11377686
0.75212699 -0.16279759 0.11378831
0.75321692 -0.16240095 0.11422055
0.75343591 -0.16168955 0.11423199
0.7536549 -0.16097817 0.11424343
0.75387383 -0.16026677 0.11425488
0.75409281 -0.15955539 0.11426631
0.7543118 -0.15884401 0.11427776
0.75453073 -0.15813261 0.11428919
0.75474972 -0.15742123 0.11430064
0.75583678 -0.15703389 0.11473274
0.75605541 -0.15632354 0.11474416
0.7562741 -0.15561318 0.11475559
0.75649273 -0.15490283 0.11476701
0.75671136 -0.15419248 0.11477844
0.75693005 -0.15348212 0.11478987
0.75714868 -0.15277177 0.11480129
0.75736731 -0.1520614 0.11481271
0.757586 -0.15135105 0.11482414
0.75780463 -0.15064071 0.11483556
0.75802326 -0.14993034 0.11484698
0.75824195 -0.14921999 0.11485841
0.75846058 -0.14850964 0.11486983
0.75867921 -0.14779928 0.11488125
0.7588979 -0.14708893 0.11489268
0.75825316 -0.14603902 0.11448369
0.75847214 -0.14532763 0.11449513
0.75869113 -0.14461625 0.11450657
0.75891006 -0.14390485 0.11451802
0.75912905 -0.14319347 0.11452945
0.75934803 -0.14248209 0.1145409
0.75956696 -0.14177069 0.11455233
0.75978595 -0.14105929 0.11456378
0.76000494 -0.14034791 0.11457521
0.76022387 -0.13963653 0.11458666
0.76044285 -0.13892514 0.1145981
0.76066184 -0.13821375 0.11460954
0.76088077 -0.13750236 0.11462098
0.76109976 -0.13679098 0.11463242
0.76131874 -0.13607959 0.11464386
0.76153767 -0.1353682 0.1146553
0.76175666 -0.1346568 0.11466675
0.76197565 -0.13394542 0.11467818
0.76219457 -0.13323404 0.11468963
0.76241356 -0.13252264 0.11470107
0.76263255 -0.13181126 0.11471251
0.76285148 -0.13109986 0.11472395
0.76307046 -0.13038848 0.11473539
0.76328945 -0.1296771 0.11474683
0.76350838 -0.12896571 0.11475827
0.76372737 -0.12825432 0.11476971
0.76394635 -0.12754293 0.11478116
0.76331055 -0.12646405 0.11437264
0.76352984 -0.12575164 0.1143841
0.76374912 -0.12503922 0.11439556
0.76396841 -0.12432679 0.11440702
0.76418769 -0.12361437 0.11441848
0.76440698 -0.12290195 0.11442993
0.76462626 -0.12218953 0.11444139
0.76484555 -0.1214771 0.11445285
0.76506484 -0.12076468 0.11446431
0.76528412 -0.12005226 0.11447576
0.76550341 -0.11933984 0.11448722
0.76572269 -0.11862742 0.11449867
0.76594198 -0.117915 0.11451013
0.76616126 -0.11720257 0.11452159
0.76638055 -0.11649015 0.11453304
0.76659983 -0.11577773 0.1145445
0.76681912 -0.11506531 0.11455596
0.7670384 -0.11435288 0.11456742
0.76725769 -0.11364046 0.11457888
0.76747698 -0.11292804 0.11459033
0.76769626 -0.11221562 0.11460179
0.76706743 -0.11111399 0.11419362
0.76728702 -0.11040054 0.11420509
0.76750666 -0.10968708 0.11421657
0.76772624 -0.10897362 0.11422804
0.76709908 -0.10786683 0.11381996
0.76731896 -0.10715234 0.11383146
0.76753891 -0.10643785 0.11384295
0.766913 -0.10532693 0.11343495
0.76713324 -0.1046114 0.11344645
0.76735348 -0.10389588 0.11345796
0.76672882 -0.10278082 0.11305002
0.76694942 -0.10206427 0.11306155
0.76632571 -0.10094611 0.11265366
0.76654661 -0.10022851 0.1126652
0.76676744 -0.099510923 0.11267674
0.76614499 -0.098388605 0.1122689
0.76636618 -0.097669974 0.11228046
0.76574475 -0.096544586 0.11187269
0.76596624 -0.09582492 0.11188426
0.76618779 -0.095105261 0.11189584
0.76640928 -0.094385602 0.11190741
0.76578945 -0.093255036 0.11149972
0.76601124 -0.092534341 0.1115113
0.76623309 -0.091813646 0.1115229
0.76561451 -0.090678938 0.11111527
0.76583666 -0.089957207 0.11112688
0.76521897 -0.088819392 0.1107193
0.76460195 -0.087679513 0.11031176
0.76482475 -0.086955726 0.1103234
0.76420873 -0.08581274 0.1099159
0.76443183 -0.08508791 0.10992756
0.76465493 -0.084363081 0.10993923
0.76487803 -0.083638251 0.10995088
0.76426357 -0.082490101 0.10954347
0.76448697 -0.081764236 0.10955515
0.76471043 -0.081038378 0.10956682
0.76409721 -0.079886101 0.10915948
0.76348466 -0.078731731 0.10875216
0.76370871 -0.078003794 0.10876387
0.76309711 -0.076846339 0.10835662
0.76248616 -0.075686827 0.10794939
0.76187587 -0.074525237 0.1075422
0.76126617 -0.073361583 0.10713504
0.76065707 -0.072195835 0.1067279
0.76004869 -0.071028054 0.10632081
0.7594409 -0.069858178 0.10591374
0.75883377 -0.068686254 0.10550674
0.75822723 -0.067512244 0.10509972
0.75678861 -0.065897346 0.10427396
0.75618368 -0.064718187 0.10386705
0.75557941 -0.063536957 0.10346017
0.75497574 -0.06235363 0.10305332
0.75437278 -0.061168265 0.10264651
0.75377041 -0.059980825 0.10223973
0.7531687 -0.058791313 0.10183299
0.75256753 -0.057599735 0.10142627
0.75113684 -0.05595899 0.10060091
0.7505374 -0.05476224 0.10019429
0.74993849 -0.053563427 0.099787697
0.74934024 -0.052362528 0.099381134
0.74874264 -0.051159583 0.098974608
0.7481457 -0.049954571 0.098568104
0.74672109 -0.048294179 0.097743072
0.74529767 -0.046629641 0.096918076
0.74470323 -0.045416351 0.096511722
0.74328208 -0.043744586 0.09568686
0.74186224 -0.042068683 0.094862066
0.74044365 -0.040388659 0.094037332
0.73902625 -0.038704459 0.093212664
0.73761022 -0.037016157 0.092388086
0.73702115 -0.035785284 0.091981985
0.73643279 -0.034552332 0.091575943
0.73584509 -0.033317346 0.091169938
0.73443317 -0.031615596 0.090345554
0.732198 -0.029443976 0.089102864
0.73078895 -0.027732937 0.088278629
0.73102891 -0.026953299 0.088291168
0.65162945 -0.20701391 0.073930815
0.6518774 -0.20620842 0.073943771
0.65032786 -0.20495556 0.073110074
0.65057647 -0.20414801 0.07312306
0.65082502 -0.20334047 0.073136054
0.65107358 -0.20253292 0.07314904
0.65670687 -0.20309235 0.075701579
0.65785062 -0.20251985 0.076137707
0.65899378 -0.20194945 0.076573804
0.65923983 -0.20115016 0.076586656
0.66844773 -0.20267056 0.080831461
0.66958642 -0.20211463 0.08126732
0.67251551 -0.20202881 0.08254946
0.67365235 -0.20147909 0.082985237
0.67389357 -0.20069532 0.082997844
0.6750294 -0.20014869 0.083433554
0.67616463 -0.19960412 0.083869234
0.67729914 -0.19906162 0.084304884
0.67932677 -0.19876145 0.085163563
0.68045974 -0.19822411 0.085599124
0.68159205 -0.19768885 0.086034656
0.68361646 -0.19739902 0.086893171
0.6865319 -0.19735767 0.088174604
0.68855345 -0.19707713 0.089032985
0.69057369 -0.19680072 0.089891255
0.69259268 -0.19652845 0.090749495
0.69461036 -0.19626032 0.091607645
0.69662672 -0.1959963 0.092465736
0.6986419 -0.19573645 0.093323782
0.69976568 -0.19522911 0.093758851
0.70088875 -0.19472383 0.094193898
0.70290077 -0.19447432 0.095051765
0.70402223 -0.19397421 0.09548673
0.70603198 -0.19373192 0.096344471
0.70715195 -0.19323701 0.096779361
0.70915943 -0.19300194 0.097636983
0.71027774 -0.19251218 0.098071784
0.71139544 -0.19202448 0.098506562
0.71251255 -0.19153887 0.098941296
0.71362895 -0.19105531 0.099375993
0.71474475 -0.19057381 0.099810652
0.71585983 -0.1900944 0.1002453
0.71697444 -0.18961705 0.1006799
0.71808827 -0.18914177 0.10111447
0.71920151 -0.18866853 0.10154901
0.72031409 -0.18819739 0.1019835
0.72142607 -0.1877283 0.10241796
0.72165298 -0.18699107 0.10242981
0.72276402 -0.18652509 0.10286426
0.72387439 -0.18606119 0.10329863
0.72498411 -0.18559934 0.10373297
0.72609323 -0.18513955 0.1041673
0.72720176 -0.18468186 0.10460158
0.72830957 -0.18422621 0.10503583
0.72941673 -0.18377264 0.10547006
0.73052329 -0.18332113 0.10590424
0.73162919 -0.1828717 0.10633838
0.73185325 -0.18214376 0.10635009
0.73295826 -0.18169744 0.1067842
0.73406255 -0.18125318 0.10721828
0.73428601 -0.18052731 0.10722996
0.73538935 -0.18008614 0.10766397
0.7364921 -0.17964704 0.10809795
0.73671484 -0.17892325 0.10810959
0.73693764 -0.17819946 0.10812122
0.73803908 -0.17776449 0.10855515
0.73826158 -0.17704172 0.10856677
0.73936212 -0.17660989 0.10900064
0.73958427 -0.17588815 0.10901225
0.74068379 -0.1754594 0.10944607
0.74090564 -0.17473871 0.10945766
0.74112749 -0.17401801 0.10946925
0.74222577 -0.17359339 0.109903
0.74244726 -0.17287372 0.10991458
0.74266875 -0.17215407 0.10992615
0.7428903 -0.1714344 0.10993773
0.74398696 -0.17101495 0.11037138
0.74420816 -0.17029633 0.11038294
0.74442935 -0.1695777 0.1103945
0.74552482 -0.16916239 0.11082812
0.74574572 -0.1684448 0.11083966
0.74596655 -0.16772722 0.1108512
0.74618745 -0.16700962 0.11086274
0.74728125 -0.16659947 0.11129626
0.74750179 -0.16588292 0.11130778
0.7485947 -0.16547586 0.11174126
0.74881494 -0.16476035 0.11175276
0.74990684 -0.1643564 0.11218617
0.75012672 -0.16364191 0.11219767
0.75121772 -0.16324107 0.11263103
0.75143731 -0.16252761 0.1126425
0.75252736 -0.16212989 0.11307584
0.75274664 -0.16141747 0.1130873
0.75296593 -0.16070504 0.11309876
0.75318521 -0.15999262 0.11311021
0.7534045 -0.1592802 0.11312167
0.75362378 -0.15856777 0.11313313
0.75384307 -0.15785536 0.11314458
0.75406235 -0.15714294 0.11315604
0.75514948 -0.15675451 0.11358921
0.75536841 -0.15604311 0.11360065
0.7555874 -0.15533173 0.11361209
0.75580639 -0.15462033 0.11362353
0.75602531 -0.15390895 0.11363497
0.7562443 -0.15319756 0.11364641
0.75646329 -0.15248618 0.11365785
0.75668222 -0.15177479 0.11366929
0.7569012 -0.1510634 0.11368074
0.75712019 -0.15035202 0.11369218
0.75733912 -0.14964062 0.11370362
0.75755811 -0.14892924 0.11371506
0.75777709 -0.14821784 0.1137265
0.75799602 -0.14750646 0.11373794
0.75821501 -0.14679506 0.11374938
0.75757092 -0.14574417 0.11333936
0.75779021 -0.14503177 0.11335082
0.75800949 -0.14431934 0.11336228
0.75822878 -0.14360692 0.11337373
0.75844806 -0.14289449 0.11338519
0.75866735 -0.14218207 0.11339664
0.75888664 -0.14146966 0.1134081
0.75910592 -0.14075723 0.11341956
0.75932521 -0.14004481 0.11343102
0.75954449 -0.13933238 0.11344248
0.75976378 -0.13861996 0.11345393
0.75998306 -0.13790753 0.11346539
0.76020235 -0.13719513 0.11347685
0.76042163 -0.1364827 0.11348831
0.76064092 -0.13577028 0.11349977
0.7608602 -0.13505785 0.11351122
0.76107949 -0.13434543 0.11352268
0.76129878 -0.133633 0.11353414
0.76151806 -0.13292059 0.1135456
0.76173735 -0.13220817 0.11355706
0.76195663 -0.13149574 0.11356851
0.76217592 -0.13078332 0.11357997
0.7623952 -0.13007089 0.11359143
0.76261449 -0.12935847 0.11360288
0.76283377 -0.12864606 0.11361434
0.76305306 -0.12793364 0.11362579
0.76327235 -0.12722121 0.11363725
0.76349163 -0.12650879 0.11364871
0.76371092 -0.12579636 0.11366017
0.7639302 -0.12508395 0.11367163
0.76414949 -0.12437152 0.11368308
0.76436877 -0.1236591 0.11369454
0.76458806 -0.12294668 0.113706
0.76480734 -0.12223426 0.11371746
0.76417428 -0.12114716 0.11330801
0.76439393 -0.12043371 0.11331948
0.76461351 -0.11972025 0.11333095
0.76483309 -0.1190068 0.11334243
0.76505274 -0.11829334 0.1133539
0.76527232 -0.11757988 0.11336537
0.7654919 -0.11686643 0.11337685
0.76571155 -0.11615297 0.11338832
0.76593113 -0.11543952 0.1133998
0.76615071 -0.11472607 0.11341127
0.76637036 -0.11401261 0.11342274
0.76658994 -0.11329915 0.11343422
0.76680952 -0.11258569 0.11344569
0.76702917 -0.11187223 0.11345717
0.76724875 -0.11115878 0.11346864
0.76746833 -0.11044533 0.11348011
0.76684082 -0.10934067 0.11307096
0.7670607 -0.10862618 0.11308245
0.76728064 -0.10791168 0.11309394
0.76665437 -0.1068029 0.11268486
0.76687461 -0.10608737 0.11269637
0.76709485 -0.10537186 0.11270788
0.76646984 -0.10425892 0.11229885
0.76669037 -0.10354237 0.11231037
0.76691097 -0.10282581 0.11232189
0.76628721 -0.10170875 0.11191294
0.7665081 -0.10099116 0.11192448
0.76672894 -0.10027356 0.11193602
0.76610643 -0.099152349 0.11152711
0.76632762 -0.098433718 0.11153866
0.76570612 -0.097309425 0.11112984
0.76592761 -0.096589766 0.11114141
0.76614916 -0.0958701 0.11115298
0.76552892 -0.094741672 0.11074421
0.76575077 -0.094020978 0.1107558
0.76597255 -0.09330029 0.11076739
0.7661944 -0.092579588 0.11077898
0.76641625 -0.091858901 0.11079057
0.76579791 -0.090724252 0.11038189
0.76602006 -0.090002522 0.11039349
0.76540267 -0.088864766 0.10998487
0.76478589 -0.087724954 0.10957628
0.76500869 -0.087001167 0.10958792
0.76439291 -0.085858248 0.10917938
0.76461601 -0.085133418 0.10919104
0.76483911 -0.084408589 0.10920269
0.76422465 -0.083261542 0.10879423
0.76444805 -0.082535677 0.1088059
0.76383448 -0.081385531 0.10839746
0.76405823 -0.080658637 0.10840915
0.76344556 -0.079505362 0.10800076
0.76366967 -0.078777432 0.10801247
0.76305801 -0.07762108 0.10760416
0.762447 -0.076462656 0.10719587
0.76183665 -0.075302169 0.1067876
0.76122689 -0.07413961 0.10637937
0.76061773 -0.072974965 0.10597118
0.76000929 -0.071808279 0.10556301
0.75940144 -0.070639513 0.10515489
0.75879425 -0.069468684 0.10474681
0.75818765 -0.068295769 0.10433872
0.75758177 -0.067120798 0.1039307
0.75614399 -0.065505005 0.10310284
0.75553966 -0.064324878 0.1026949
0.75493592 -0.06314265 0.10228699
0.75433284 -0.061958384 0.1018791
0.75373048 -0.060772043 0.10147126
0.75312865 -0.05958363 0.10106345
0.75252748 -0.058393147 0.10065567
0.75192696 -0.057200596 0.10024792
0.75049716 -0.055558953 0.099420495
0.74989825 -0.054361247 0.099012822
0.74929988 -0.053161439 0.098605186
0.74870223 -0.051959597 0.098197602
0.74810529 -0.050755676 0.097790033
0.74750888 -0.049549703 0.097382508
0.74608505 -0.047888383 0.096555367
0.74466252 -0.046222951 0.095728323
0.74324125 -0.044553384 0.094901301
0.74264836 -0.043336015 0.094493963
0.74122936 -0.041659225 0.09366709
0.73981154 -0.039978262 0.092840277
0.73839509 -0.038293198 0.092013523
0.73697984 -0.036603969 0.091186836
0.73639143 -0.035372123 0.090779722
0.73580366 -0.03413824 0.090372659
0.7352165 -0.032902263 0.089965604
0.73462999 -0.031664219 0.089558594
0.7307471 -0.028561508 0.087473869
0.73098707 -0.027781885 0.087486409
0.7312271 -0.027002247 0.087498948
0.65183419 -0.20706448 0.073112324
0.65208209 -0.206259 0.07312528
0.65053308 -0.20500627 0.072289497
0.65078169 -0.20419872 0.072302483
0.65192807 -0.20361686 0.072739817
0.65217632 -0.20281035 0.072752781
0.65601331 -0.20291489 0.074462987
0.65805405 -0.2025701 0.075324476
0.65919691 -0.20199962 0.075761624
0.65944296 -0.20120035 0.075774483
0.66775227 -0.20248818 0.079605535
0.67068225 -0.20239702 0.080890924
0.67361027 -0.20231207 0.082176216
0.67474651 -0.2017633 0.082613014
0.67498744 -0.20098056 0.082625598
0.67612267 -0.20043489 0.083062351
0.67725724 -0.1998913 0.083499067
0.67839128 -0.19934979 0.083935767
0.67952466 -0.19881032 0.084372401
0.68065733 -0.19827293 0.084809013
0.6817894 -0.1977376 0.085245602
0.68381327 -0.19744764 0.086106211
0.68672794 -0.1974061 0.087390788
0.68874896 -0.19712543 0.088251263
0.68987721 -0.19660251 0.088687643
0.69189596 -0.19632907 0.089547977
0.69391346 -0.19605978 0.090408273
0.69592965 -0.19579461 0.091268472
0.69794464 -0.19553359 0.092128627
0.69995826 -0.19527669 0.092988692
0.70019156 -0.19451877 0.093000881
0.70220333 -0.19426809 0.09386088
0.70332491 -0.19376689 0.094296902
0.70533442 -0.19352344 0.095156759
0.7064544 -0.19302741 0.095592715
0.7084617 -0.19279121 0.096452475
0.70958012 -0.19230033 0.096888326
0.71069783 -0.19181155 0.097324163
0.71181494 -0.19132482 0.097759962
0.71293145 -0.19084017 0.098195732
0.71404731 -0.19035758 0.098631471
0.71516252 -0.18987705 0.099067174
0.71627706 -0.1893986 0.099502839
0.71739101 -0.18892223 0.099938475
0.71850431 -0.18844791 0.10037408
0.71961695 -0.18797565 0.10080965
0.72072899 -0.18750547 0.10124518
0.72184032 -0.18703735 0.10168068
0.72206724 -0.18630011 0.10169254
0.72317773 -0.18583512 0.10212801
0.72428751 -0.18537217 0.10256341
0.72539669 -0.1849113 0.1029988
0.72650516 -0.18445247 0.10343415
0.72761309 -0.18399575 0.10386947
0.72872037 -0.18354109 0.10430476
0.72982693 -0.18308848 0.10474001
0.73093289 -0.18263793 0.10517523
0.7311573 -0.18190897 0.10518695
0.73226231 -0.18146153 0.10562211
0.73336673 -0.18101618 0.10605726
0.73359048 -0.18028928 0.10606895
0.73469388 -0.17984702 0.10650404
0.73579669 -0.17940682 0.10693909
0.73601979 -0.17868198 0.10695074
0.73624289 -0.17795716 0.10696241
0.73734438 -0.17752109 0.10739739
0.73756719 -0.1767973 0.10740903
0.73866773 -0.17636435 0.10784396
0.73889017 -0.17564158 0.10785558
0.73998982 -0.17521174 0.10829048
0.74021196 -0.17449 0.10830209
0.74043417 -0.17376828 0.10831369
0.74153244 -0.17334256 0.10874852
0.74175429 -0.17262186 0.1087601
0.74197614 -0.17190117 0.1087717
0.74219793 -0.17118047 0.10878329
0.74329472 -0.17075993 0.10921802
0.74351621 -0.17004026 0.10922959
0.7437377 -0.1693206 0.10924117
0.74483317 -0.16890419 0.10967582
0.74505436 -0.16818556 0.10968739
0.74527556 -0.16746694 0.10969894
0.74549675 -0.16674832 0.1097105
0.74659067 -0.16633709 0.1101451
0.74681157 -0.16561949 0.11015664
0.74790448 -0.16521135 0.11059118
0.74812502 -0.16449478 0.11060271
0.74921697 -0.16408974 0.11103719
0.74943721 -0.16337422 0.1110487
0.75052822 -0.16297227 0.11148313
0.75074816 -0.16225779 0.11149462
0.75183821 -0.16185895 0.111929
0.75205785 -0.16114549 0.11194048
0.75227743 -0.16043204 0.11195195
0.75249702 -0.15971859 0.11196343
0.75271666 -0.15900512 0.1119749
0.75293624 -0.15829167 0.11198638
0.75315583 -0.15757822 0.11199785
0.75424337 -0.15718767 0.11243211
0.75446266 -0.15647525 0.11244357
0.75468194 -0.15576282 0.11245503
0.75490123 -0.1550504 0.11246649
0.75512052 -0.15433797 0.11247795
0.7553398 -0.15362555 0.1124894
0.75555909 -0.15291312 0.11250086
0.75577837 -0.15220071 0.11251232
0.75599766 -0.15148829 0.11252378
0.75621694 -0.15077586 0.11253524
0.75643623 -0.15006344 0.11254669
0.75665551 -0.14935102 0.11255815
0.7568748 -0.14863861 0.11256961
0.75709409 -0.14792618 0.11258107
0.75731337 -0.14721376 0.11259253
0.75753266 -0.14650133 0.11260398
0.75775194 -0.14578891 0.11261544
0.75710869 -0.14473601 0.11220438
0.75732833 -0.14402255 0.11221585
0.75754791 -0.1433091 0.11222733
0.7577675 -0.14259563 0.1122388
0.75798714 -0.14188218 0.11225028
0.75820673 -0.14116873 0.11226175
0.75842631 -0.14045528 0.11227322
0.75864595 -0.13974182 0.1122847
0.75886554 -0.13902836 0.11229617
0.75908512 -0.1383149 0.11230765
0.75930476 -0.13760145 0.11231912
0.75952435 -0.136888 0.11233059
0.75974393 -0.13617453 0.11234207
0.75996357 -0.13546108 0.11235355
0.76018316 -0.13474762 0.11236502
0.76040274 -0.13403417 0.1123765
0.76062238 -0.1333207 0.11238797
0.76084197 -0.13260725 0.11239944
0.76106155 -0.1318938 0.11241092
0.76128119 -0.13118035 0.11242239
0.76150078 -0.13046689 0.11243387
0.76172036 -0.12975344 0.11244534
0.76194 -0.12903997 0.11245681
0.76215959 -0.12832652 0.11246829
0.76237917 -0.12761307 0.11247976
0.76259881 -0.12689961 0.11249124
0.7628184 -0.12618615 0.11250271
0.76303798 -0.12547269 0.11251418
0.76325762 -0.12475924 0.11252566
0.76347721 -0.12404578 0.11253713
0.76369679 -0.12333233 0.1125486
0.76391643 -0.12261888 0.11256008
0.76413602 -0.12190542 0.11257155
0.7643556 -0.12119196 0.11258303
0.76457524 -0.1204785 0.1125945
0.76479483 -0.11976504 0.11260597
0.76501441 -0.11905159 0.11261745
0.76523405 -0.11833814 0.11262892
0.76545364 -0.11762468 0.1126404
0.76567322 -0.11691123 0.11265187
0.76589286 -0.11619776 0.11266334
0.76611245 -0.11548431 0.11267482
0.76633203 -0.11477086 0.11268629
0.76655167 -0.1140574 0.11269777
0.76677126 -0.11334395 0.11270924
0.76699084 -0.11263049 0.11272071
0.76636261 -0.111529 0.11231046
0.76658255 -0.1108145 0.11232196
0.76680243 -0.11010002 0.11233345
0.76702237 -0.10938553 0.11234494
0.76724231 -0.10867104 0.11235642
0.76661593 -0.10756335 0.11194628
0.76683623 -0.10684782 0.11195778
0.76621079 -0.10573704 0.11154767
0.76643139 -0.10502048 0.1115592
0.76665193 -0.10430392 0.11157072
0.76602781 -0.10318899 0.11116068
0.7662487 -0.1024714 0.11117222
0.7664696 -0.1017538 0.11118376
0.76669043 -0.10103621 0.1111953
0.76691133 -0.10031862 0.11120684
0.76628906 -0.099197462 0.11079688
0.76651025 -0.098478839 0.11080844
0.76588905 -0.097354606 0.11039855
0.76611054 -0.096634954 0.11041012
0.76633203 -0.095915288 0.1104217
0.76571208 -0.09478692 0.11001188
0.76593393 -0.094066225 0.11002347
0.76615572 -0.093345538 0.11003506
0.76637757 -0.092624836 0.11004665
0.76575917 -0.091491289 0.10963691
0.76598132 -0.090769567 0.10964852
0.76536387 -0.089632906 0.1092388
0.76474708 -0.088494197 0.10882916
0.76496989 -0.087770402 0.1088408
0.76435405 -0.086628579 0.10843119
0.76457715 -0.085903749 0.10844285
0.76480025 -0.085178919 0.1084545
0.76418567 -0.084032983 0.10804496
0.76440907 -0.083307117 0.10805663
0.7637955 -0.082158066 0.10764714
0.76318246 -0.081006929 0.10723767
0.76340652 -0.080279 0.10724937
0.76279449 -0.079124779 0.10683997
0.76301891 -0.078395806 0.1068517
0.76240784 -0.077238485 0.10644233
0.76179737 -0.0760791 0.106033
0.76118761 -0.074917637 0.10562371
0.76057839 -0.073754095 0.10521445
0.75996989 -0.072588503 0.10480522
0.75936204 -0.071420841 0.10439603
0.75875479 -0.070251115 0.10398688
0.75814813 -0.069079295 0.10357773
0.75754213 -0.067905419 0.10316864
0.75693679 -0.066729493 0.10275958
0.75549984 -0.065112799 0.10192963
0.75489604 -0.063931666 0.10152065
0.75429296 -0.062748499 0.10111171
0.75369048 -0.061563261 0.10070279
0.75308865 -0.060375948 0.10029391
0.75248742 -0.059186559 0.099885069
0.75188684 -0.057995114 0.099476255
0.75128692 -0.056801599 0.099067479
0.74985796 -0.055159051 0.098237962
0.74925953 -0.053960346 0.097829252
0.74866188 -0.052759595 0.097420588
0.74806482 -0.051556781 0.097011954
0.74746841 -0.050351899 0.096603364
0.7468726 -0.049144935 0.096194811
0.7454496 -0.047482736 0.095365584
0.74402791 -0.045816407 0.094536446
0.74260747 -0.044145916 0.093707345
0.74201518 -0.042927582 0.093298987
0.74059701 -0.041249886 0.09247002
0.73918009 -0.039568026 0.091641106
0.73776442 -0.037882052 0.090812281
0.73717558 -0.036652334 0.090404071
0.73576218 -0.034959119 0.089575373
0.73517501 -0.033724248 0.089167252
0.73458844 -0.032487296 0.088759176
0.7331782 -0.030783737 0.08793062
0.73094529 -0.028610457 0.086681664
0.73036152 -0.027364183 0.086273722
0.65098691 -0.20424941 0.071481891
0.65213305 -0.20366749 0.071920276
0.6523813 -0.20286098 0.071933247
0.65825742 -0.20262034 0.074511245
0.66029638 -0.20227958 0.075374782
0.66054207 -0.20148134 0.075387619
0.67422265 -0.20416065 0.081779882
0.67446357 -0.20337792 0.081792466
0.67470449 -0.20259517 0.081805058
0.67584008 -0.20204738 0.082242876
0.6760807 -0.20126568 0.082255453
0.6772154 -0.20072098 0.082693234
0.67745566 -0.19994031 0.082705796
0.67948288 -0.19963782 0.083568715
0.6806156 -0.19909932 0.084006384
0.68174773 -0.19856289 0.084444039
0.68287921 -0.19802853 0.084881648
0.68401009 -0.19749627 0.085319251
0.68603212 -0.19721028 0.086181886
0.68805289 -0.19692844 0.087044463
0.69007242 -0.19665074 0.087906979
0.69119978 -0.19612983 0.088344388
0.6932171 -0.19585937 0.089206778
0.69523311 -0.19559304 0.090069108
0.6972478 -0.19533084 0.090931371
0.69926131 -0.1950728 0.091793574
0.6994949 -0.19431385 0.091805778
0.70150644 -0.19406199 0.09266787
0.70262808 -0.19355971 0.093104988
0.70463741 -0.19331509 0.093966946
0.70575744 -0.19281796 0.094403967
0.70776457 -0.19258058 0.095265843
0.70888299 -0.19208862 0.095702782
0.71000081 -0.19159873 0.096139669
0.71111792 -0.19111089 0.096576542
0.71223444 -0.19062515 0.097013369
0.71335042 -0.19014147 0.097450174
0.71446568 -0.18965985 0.09788695
0.71558028 -0.18918028 0.098323688
0.71669424 -0.18870281 0.098760381
0.71780765 -0.1882274 0.099197067
0.71892035 -0.18775405 0.099633694
0.72003239 -0.18728276 0.1000703
0.72114384 -0.18681355 0.10050686
0.72225463 -0.1863464 0.10094339
0.72248155 -0.18560916 0.10095526
0.72359145 -0.18514514 0.10139176
0.72470063 -0.18468316 0.1018282
0.72580922 -0.18422325 0.10226461
0.72691715 -0.18376541 0.102701
0.72802448 -0.18330964 0.10313736
0.72913116 -0.18285595 0.10357368
0.73023719 -0.18240431 0.10400997
0.73046184 -0.1816743 0.10402171
0.73156691 -0.18122578 0.10445794
0.73267138 -0.18077931 0.10489413
0.73289543 -0.18005137 0.10490584
0.73399895 -0.17960803 0.10534201
0.73510176 -0.17916673 0.10577814
0.73532522 -0.17844087 0.10578981
0.73554862 -0.177715 0.10580148
0.73665017 -0.17727783 0.10623752
0.73687327 -0.17655301 0.10624918
0.73797387 -0.17611896 0.10668519
0.73819667 -0.17539515 0.10669683
0.73929632 -0.17496419 0.10713277
0.73951882 -0.17424144 0.1071444
0.73974127 -0.17351867 0.10715602
0.74083972 -0.17309187 0.10759191
0.74106187 -0.17237014 0.10760352
0.74128401 -0.17164841 0.10761513
0.74150616 -0.17092669 0.10762674
0.74260294 -0.17050503 0.10806254
0.74282479 -0.16978434 0.10807414
0.74304664 -0.16906364 0.10808572
0.74414212 -0.16864613 0.10852146
0.74436367 -0.16792648 0.10853304
0.74458516 -0.16720681 0.10854461
0.74480665 -0.16648714 0.10855619
0.74590057 -0.1660748 0.10899183
0.74612176 -0.16535617 0.10900339
0.74721479 -0.16494694 0.10943901
0.74743569 -0.16422936 0.10945055
0.74852771 -0.16382322 0.10988609
0.74874824 -0.16310665 0.10989762
0.74983931 -0.16270362 0.11033313
0.75005955 -0.16198809 0.11034463
0.75114965 -0.16158816 0.11078008
0.7513696 -0.16087367 0.11079157
0.75158954 -0.16015919 0.11080306
0.75180942 -0.15944469 0.11081456
0.75202936 -0.15873019 0.11082605
0.7522493 -0.15801571 0.11083753
0.75246918 -0.15730122 0.11084902
0.75355679 -0.15690956 0.11128435
0.75377637 -0.1561961 0.11129583
0.75399595 -0.15548263 0.1113073
0.7542156 -0.15476918 0.11131877
0.75443518 -0.15405573 0.11133025
0.75465477 -0.15334228 0.11134172
0.75487441 -0.15262882 0.1113532
0.75509399 -0.15191536 0.11136467
0.75531358 -0.1512019 0.11137614
0.75553322 -0.15048845 0.11138762
0.7557528 -0.149775 0.11139909
0.75597239 -0.14906153 0.11141057
0.75619203 -0.14834808 0.11142204
0.75641161 -0.14763463 0.11143351
0.7566312 -0.14692117 0.11144499
0.75685084 -0.14620772 0.11145646
0.75707042 -0.14549425 0.11146794
0.75729001 -0.1447808 0.11147941
0.75750965 -0.14406735 0.11149088
0.75772923 -0.14335389 0.11150236
0.75794882 -0.14264043 0.11151383
0.75816846 -0.14192697 0.1115253
0.75838804 -0.14121352 0.11153678
0.75860763 -0.14050007 0.11154825
0.75882727 -0.13978662 0.11155973
0.75904685 -0.13907315 0.1115712
0.75926644 -0.1383597 0.11158268
0.75948608 -0.13764624 0.11159416
0.75970566 -0.13693279 0.11160563
0.75992525 -0.13621932 0.1116171
0.76014489 -0.13550587 0.11162858
0.76036447 -0.13479242 0.11164005
0.76058406 -0.13407896 0.11165152
0.7608037 -0.13336551 0.111663
0.76102328 -0.13265204 0.11167447
0.76124287 -0.13193859 0.11168595
0.76146251 -0.13122514 0.11169742
0.76168209 -0.13051169 0.11170889
0.76190168 -0.12979823 0.11172037
0.76212132 -0.12908477 0.11173184
0.7623409 -0.12837131 0.11174332
0.76256049 -0.12765786 0.11175479
0.76278013 -0.12694441 0.11176626
0.76299971 -0.12623094 0.11177774
0.7632193 -0.12551749 0.11178921
0.76343894 -0.12480403 0.11180069
0.76365852 -0.12409057 0.11181216
0.76387811 -0.12337712 0.11182363
0.76409775 -0.12266367 0.11183511
0.76431733 -0.12195021 0.11184658
0.76453692 -0.12123676 0.11185805
0.76475656 -0.1205233 0.11186953
0.76497614 -0.11980984 0.111881
0.76434499 -0.11871876 0.11146952
0.76456487 -0.11800426 0.11148102
0.76478481 -0.11728977 0.11149251
0.76500475 -0.11657529 0.111504
0.76522464 -0.1158608 0.11151548
0.76544458 -0.1151463 0.11152698
0.76566452 -0.11443181 0.11153847
0.7658844 -0.11371733 0.11154996
0.76610434 -0.11300284 0.11156145
0.76632428 -0.11228834 0.11157294
0.76654416 -0.11157386 0.11158443
0.7667641 -0.11085936 0.11159592
0.76698405 -0.11014488 0.11160742
0.76720393 -0.10943038 0.11161891
0.76742387 -0.1087159 0.1116304
0.76679778 -0.10760827 0.1112192
0.76701802 -0.10689275 0.1112307
0.76639295 -0.10578202 0.11081954
0.76661348 -0.10506546 0.11083107
0.76683402 -0.10434891 0.11084259
0.7662102 -0.10323405 0.11043151
0.76643109 -0.10251645 0.11044305
0.76665193 -0.10179885 0.11045459
0.7660293 -0.10067984 0.11004354
0.76625049 -0.099961206 0.1100551
0.76647168 -0.099242583 0.11006665
0.76585042 -0.098119453 0.10965571
0.76607192 -0.097399794 0.10966728
0.76629341 -0.096680135 0.10967885
0.7656734 -0.095552862 0.10926796
0.76589525 -0.094832167 0.10927954
0.7661171 -0.094111472 0.10929114
0.76633888 -0.093390785 0.10930273
0.76572049 -0.092258334 0.10889191
0.76594263 -0.091536604 0.10890352
0.76532507 -0.090401046 0.10849275
0.76554751 -0.089678288 0.10850438
0.76493102 -0.088539638 0.10809368
0.76431513 -0.087398916 0.107683
0.76453823 -0.086674087 0.10769466
0.76392329 -0.085530281 0.10728404
0.76414675 -0.084804416 0.10729571
0.76353276 -0.083657496 0.10688513
0.76375645 -0.082930602 0.10689682
0.76314342 -0.081780568 0.10648627
0.76336747 -0.081052631 0.10649798
0.76275539 -0.079899512 0.10608751
0.76297975 -0.07917054 0.10609923
0.76236862 -0.078014322 0.10568882
0.76175815 -0.076856032 0.10527842
0.76114833 -0.075695671 0.10486805
0.76053905 -0.074533224 0.10445772
0.75993049 -0.073368736 0.10404742
0.75932258 -0.072202161 0.10363717
0.75871527 -0.07103353 0.10322695
0.75810856 -0.06986282 0.10281674
0.75750256 -0.068690047 0.10240657
0.75689715 -0.067515217 0.10199645
0.7562924 -0.066338316 0.10158635
0.75568825 -0.065159343 0.1011763
0.75508475 -0.063978277 0.10076625
0.75448191 -0.06279517 0.10035627
0.75387973 -0.061610002 0.099946298
0.75327814 -0.060422752 0.099536367
0.75267714 -0.059233431 0.099126466
0.75124675 -0.057597209 0.098294742
0.75064743 -0.056402735 0.097884938
0.7500487 -0.05520618 0.097475156
0.74945062 -0.054007545 0.097065389
0.74885315 -0.052806858 0.096655689
0.74742788 -0.051154107 0.095824227
0.74683201 -0.049948249 0.095414609
0.7462368 -0.048740309 0.095004991
0.74481469 -0.047077201 0.0941737
0.74339378 -0.045409963 0.093342461
0.74197423 -0.043738592 0.092511296
0.74138254 -0.042519286 0.092101879
0.73996514 -0.040840659 0.091270827
0.73854911 -0.03915792 0.090439849
0.73795992 -0.037930351 0.090030573
0.73654604 -0.036240343 0.089199685
0.73595852 -0.035007615 0.088790499
0.73537159 -0.033772808 0.088381343
0.73478526 -0.032535918 0.087972209
0.73337555 -0.03083249 0.087141551
0.73114341 -0.028659405 0.085889451
0.6584608 -0.20267059 0.073698014
0.66049927 -0.20232971 0.074563645
0.66074497 -0.20153145 0.074576482
0.67442155 -0.20420979 0.08098451
0.67466247 -0.20342706 0.080997102
0.6766929 -0.20311199 0.081862301
0.67693317 -0.20233133 0.081874855
0.6771735 -0.20155066 0.081887409
0.67741376 -0.20076999 0.081899963
0.67854762 -0.20022732 0.082338788
0.67968071 -0.19968669 0.08277753
0.68081319 -0.19914813 0.083216272
0.68194509 -0.19861165 0.08365497
0.68307626 -0.19807722 0.08409363
0.6842069 -0.19754489 0.084532283
0.68622845 -0.19725877 0.085397035
0.68824869 -0.1969768 0.086261697
0.68937677 -0.19645274 0.086700208
0.69139475 -0.196178 0.087564774
0.69341153 -0.19590741 0.088429272
0.695427 -0.19564095 0.089293703
0.69744122 -0.19537863 0.090158053
0.69856483 -0.19486904 0.090596341
0.69968778 -0.19436149 0.091034569
0.70081007 -0.19385603 0.091472767
0.70193177 -0.19335262 0.091910943
0.70394093 -0.19310686 0.092775039
0.70506096 -0.19260862 0.093213134
0.70706785 -0.19237009 0.094077103
0.70818639 -0.19187704 0.094515108
0.70930427 -0.19138604 0.09495309
0.71042144 -0.19089712 0.095391013
0.71153802 -0.19041026 0.095828913
0.71265399 -0.18992546 0.096266791
0.71376932 -0.18944277 0.096704617
0.71488398 -0.1889621 0.097142428
0.71599805 -0.18848352 0.097580187
0.71711141 -0.188007 0.098017931
0.71822423 -0.18753257 0.098455645
0.71933639 -0.18706019 0.098893307
0.72044784 -0.18658987 0.099330954
0.72155869 -0.18612163 0.099768549
0.72178596 -0.18538335 0.099780418
0.72289586 -0.18491821 0.10021797
0.72400516 -0.18445516 0.1006555
0.72511375 -0.18399414 0.10109297
0.72622174 -0.1835352 0.10153043
0.72732908 -0.18307833 0.10196785
0.72843587 -0.18262355 0.10240524
0.72954196 -0.18217081 0.10284261
0.72976696 -0.18143977 0.10285436
0.73087209 -0.18099014 0.10329166
0.73197657 -0.18054257 0.10372894
0.73220092 -0.17981361 0.10374066
0.73330444 -0.17936915 0.10417786
0.73440742 -0.17892677 0.10461507
0.73463118 -0.17819987 0.10462676
0.73485488 -0.17747296 0.10463845
0.73595649 -0.17703471 0.10507556
0.73617995 -0.17630884 0.10508724
0.73728061 -0.17587368 0.1055243
0.73750371 -0.17514886 0.10553596
0.73860341 -0.1747168 0.10597299
0.73882622 -0.17399301 0.10598463
0.73992497 -0.17356405 0.10642159
0.74014741 -0.17284128 0.10643321
0.74036992 -0.17211853 0.10644484
0.74059236 -0.17139576 0.10645647
0.74081481 -0.170673 0.10646809
0.74191171 -0.17025027 0.10690497
0.74213386 -0.16952854 0.10691658
0.742356 -0.16880681 0.10692818
0.7434516 -0.1683882 0.10736499
0.74367344 -0.16766751 0.10737658
0.74389523 -0.16694681 0.10738818
0.74411708 -0.16622612 0.10739976
0.74521106 -0.16581267 0.10783648
0.74543262 -0.165093 0.10784806
0.74652559 -0.16468267 0.10828472
0.74674684 -0.16396405 0.10829628
0.74783891 -0.16355681 0.10873291
0.74805981 -0.16283923 0.10874444
0.74915093 -0.16243508 0.10918102
0.74937147 -0.16171853 0.10919255
0.75046164 -0.1613175 0.10962906
0.75068188 -0.16060197 0.10964058
0.75090212 -0.15988645 0.10965208
0.75112236 -0.15917093 0.10966359
0.75134259 -0.1584554 0.10967509
0.75156283 -0.15773988 0.1096866
0.75178307 -0.15702435 0.10969811
0.75287068 -0.15663159 0.11013449
0.75309062 -0.15591709 0.11014598
0.75331056 -0.15520261 0.11015747
0.75353044 -0.15448812 0.11016896
0.75375038 -0.15377362 0.11018045
0.75397032 -0.15305914 0.11019195
0.75419021 -0.15234464 0.11020344
0.75441015 -0.15163016 0.11021493
0.75463009 -0.15091567 0.11022642
0.75484997 -0.15020117 0.11023791
0.75506991 -0.14948669 0.1102494
0.75528985 -0.14877219 0.11026089
0.75550973 -0.14805771 0.11027238
0.75572968 -0.14734322 0.11028387
0.75594962 -0.14662872 0.11029536
0.75616956 -0.14591424 0.11030685
0.75638944 -0.14519975 0.11031834
0.75660938 -0.14448525 0.11032984
0.75682932 -0.14377077 0.11034133
0.7570492 -0.14305627 0.11035281
0.75726914 -0.14234179 0.1103643
0.75748909 -0.1416273 0.1103758
0.75770897 -0.1409128 0.11038729
0.75792891 -0.14019832 0.11039878
0.75814885 -0.13948382 0.11041027
0.75836873 -0.13876933 0.11042176
0.75858867 -0.13805485 0.11043325
0.75880861 -0.13734035 0.11044474
0.75902849 -0.13662587 0.11045624
0.75924844 -0.13591138 0.11046772
0.75946838 -0.13519688 0.11047921
0.75968826 -0.1344824 0.1104907
0.7599082 -0.1337679 0.1105022
0.76012814 -0.13305342 0.11051369
0.76034802 -0.13233893 0.11052518
0.76056796 -0.13162443 0.11053666
0.7607879 -0.13090995 0.11054816
0.76100779 -0.13019545 0.11055965
0.76122773 -0.12948097 0.11057114
0.76144767 -0.12876648 0.11058263
0.76166755 -0.12805198 0.11059412
0.76188749 -0.1273375 0.11060561
0.76210743 -0.126623 0.1106171
0.76232731 -0.12590851 0.11062859
0.76254725 -0.12519403 0.11064009
0.7627672 -0.12447953 0.11065158
0.76298708 -0.12376505 0.11066306
0.76320702 -0.12305056 0.11067455
0.76342696 -0.12233607 0.11068605
0.76364684 -0.12162157 0.11069754
0.76386678 -0.12090709 0.11070903
0.76408672 -0.12019259 0.11072052
0.7643066 -0.11947811 0.11073201
0.76452655 -0.11876362 0.1107435
0.76474649 -0.11804912 0.11075499
0.76496637 -0.11733463 0.11076649
0.76518631 -0.11662014 0.11077797
0.76540625 -0.11590566 0.11078946
0.76562619 -0.11519116 0.11080095
0.76584607 -0.11447667 0.11081245
0.76606601 -0.11376218 0.11082394
0.76628596 -0.1130477 0.11083543
0.76650584 -0.1123332 0.11084691
0.76672578 -0.11161871 0.11085841
0.76609868 -0.11051529 0.11044609
0.76631892 -0.10979977 0.11045759
0.76653916 -0.10908424 0.1104691
0.7667594 -0.10836872 0.11048061
0.7661339 -0.10726012 0.11006837
0.76635444 -0.10654357 0.1100799
0.76657504 -0.10582701 0.11009142
0.7659508 -0.10471428 0.10967924
0.76617169 -0.10399669 0.10969078
0.76639259 -0.1032791 0.10970232
0.76661342 -0.1025615 0.10971386
0.76599073 -0.10144358 0.10930175
0.76621193 -0.10072496 0.10931332
0.76643312 -0.10000633 0.10932487
0.7658118 -0.098884292 0.10891285
0.76603329 -0.098164633 0.10892443
0.76625478 -0.097444974 0.108936
0.76563472 -0.096318804 0.10852405
0.76585656 -0.095598109 0.10853563
0.76607841 -0.094877414 0.10854723
0.7654596 -0.093747102 0.10813532
0.76568174 -0.093025379 0.10814693
0.76506382 -0.091891952 0.10773508
0.76528627 -0.091169186 0.1077467
0.76550877 -0.09044642 0.10775833
0.76489216 -0.08930888 0.10734656
0.76511496 -0.088585086 0.10735819
0.76449937 -0.087444425 0.10694646
0.76472247 -0.086719595 0.10695811
0.76410776 -0.085575849 0.10654645
0.76349372 -0.084430039 0.10613481
0.76371747 -0.083703138 0.1061465
0.76310432 -0.082554199 0.10573488
0.76332837 -0.08182627 0.10574658
0.76271629 -0.080674239 0.10533506
0.76210475 -0.079520158 0.10492354
0.76232946 -0.078790158 0.10493528
0.76171893 -0.077632964 0.10452383
0.76110905 -0.076473698 0.10411239
0.76049972 -0.075312354 0.10370099
0.75989109 -0.07414896 0.10328963
0.75928313 -0.072983496 0.10287829
0.75867575 -0.07181596 0.10246701
0.75806898 -0.070646346 0.10205574
0.75746292 -0.069474675 0.10164452
0.75685745 -0.06830094 0.10123333
0.75625265 -0.067125134 0.10082215
0.75564849 -0.065947264 0.10041103
0.75504488 -0.064767301 0.099999927
0.75444204 -0.063585296 0.099588856
0.75383973 -0.06240122 0.099177837
0.75323814 -0.061215077 0.098766826
0.75263709 -0.060026843 0.098355874
0.75203675 -0.058836568 0.097944938
0.75143701 -0.057644211 0.097534046
0.75000846 -0.056003999 0.096700281
0.74941027 -0.054806452 0.096289456
0.74881279 -0.053606872 0.095878683
0.74821591 -0.052405212 0.09546794
0.74679148 -0.050751552 0.094634391
0.74619615 -0.049544714 0.094223723
0.74560153 -0.048335817 0.093813084
0.74418026 -0.046671815 0.092979714
0.74276024 -0.045003664 0.092146382
0.74134153 -0.043331381 0.091313146
0.74075043 -0.042111129 0.090902686
0.73933387 -0.040431593 0.090069555
0.73874432 -0.039206155 0.089659177
0.73815542 -0.037978649 0.089248858
0.73756713 -0.036749061 0.088838547
0.73615479 -0.035056107 0.088005647
0.73556811 -0.033821367 0.087595426
0.73498207 -0.032584544 0.087185249
0.7335729 -0.030881245 0.086352482
0.73051804 -0.02824289 0.084674619
0.66045642 -0.20317806 0.073739685
0.66159785 -0.20260946 0.074179947
0.66184324 -0.20181225 0.07419277
0.67689133 -0.203161 0.081069022
0.67713159 -0.20238034 0.081081577
0.67737186 -0.20159967 0.081094138
0.67761219 -0.20081902 0.081106693
0.67874575 -0.20027627 0.081546567
0.67987859 -0.19973558 0.081986368
0.68190342 -0.19943693 0.082853422
0.68303466 -0.19890141 0.08329314
0.68327338 -0.19812591 0.083305612
0.68440372 -0.19759351 0.083745323
0.6855334 -0.19706316 0.084184967
0.68755347 -0.19678003 0.08505176
0.68957227 -0.19650103 0.085918501
0.6906994 -0.19597895 0.086358018
0.69271594 -0.19570719 0.087224625
0.69473124 -0.19543958 0.08809118
0.69674522 -0.19517609 0.088957652
0.69786882 -0.19466539 0.089396983
0.69988066 -0.19440915 0.090263374
0.70011425 -0.1936502 0.090275578
0.70123601 -0.19314569 0.090714797
0.70324492 -0.19289877 0.091581039
0.70436507 -0.19239944 0.092020169
0.70637172 -0.19215973 0.092886277
0.70749027 -0.19166556 0.093325332
0.70860821 -0.19117348 0.093764395
0.7097255 -0.19068347 0.09420339
0.71084213 -0.1901955 0.094642356
0.71195811 -0.18970962 0.095081292
0.71307349 -0.18922579 0.095520191
0.71418828 -0.18874405 0.095959075
0.71530235 -0.18826437 0.096397907
0.71641582 -0.18778676 0.096836708
0.71752864 -0.1873112 0.097275473
0.71864086 -0.18683775 0.097714223
0.71975237 -0.18636633 0.098152921
0.72086328 -0.18589699 0.098591588
0.7219736 -0.18542971 0.099030219
0.72220081 -0.18469144 0.099042095
0.72331011 -0.18422726 0.099480681
