# .PCD v0.7 - Point Cloud Data file format
VERSION 0.7
FIELDS x y z
SIZE 4 4 4
TYPE F F F
COUNT 1 1 1
WIDTH 1352
HEIGHT 1
VIEWPOINT 0 0 0 1 0 0 0
POINTS 1352
DATA ascii
0.43773896 -0.11483599 0.03356763
0.43732074 -0.11537296 0.03355908
0.43740758 -0.11676798 0.033169009
0.43698868 -0.11730581 0.033160448
0.43656981 -0.11784363 0.033151887
0.43615091 -0.11838146 0.033143327
0.43573204 -0.11891927 0.033134766
0.43531314 -0.1194571 0.033126205
0.43489423 -0.11999492 0.033117644
0.43447536 -0.12053275 0.03310908
0.43405646 -0.12107056 0.033100519
0.43363756 -0.1216084 0.033091959
0.43321869 -0.12214621 0.033083398
0.43279979 -0.12268405 0.033074837
0.43188378 -0.12235361 0.033447962
0.43146554 -0.12289058 0.033439413
0.43104732 -0.12342755 0.033430867
0.43062907 -0.12396452 0.033422317
0.43021086 -0.12450149 0.033413772
0.42929882 -0.12416595 0.033786975
0.42888126 -0.12470207 0.03377844
0.4284637 -0.1252382 0.033769906
0.42804611 -0.12577432 0.033761375
0.42713735 -0.12543447 0.034134667
0.42672044 -0.12596975 0.034126148
0.42630354 -0.12650503 0.034117628
0.42539746 -0.12616183 0.034490954
0.42449272 -0.12581691 0.034864306
0.42407712 -0.12635049 0.034855813
0.42366156 -0.12688406 0.034847319
0.423246 -0.12741762 0.034838829
0.4228304 -0.12795119 0.034830336
0.42144439 -0.12671758 0.03558572
0.54368699 -0.089833975 0.0060336217
0.53205872 -0.079163335 0.012474364
0.53340536 -0.08195205 0.011323339
0.52994627 -0.078863785 0.013216873
0.52829242 -0.077975318 0.013968778
0.52724016 -0.077820443 0.014340115
0.52559102 -0.07692606 0.015092093
0.52394444 -0.076028235 0.015844146
0.52289748 -0.07586655 0.016215591
0.52125561 -0.074962802 0.016967718
0.51961637 -0.07405562 0.017719921
0.51678991 -0.071660906 0.019233543
0.5147146 -0.071313702 0.019976811
0.51190007 -0.068903677 0.021490678
0.51027542 -0.067977808 0.022243157
0.5086534 -0.067048505 0.022995714
0.50821596 -0.06761016 0.022986773
0.50777853 -0.068171807 0.022977833
0.50616181 -0.067235731 0.023730474
0.50572568 -0.067795679 0.023721561
0.50470126 -0.067605019 0.024093488
0.50426579 -0.068164118 0.024084589
0.50324333 -0.067970939 0.024456533
0.50222224 -0.067776069 0.024828507
0.50178814 -0.068333462 0.024819633
0.50135398 -0.068890862 0.024810761
0.50033551 -0.068692587 0.025182787
0.49990207 -0.069249131 0.025173929
0.4988856 -0.0690483 0.025545996
0.49787042 -0.068845727 0.025918111
0.49743825 -0.069400579 0.025909279
0.49642512 -0.069195487 0.026281415
0.49599364 -0.069749482 0.026272597
0.49498248 -0.069541842 0.026644772
0.49397266 -0.069332495 0.027016975
0.49354249 -0.069884785 0.027008183
0.49253461 -0.06967286 0.027380448
0.49152809 -0.06945926 0.02775272
0.49052289 -0.06924396 0.028125016
0.49009472 -0.069793701 0.028116265
0.48909152 -0.069575854 0.028488604
0.48808965 -0.0693563 0.028860969
0.48766279 -0.069904327 0.028852247
0.48666286 -0.069682188 0.029224673
0.48623669 -0.070229366 0.029215964
0.48581049 -0.070776559 0.029207254
0.48481327 -0.070551053 0.029579714
0.48381734 -0.07032384 0.0299522
0.48339251 -0.070869312 0.029943518
0.48239857 -0.070639551 0.030316046
0.48140597 -0.070408083 0.030688601
0.48098245 -0.070951857 0.030679945
0.47999179 -0.070717812 0.031052563
0.47956893 -0.071260735 0.031043921
0.4785803 -0.071024165 0.031416558
0.47815809 -0.071566246 0.031407926
0.47717145 -0.07132712 0.031780604
0.47674993 -0.071868345 0.031771988
0.47576526 -0.071626663 0.032144707
0.47534439 -0.072167046 0.032136105
0.47436169 -0.071922772 0.032508884
0.47394148 -0.072462298 0.032500297
0.4729608 -0.072215512 0.032873098
0.47254124 -0.072754189 0.032864522
0.47212172 -0.073292859 0.032855947
0.47114366 -0.073042683 0.0332288
0.47072479 -0.073580496 0.033220239
0.47030589 -0.074118324 0.033211678
0.46988702 -0.074656144 0.033203118
0.46946812 -0.075193971 0.033194553
0.46904922 -0.075731792 0.033185992
0.46863034 -0.076269619 0.033177432
0.46821144 -0.076807439 0.033168871
0.46723938 -0.076549597 0.033541847
0.46682116 -0.077086568 0.033533297
0.46640295 -0.077623546 0.033524752
0.4659847 -0.078160517 0.033516202
0.46556649 -0.078697488 0.033507656
0.46514824 -0.079234459 0.033499107
0.46473002 -0.079771429 0.033490561
0.46376327 -0.079506777 0.033863645
0.46334571 -0.080042891 0.03385511
0.46292815 -0.08057902 0.033846576
0.46196401 -0.080310918 0.034219734
0.46154711 -0.08084619 0.034211215
0.4611302 -0.08138147 0.034202695
0.4607133 -0.081916735 0.034194171
0.46029639 -0.082452007 0.034185652
0.45987949 -0.082987279 0.034177132
0.45946258 -0.083522543 0.034168612
0.45904568 -0.084057823 0.034160089
0.45862877 -0.084593095 0.034151569
0.4582119 -0.085128359 0.034143049
0.45779499 -0.085663632 0.03413453
0.45737809 -0.086198911 0.03412601
0.45696118 -0.086734176 0.034117486
0.45654428 -0.087269448 0.034108967
0.45612738 -0.087804712 0.034100447
0.45571047 -0.088339984 0.034091927
0.45529357 -0.088875264 0.034083404
0.45487666 -0.089410536 0.034074884
0.45445976 -0.089945801 0.034066364
0.45404285 -0.090481073 0.034057844
0.45362598 -0.091016337 0.034049325
0.45320904 -0.091551617 0.034040801
0.45279217 -0.092086889 0.034032281
0.45237526 -0.092622153 0.034023762
0.45195836 -0.093157426 0.034015242
0.45154145 -0.09369269 0.034006722
0.45112455 -0.09422797 0.033998199
0.45070764 -0.094763242 0.033989679
0.45029074 -0.095298514 0.033981159
0.44987383 -0.095833778 0.03397264
0.44945693 -0.09636905 0.033964116
0.44904003 -0.09690433 0.033955596
0.44862312 -0.097439595 0.033947077
0.44820625 -0.097974867 0.033938557
0.44778934 -0.098510131 0.033930037
0.44737244 -0.099045403 0.033921514
0.44695553 -0.099580683 0.033912994
0.44653863 -0.10011595 0.033904474
0.44612172 -0.10065122 0.033895954
0.44570482 -0.10118648 0.033887431
0.44528791 -0.10172176 0.033878911
0.44487101 -0.10225704 0.033870392
0.4444541 -0.10279231 0.033861872
0.4440372 -0.10332757 0.033853348
0.44362029 -0.10386284 0.033844829
0.44320342 -0.10439811 0.033836309
0.44278648 -0.10493339 0.033827789
0.44236961 -0.10546866 0.033819269
0.44195271 -0.10600393 0.033810746
0.4415358 -0.1065392 0.033802226
0.4411189 -0.10707446 0.033793706
0.44070199 -0.10760974 0.033785187
0.44028509 -0.10814501 0.033776663
0.43986818 -0.10868029 0.033768144
0.43945128 -0.10921555 0.033759624
0.43903437 -0.10975082 0.033751104
0.43912694 -0.11113797 0.033360131
0.43921813 -0.11252678 0.032969154
0.43879989 -0.11306375 0.032960605
0.43838167 -0.11360072 0.032952059
0.43796346 -0.1141377 0.03294351
0.43754521 -0.11467467 0.032934964
0.43763244 -0.11606858 0.032543901
0.43721354 -0.11660641 0.032535341
0.43679464 -0.11714424 0.03252678
0.43637577 -0.11768205 0.032518219
0.43595687 -0.11821989 0.032509658
0.43553796 -0.1187577 0.032501098
0.43511909 -0.11929554 0.032492537
0.43470019 -0.11983335 0.032483973
0.43428129 -0.12037119 0.032475412
0.43386242 -0.120909 0.032466851
0.43344352 -0.12144683 0.03245829
0.43302464 -0.12198465 0.03244973
0.43260574 -0.12252247 0.032441169
0.43169004 -0.12219229 0.032815296
0.43127179 -0.12272926 0.032806747
0.43085358 -0.12326623 0.032798201
0.43043536 -0.12380321 0.032789651
0.42952296 -0.12346876 0.033163846
0.42910537 -0.12400489 0.033155311
0.42868781 -0.12454102 0.033146776
0.42827025 -0.12507713 0.033138245
0.42785269 -0.12561326 0.033129711
0.42694423 -0.12527367 0.033504006
0.42652732 -0.12580895 0.033495486
0.42611042 -0.12634422 0.033486966
0.42520463 -0.12600128 0.033861294
0.42430019 -0.12565662 0.034235653
0.42437217 -0.12707013 0.033844281
0.42346904 -0.12672378 0.034218665
0.42305347 -0.12725733 0.034210172
0.42263788 -0.1277909 0.034201678
0.42173743 -0.12744115 0.034576118
0.53559554 -0.084712014 0.0091042388
0.53333515 -0.083098419 0.010239578
0.5310787 -0.081479728 0.011374997
0.52942485 -0.080592662 0.012128872
0.52837157 -0.080439739 0.012501183
0.52731961 -0.080285124 0.012873522
0.52567238 -0.079389505 0.013627554
0.52402776 -0.078490533 0.014381619
0.52179056 -0.076847158 0.015517432
0.51836807 -0.073715068 0.017416697
0.5161401 -0.072059788 0.018552698
0.5140667 -0.071711391 0.019297998
0.51184803 -0.07004419 0.020434191
0.50963342 -0.068371914 0.021570442
0.50860393 -0.068188347 0.021943264
0.50816584 -0.068750843 0.02193431
0.50654906 -0.067816123 0.022688942
0.50611228 -0.068376921 0.022680016
0.50508755 -0.068187408 0.02305291
0.50465143 -0.068747357 0.023043996
0.50362861 -0.068555258 0.023416953
0.50319314 -0.069114365 0.023408053
0.50217235 -0.068919733 0.023781028
0.50173753 -0.069477983 0.023772141
0.50130272 -0.070036232 0.023763256
0.50028461 -0.069838211 0.024136284
0.49985045 -0.070395611 0.024127413
0.49883431 -0.070195027 0.024500482
0.49781948 -0.069992751 0.024873579
0.49680594 -0.069788739 0.025246724
0.4963738 -0.070343576 0.025237894
0.49536228 -0.070137054 0.025611058
0.4943521 -0.06992881 0.02598425
0.49392125 -0.070481956 0.025975445
0.49291307 -0.070271164 0.026348678
0.49190617 -0.070058636 0.02672196
0.49090061 -0.069844447 0.027095247
0.49047178 -0.070395038 0.027086481
0.48946822 -0.070178285 0.02745981
0.48846596 -0.069959842 0.027833164
0.48803848 -0.070508733 0.027824426
0.48703822 -0.070287727 0.028197823
0.48661137 -0.070835769 0.028189098
0.48618454 -0.071383804 0.028180374
0.4851869 -0.071159363 0.028553845
0.48419064 -0.070933253 0.028927322
0.4837651 -0.071479589 0.028918626
0.48277083 -0.071250923 0.029292142
0.48177788 -0.071020573 0.029665686
0.48135367 -0.071565203 0.029657017
0.48036271 -0.071332291 0.030030603
0.47993919 -0.071876064 0.030021945
0.47895017 -0.071640566 0.030395593
0.47852731 -0.072183497 0.030386951
0.47754031 -0.071945481 0.030760616
0.4771181 -0.072487548 0.030751988
0.47613311 -0.072246976 0.031125695
0.47571155 -0.072788216 0.03111708
0.47472855 -0.072545081 0.031490829
0.47430766 -0.073085457 0.031482223
0.47332659 -0.072839752 0.031856034
0.47290638 -0.073379271 0.031847447
0.47248617 -0.073918797 0.031838857
0.47150779 -0.073669717 0.032212701
0.47108823 -0.074208386 0.032204125
0.47066867 -0.074747063 0.032195549
0.47024912 -0.07528574 0.032186978
0.46982959 -0.075824417 0.032178402
0.46941003 -0.076363094 0.032169826
0.46899047 -0.076901764 0.032161251
0.46857092 -0.077440441 0.032152679
0.46815136 -0.077979118 0.032144103
0.46717963 -0.077721521 0.032518081
0.46676072 -0.078259349 0.032509517
0.46634182 -0.078797169 0.032500956
0.46592295 -0.079334997 0.032492395
0.46550405 -0.079872817 0.032483835
0.46508515 -0.080410644 0.032475274
0.46411806 -0.080147095 0.032849345
0.46369982 -0.080684066 0.0328408
0.4632816 -0.081221037 0.03283225
0.46231714 -0.08095409 0.033206377
0.46189958 -0.081490204 0.033197843
0.46148202 -0.082026325 0.033189308
0.46106446 -0.082562454 0.033180777
0.4606469 -0.083098568 0.033172242
0.46022934 -0.083634697 0.033163708
0.45981175 -0.084170818 0.033155173
0.45939419 -0.084706932 0.033146638
0.45897663 -0.085243061 0.033138104
0.45855907 -0.08577919 0.033129569
0.45814151 -0.086315304 0.033121038
0.45772395 -0.086851425 0.033112504
0.45730639 -0.087387539 0.033103969
0.45688879 -0.087923668 0.033095434
0.45647123 -0.088459797 0.0330869
0.45605367 -0.088995911 0.033078365
0.45563611 -0.089532033 0.03306983
0.45521855 -0.090068161 0.033061296
0.45480099 -0.090604275 0.033052765
0.4543834 -0.091140404 0.03304423
0.45396584 -0.091676526 0.033035696
0.45354828 -0.09221264 0.033027161
0.45313072 -0.092748769 0.033018626
0.45271316 -0.093284883 0.033010092
0.4522956 -0.093821011 0.033001557
0.45187801 -0.094357133 0.032993026
0.45146045 -0.094893247 0.032984491
0.45104289 -0.095429376 0.032975957
0.45062533 -0.095965505 0.032967422
0.45020777 -0.096501619 0.032958888
0.44979021 -0.09703774 0.032950353
0.44937262 -0.097573869 0.032941818
0.44895506 -0.098109983 0.032933287
0.4485375 -0.098646112 0.032924753
0.44811994 -0.099182233 0.032916218
0.44770238 -0.099718347 0.032907683
0.44728482 -0.10025448 0.032899149
0.44686726 -0.10079059 0.032890614
0.44644967 -0.10132672 0.032882079
0.44603211 -0.10186284 0.032873549
0.44561455 -0.10239895 0.032865014
0.44519699 -0.10293508 0.032856479
0.44477943 -0.10347121 0.032847945
0.44436187 -0.10400733 0.03283941
0.44394428 -0.10454345 0.032830875
0.44352672 -0.10507958 0.032822341
0.44310915 -0.10561569 0.03281381
0.44269159 -0.10615182 0.032805275
0.44227403 -0.10668793 0.032796741
0.44185647 -0.10722405 0.032788206
0.44143888 -0.10776018 0.032779671
0.44102132 -0.1082963 0.032771137
0.44060376 -0.10883243 0.032762602
0.4401862 -0.10936855 0.032754071
0.43976864 -0.10990466 0.032745536
0.43986085 -0.11129151 0.032353584
0.43944263 -0.11182848 0.032345034
0.43953285 -0.1132179 0.031953041
0.43911394 -0.11375572 0.03194448
0.43869504 -0.11429355 0.031935919
0.43827617 -0.11483137 0.031927355
0.43785727 -0.11536919 0.031918794
0.4374384 -0.11590701 0.031910233
0.4370195 -0.11644484 0.031901672
0.4366006 -0.11698267 0.031893112
0.43618172 -0.11752049 0.031884551
0.43576282 -0.11805832 0.03187599
0.43534392 -0.11859614 0.03186743
0.43492502 -0.11913396 0.031858865
0.43450615 -0.11967178 0.031850304
0.43408725 -0.12020961 0.031841744
0.43366838 -0.12074743 0.031833183
0.43324947 -0.12128526 0.031824622
0.43283057 -0.12182308 0.031816062
0.4324117 -0.12236091 0.031807501
0.43149629 -0.12203098 0.03218263
0.43107805 -0.12256795 0.032174081
0.43065983 -0.12310492 0.032165535
0.43024161 -0.12364189 0.032156985
0.42982337 -0.12417886 0.032148439
0.42891195 -0.12384383 0.032523647
0.42849436 -0.12437996 0.032515116
0.4280768 -0.12491608 0.032506581
0.42765924 -0.12545221 0.032498047
0.42675111 -0.12511288 0.032873347
0.42633417 -0.12564816 0.032864824
0.42542806 -0.12530631 0.033240143
0.42501181 -0.12584074 0.033231638
0.42459556 -0.12637515 0.03322313
0.42417935 -0.12690958 0.033214625
0.42327651 -0.12656349 0.033590011
0.42286095 -0.12709704 0.033581518
0.42244539 -0.12763062 0.033573024
0.42154521 -0.12728111 0.033948462
0.42064634 -0.12692988 0.034323953
0.41974881 -0.12657697 0.034699447
0.54065031 -0.089807257 0.0053563751
0.53718299 -0.086736009 0.0072597056
0.53672034 -0.087330006 0.0072502503
0.53505981 -0.086452812 0.0080059813
0.53220534 -0.084099293 0.0095270015
0.53174669 -0.084688164 0.0095176278
0.53009415 -0.083800763 0.010273523
0.52844417 -0.082909919 0.011029492
0.52620125 -0.081275858 0.012168154
0.52455723 -0.080377355 0.012924247
0.52113301 -0.077250794 0.014828457
0.51890266 -0.075600542 0.015967401
0.5160833 -0.073201917 0.017489139
0.51341885 -0.072109073 0.018619187
0.51238513 -0.071931742 0.018992893
0.50899136 -0.068766035 0.020897727
0.50855261 -0.069329396 0.020888759
0.50693578 -0.06839601 0.021645406
0.50649828 -0.068957664 0.021636466
0.5054732 -0.068769246 0.022010349
0.50503641 -0.069330059 0.022001421
0.50401324 -0.069139093 0.022375345
0.50357711 -0.069699042 0.022366432
0.50314099 -0.070258997 0.022357518
0.50270486 -0.070818946 0.022348605
0.50168502 -0.070623696 0.022722619
0.50124955 -0.071182787 0.022713719
0.50023174 -0.070985027 0.023087751
0.49921522 -0.070785552 0.023461809
0.49820003 -0.070584379 0.023835896
0.49718618 -0.070381515 0.02421001
0.49675336 -0.070937201 0.024201164
0.49574146 -0.070731737 0.02457534
0.49473092 -0.070524611 0.024949521
0.49429941 -0.071078606 0.024940703
0.49329087 -0.070868924 0.025314923
0.49228364 -0.070657544 0.025689173
0.49127769 -0.07044442 0.02606347
0.49084821 -0.07099586 0.026054693
0.48984429 -0.070780218 0.026429009
0.48884168 -0.070562884 0.026803352
0.48841351 -0.071112625 0.026794601
0.48741293 -0.070892721 0.027168985
0.48698542 -0.071441606 0.02716025
0.4865579 -0.07199049 0.027151512
0.48555997 -0.071767196 0.02752595
0.48456329 -0.071542166 0.027900437
0.48413709 -0.072089359 0.027891727
0.48314247 -0.071861796 0.028266234
0.48271695 -0.072408132 0.028257538
0.48172429 -0.072178021 0.028632084
0.48073298 -0.071946226 0.029006658
0.4803088 -0.072490856 0.028997988
0.47931945 -0.072256491 0.029372603
0.47889593 -0.072800264 0.029363947
0.47790855 -0.07256332 0.029738624
0.47748569 -0.073106252 0.029729981
0.4765003 -0.07286679 0.030104676
0.47607809 -0.073408872 0.030096048
0.47509474 -0.073166847 0.030470785
0.47467321 -0.073708072 0.030462168
0.47369182 -0.0734635 0.030836945
0.47327092 -0.074003883 0.030828344
0.47285005 -0.074544258 0.030819742
0.47187129 -0.074296251 0.031194596
0.47145107 -0.07483577 0.031186007
0.47103086 -0.075375304 0.031177418
0.47061065 -0.075914823 0.031168832
0.47019044 -0.076454341 0.031160243
0.46977019 -0.076993875 0.031151654
0.46934998 -0.077533402 0.031143066
0.46892977 -0.078072935 0.031134477
0.46850955 -0.078612454 0.03112589
0.46753746 -0.078355968 0.031500857
0.46711791 -0.078894645 0.031492282
0.46669835 -0.079433322 0.031483706
0.46627879 -0.079971999 0.03147513
0.46585923 -0.080510668 0.031466559
0.46543968 -0.081049338 0.031457983
0.46447223 -0.080786899 0.031833045
0.46405333 -0.081324726 0.031824484
0.46363443 -0.081862547 0.03181592
0.46266964 -0.081596695 0.032191038
0.46225139 -0.082133666 0.032182489
0.46183318 -0.082670636 0.032173943
0.46141496 -0.083207615 0.032165393
0.46099672 -0.083744593 0.032156847
0.4605785 -0.084281564 0.032148298
0.46016026 -0.084818542 0.032139752
0.45974204 -0.085355513 0.032131203
0.45932382 -0.085892484 0.032122657
0.45890558 -0.086429454 0.032114107
0.45848736 -0.086966425 0.032105561
0.45806912 -0.087503396 0.032097012
0.4576509 -0.088040374 0.032088466
0.45723268 -0.088577345 0.032079916
0.45681444 -0.089114316 0.032071371
0.45639622 -0.089651287 0.032062821
0.45597801 -0.090188257 0.032054275
0.45555976 -0.090725243 0.032045726
0.45514151 -0.091262214 0.03203718
0.4547233 -0.091799185 0.03202863
0.45430508 -0.092336163 0.032020085
0.45388684 -0.092873134 0.032011535
0.45346862 -0.093410105 0.032002989
0.4530504 -0.093947075 0.03199444
0.45263216 -0.094484046 0.031985894
0.45221394 -0.095021017 0.031977344
0.4517957 -0.095557988 0.031968798
0.45137748 -0.096094966 0.031960249
0.45095927 -0.096631937 0.031951703
0.45054102 -0.097168908 0.031943154
0.4501228 -0.097705893 0.031934608
0.44970456 -0.098242864 0.031926058
0.44928634 -0.098779835 0.031917512
0.44886813 -0.099316806 0.031908963
0.44844988 -0.099853776 0.031900417
0.44803166 -0.10039075 0.031891868
0.44761342 -0.10092773 0.031883322
0.4471952 -0.1014647 0.031874772
0.44677699 -0.10200167 0.031866226
0.44635874 -0.10253864 0.031857677
0.44594052 -0.10307561 0.031849131
0.44552231 -0.10361259 0.031840581
0.44510406 -0.10414956 0.031832036
0.44468585 -0.10468654 0.031823486
0.4442676 -0.10522351 0.03181494
0.44384938 -0.10576048 0.031806391
0.44343114 -0.10629746 0.031797845
0.44301292 -0.10683443 0.031789295
0.44259471 -0.1073714 0.03178075
0.44217646 -0.10790837 0.0317722
0.44175825 -0.10844535 0.031763654
0.44134003 -0.10898232 0.031755108
0.44092178 -0.10951929 0.031746559
0.44050357 -0.11005626 0.031738013
0.44008532 -0.11059323 0.031729463
0.44017658 -0.11198068 0.031336494
0.43975767 -0.1125185 0.031327933
0.43933877 -0.11305633 0.031319372
0.4389199 -0.11359415 0.031310812
0.438501 -0.11413198 0.031302251
0.43808213 -0.1146698 0.031293686
0.43766323 -0.11520763 0.031285126
0.43724433 -0.11574545 0.031276565
0.43682545 -0.11628328 0.031268004
0.43640655 -0.1168211 0.031259444
0.43598765 -0.11735892 0.031250883
0.43556878 -0.11789675 0.03124232
0.43514988 -0.11843457 0.03123376
0.43473098 -0.1189724 0.031225199
0.43431211 -0.11951022 0.031216636
0.4338932 -0.12004805 0.031208076
0.43347433 -0.12058587 0.031199515
0.43305543 -0.12112369 0.031190954
0.43263653 -0.12166151 0.031182392
0.43221763 -0.12219934 0.031173831
0.43130255 -0.12186967 0.031549964
0.43088433 -0.12240664 0.031541415
0.43046609 -0.12294361 0.031532869
0.43004787 -0.12348058 0.031524319
0.42913607 -0.12314665 0.031900518
0.42871851 -0.12368278 0.031891987
0.42830095 -0.12421891 0.031883452
0.42788339 -0.12475502 0.031874917
0.42746583 -0.12529115 0.031866383
0.42655796 -0.12495208 0.032242686
0.42614105 -0.12548736 0.032234166
0.42572415 -0.12602262 0.032225642
0.42481899 -0.12568019 0.032601979
0.42440274 -0.12621461 0.032593474
0.42349958 -0.12586962 0.032969847
0.42308402 -0.1264032 0.032961354
0.42266843 -0.12693675 0.03295286
0.42225286 -0.12747033 0.032944366
0.42135301 -0.12712108 0.033320811
0.42045441 -0.12677011 0.033697303
0.42004019 -0.12730196 0.033688836
0.41962594 -0.12783383 0.033680372
0.53936857 -0.089492142 0.0050255647
0.53770465 -0.088620566 0.0057832203
0.53544474 -0.087010212 0.0069245477
0.53438479 -0.086867161 0.0072987154
0.53392351 -0.087459445 0.0072892876
0.53226882 -0.086575925 0.0080471542
0.53002089 -0.084950283 0.0091887033
0.5277769 -0.083319515 0.010330355
0.52553689 -0.081683666 0.011472067
0.52270687 -0.07930138 0.012997572
0.51928878 -0.076170161 0.014906892
0.51647002 -0.073773406 0.016432628
0.51262242 -0.071193613 0.018333169
0.51158959 -0.071015641 0.018707912
0.50996816 -0.070089601 0.019466436
0.50893867 -0.069907397 0.019841226
0.50732177 -0.068975382 0.020599864
0.50688368 -0.069537885 0.020590911
0.50585824 -0.069350585 0.020965783
0.50542074 -0.06991224 0.020956842
0.50498331 -0.070473894 0.020947902
0.50454587 -0.071035549 0.020938961
0.50410843 -0.071597189 0.020930022
0.50308692 -0.071404792 0.021304974
0.50265014 -0.071965583 0.021296047
0.50221336 -0.07252638 0.021287121
0.50119448 -0.072330579 0.021662127
0.50017691 -0.072133034 0.022037184
0.49916071 -0.071933813 0.022412246
0.49814585 -0.071732901 0.022787336
0.49713227 -0.07153029 0.023162451
0.49612007 -0.071325965 0.023537593
0.49510911 -0.071119897 0.023912786
0.49467698 -0.071674757 0.023903953
0.49366805 -0.071466178 0.024279164
0.49266046 -0.071255893 0.024654403
0.49165422 -0.071043923 0.025029669
0.49122405 -0.071596213 0.025020877
0.49021974 -0.071381643 0.025396204
0.4892168 -0.071165405 0.025771536
0.48878795 -0.071715996 0.025762772
0.48778701 -0.071497209 0.026138145
0.48735884 -0.07204695 0.026129395
0.48693067 -0.072596684 0.026120644
0.48593235 -0.0723745 0.026496071
0.48493537 -0.072150603 0.026871527
0.48450854 -0.072698638 0.026862802
0.4835135 -0.072472163 0.027238319
0.48308733 -0.073019341 0.027229609
0.48209432 -0.072790347 0.027605144
0.4816688 -0.073336683 0.027596448
0.48067778 -0.073105119 0.027972026
0.47968808 -0.072871871 0.028347628
0.4792639 -0.073416509 0.028338959
0.47827619 -0.073180698 0.028714603
0.47785267 -0.073724478 0.028705947
0.4768669 -0.07348609 0.029081654
0.47644404 -0.074029014 0.029073011
0.47546032 -0.073788099 0.029448736
0.47503811 -0.074330181 0.029440109
0.47405639 -0.074086711 0.029815875
0.47363484 -0.074627943 0.029807258
0.47321329 -0.075169168 0.029798644
0.47223419 -0.074922301 0.030174464
0.47181332 -0.075462669 0.030165862
0.47139245 -0.076003052 0.030157261
0.47097158 -0.076543428 0.030148659
0.47055069 -0.077083811 0.030140057
0.47012982 -0.077624187 0.030131456
0.46970895 -0.078164555 0.030122854
0.46928805 -0.078704931 0.03011425
0.46886718 -0.079245314 0.030105649
0.46789467 -0.078989893 0.030481627
0.46747446 -0.079529427 0.030473039
0.46705425 -0.080068953 0.03046445
0.46663404 -0.080608472 0.030455863
0.46621382 -0.081148006 0.030447274
0.46579361 -0.081687525 0.030438686
0.46482578 -0.081426188 0.030814737
0.46440622 -0.081964865 0.030806161
0.46398667 -0.082503542 0.030797588
0.46302152 -0.082238808 0.031173691
0.46260262 -0.082776621 0.03116513
0.46218371 -0.083314456 0.031156568
0.46176484 -0.083852269 0.031148007
0.46134594 -0.084390096 0.031139446
0.46092704 -0.084927917 0.031130886
0.46050817 -0.085465744 0.031122323
0.46008927 -0.086003564 0.031113762
0.45967036 -0.086541392 0.031105202
0.45925149 -0.087079212 0.031096641
0.45883259 -0.08761704 0.031088078
0.45841372 -0.08815486 0.031079518
0.45799482 -0.088692687 0.031070957
0.45757592 -0.089230508 0.031062396
0.45715705 -0.089768335 0.031053834
0.45673814 -0.090306155 0.031045273
0.45631924 -0.090843983 0.031036712
0.45590037 -0.091381803 0.031028152
0.45548147 -0.091919631 0.031019589
0.4550626 -0.092457451 0.031011028
0.4546437 -0.092995279 0.031002467
0.4542248 -0.093533106 0.030993905
0.45380592 -0.094070926 0.030985344
0.45338702 -0.094608754 0.030976783
0.45296812 -0.095146574 0.030968223
0.45254925 -0.095684402 0.03095966
0.45213035 -0.096222222 0.030951099
0.45171145 -0.096760049 0.030942539
0.45129257 -0.09729787 0.030933978
0.45087367 -0.097835697 0.030925415
0.45045477 -0.098373517 0.030916855
0.4500359 -0.098911345 0.030908294
0.449617 -0.099449165 0.030899733
0.4491981 -0.099986993 0.030891171
0.44877923 -0.10052481 0.03088261
0.44836032 -0.10106264 0.030874049
0.44794145 -0.10160046 0.030865489
0.44752255 -0.10213829 0.030856926
0.44710365 -0.10267611 0.030848365
0.44668478 -0.10321394 0.030839805
0.44626588 -0.10375176 0.030831242
0.44584697 -0.10428958 0.030822681
0.4454281 -0.1048274 0.030814121
0.4450092 -0.10536523 0.03080556
0.44459033 -0.10590305 0.030796997
0.44417143 -0.10644088 0.030788437
0.44375253 -0.1069787 0.030779876
0.44333366 -0.10751653 0.030771315
0.44291475 -0.10805435 0.030762753
0.44249585 -0.10859217 0.030754192
0.44207698 -0.10913 0.030745631
0.44165808 -0.10966782 0.03073707
0.44123921 -0.11020564 0.030728508
0.44082031 -0.11074347 0.030719947
0.44040141 -0.11128129 0.030711386
0.44049168 -0.11266933 0.030317402
0.43956363 -0.11235694 0.030694263
0.43914473 -0.11289477 0.030685702
0.43872586 -0.11343258 0.030677142
0.43830696 -0.11397041 0.030668579
0.43788806 -0.11450823 0.030660018
0.43746918 -0.11504606 0.030651458
0.43705028 -0.11558387 0.030642897
0.43663138 -0.11612171 0.030634334
0.43621251 -0.11665954 0.030625774
0.43579361 -0.11719736 0.030617213
0.43537471 -0.11773518 0.030608652
0.43495584 -0.118273 0.03060009
0.43453693 -0.11881083 0.030591529
0.43411806 -0.11934865 0.030582968
0.43369916 -0.11988648 0.030574407
0.43328026 -0.1204243 0.030565845
0.43286139 -0.12096213 0.030557284
0.43244249 -0.12149995 0.030548723
0.43202358 -0.12203778 0.030540161
0.4311088 -0.12170836 0.030917296
0.43069059 -0.12224533 0.030908749
0.43027234 -0.1227823 0.030900201
0.42985412 -0.12331927 0.030891653
0.42943591 -0.12385625 0.030883105
0.42901766 -0.12439322 0.030874558
0.4281075 -0.12405785 0.031251788
0.42768994 -0.12459397 0.031243253
0.42727238 -0.12513009 0.031234719
0.42636484 -0.12479127 0.031612024
0.42594793 -0.12532656 0.031603504
0.42504242 -0.12498523 0.031980827
0.42462617 -0.12551965 0.031972323
0.42420992 -0.12605406 0.031963814
0.42330706 -0.12570933 0.032341193
0.4228915 -0.12624291 0.0323327
0.42199063 -0.1258956 0.032710116
0.42206034 -0.12731004 0.032315712
0.42067677 -0.12607847 0.033079118
0.41977921 -0.12572691 0.033456605
0.41984829 -0.12714219 0.033062186
0.53656185 -0.089632995 0.0050624073
0.53490382 -0.088755086 0.005822198
0.53384483 -0.088611446 0.0061973818
0.53040445 -0.085512124 0.0081112264
0.52816069 -0.083882965 0.009255873
0.52651531 -0.082988925 0.010015899
0.52427882 -0.081350401 0.011160694
0.52086031 -0.078223005 0.013074986
0.51300865 -0.071767539 0.017279658
0.51138514 -0.07084538 0.018040154
0.51035398 -0.070665993 0.018415907
0.50932419 -0.070484906 0.018791687
0.5077073 -0.069554269 0.019552296
0.50726849 -0.07011763 0.019543329
0.50624263 -0.069931418 0.019919211
0.50580454 -0.070493914 0.019910257
0.50536638 -0.071056418 0.019901302
0.50492829 -0.071618915 0.019892348
0.5044902 -0.072181419 0.019883394
0.50405204 -0.072743922 0.019874441
0.5030309 -0.072551772 0.020250397
0.5025934 -0.073113427 0.020241456
0.50157422 -0.072918721 0.020617453
0.50055635 -0.072722316 0.020993477
0.49953973 -0.072524168 0.021369549
0.49852449 -0.072324358 0.021745628
0.4980897 -0.072882608 0.021736741
0.49707645 -0.072680242 0.022112859
0.49606454 -0.072476186 0.022489006
0.49505395 -0.072270416 0.022865178
0.49404463 -0.072062917 0.023241401
0.49303669 -0.071853749 0.023617627
0.49203008 -0.071642876 0.023993881
0.49159926 -0.072196014 0.023985077
0.49059463 -0.071982592 0.024361372
0.4895913 -0.07176742 0.024737716
0.48916179 -0.072318867 0.024728937
0.48816049 -0.072101183 0.025105299
0.48773164 -0.072651766 0.025096536
0.48730281 -0.073202357 0.02508777
0.48630413 -0.072981276 0.025464186
0.4853068 -0.072758496 0.025840631
0.48487931 -0.07330738 0.025831893
0.4844518 -0.073856264 0.025823157
0.48345712 -0.073630072 0.026199654
0.48246372 -0.073402144 0.026576201
0.48203751 -0.073949337 0.026567491
0.48104614 -0.073718891 0.026944056
0.48005611 -0.073486745 0.027320649
0.47963125 -0.074032225 0.027311966
0.47864321 -0.073797524 0.027688598
0.478219 -0.074342154 0.02767993
0.47723293 -0.074104898 0.028056603
0.47680941 -0.074648686 0.028047947
0.47582528 -0.074408844 0.028424684
0.47540241 -0.074951768 0.028416041
0.47442031 -0.074709415 0.028792797
0.47399813 -0.075251482 0.028784167
0.47357592 -0.075793564 0.028775539
0.47259647 -0.075547807 0.029152349
0.47217494 -0.076089032 0.029143734
0.47175339 -0.076630265 0.029135117
0.47133183 -0.07717149 0.029126503
0.47091031 -0.077712715 0.029117886
0.47048876 -0.07825394 0.029109271
0.47006723 -0.07879518 0.029100657
0.46964568 -0.079336405 0.02909204
0.46922415 -0.07987763 0.029083425
0.46825132 -0.079623356 0.029460371
0.46783045 -0.08016374 0.029451769
0.46740955 -0.080704115 0.029443167
0.46698868 -0.081244484 0.029434565
0.46656781 -0.081784859 0.029425964
0.46614695 -0.082325242 0.029417362
0.4651787 -0.082064979 0.029794423
0.46475849 -0.082604505 0.029785834
0.46433827 -0.083144024 0.029777247
0.46337277 -0.082880393 0.03015434
0.46295321 -0.08341907 0.030145766
0.46253365 -0.083957739 0.030137191
0.4621141 -0.084496416 0.030128617
0.46169454 -0.085035093 0.030120041
0.46127498 -0.08557377 0.030111467
0.46085545 -0.086112447 0.030102892
0.4604359 -0.086651117 0.030094318
0.46001634 -0.087189794 0.030085742
0.45959678 -0.087728471 0.030077167
0.45917723 -0.088267148 0.030068593
0.45875767 -0.088805825 0.030060017
0.45833811 -0.089344494 0.030051444
0.45791855 -0.089883171 0.030042868
0.457499 -0.090421848 0.030034294
0.45707947 -0.09096051 0.030025719
0.45665991 -0.091499187 0.030017145
0.45624036 -0.092037864 0.030008569
0.4558208 -0.092576541 0.029999996
0.45540124 -0.093115211 0.02999142
0.45498168 -0.093653888 0.029982846
0.45456213 -0.094192564 0.029974271
0.4541426 -0.094731241 0.029965697
0.45372304 -0.095269918 0.029957121
0.45330349 -0.095808588 0.029948546
0.45288393 -0.096347265 0.029939972
0.45246437 -0.096885942 0.029931396
0.45204481 -0.097424619 0.029922822
0.45162526 -0.097963296 0.029914247
0.4512057 -0.098501965 0.029905673
0.45078614 -0.099040642 0.029897097
0.45036659 -0.099579319 0.029888524
0.44994706 -0.100118 0.029879948
0.4495275 -0.10065667 0.029871374
0.44910794 -0.10119534 0.029862799
0.44868839 -0.10173401 0.029854225
0.44826883 -0.10227268 0.029845649
0.44784927 -0.10281136 0.029837076
0.44742975 -0.10335004 0.0298285
0.44701019 -0.10388871 0.029819924
0.44659063 -0.10442739 0.029811351
0.44617108 -0.10496606 0.029802775
0.44575152 -0.10550474 0.029794201
0.44533196 -0.10604341 0.029785626
0.4449124 -0.10658209 0.029777052
0.44449285 -0.10712077 0.029768476
0.44407329 -0.10765944 0.029759903
0.44365376 -0.10819811 0.029751327
0.44323421 -0.10873679 0.029742753
0.44281465 -0.10927547 0.029734178
0.44239509 -0.10981414 0.029725604
0.44197553 -0.11035281 0.029717028
0.44155598 -0.11089149 0.029708453
0.44113642 -0.11143016 0.029699879
0.44071689 -0.11196883 0.029691303
0.44029734 -0.11250751 0.029682729
0.43987778 -0.11304618 0.029674154
0.43945822 -0.11358486 0.02966558
0.43903866 -0.11412354 0.029657004
0.43861911 -0.11466221 0.029648431
0.43819955 -0.11520088 0.029639855
0.43777999 -0.11573956 0.029631281
0.43736044 -0.11627824 0.029622706
0.43694091 -0.11681692 0.029614132
0.43652135 -0.11735559 0.029605556
0.43610179 -0.11789426 0.029596981
0.43568224 -0.11843294 0.029588407
0.43526268 -0.11897162 0.029579831
0.43434289 -0.11864927 0.029957861
0.43392399 -0.11918708 0.0299493
0.43350512 -0.11972491 0.029940737
0.43308622 -0.12026273 0.029932177
0.43266732 -0.12080056 0.029923616
0.43224844 -0.12133837 0.029915055
0.43182954 -0.12187621 0.029906493
0.43091506 -0.12154704 0.03028463
0.43049684 -0.12208401 0.030276082
0.4300786 -0.12262098 0.030267535
0.42966038 -0.12315796 0.030258987
0.42924216 -0.12369493 0.030250439
0.42882392 -0.1242319 0.030241892
0.42791408 -0.12389679 0.030620124
0.42749652 -0.12443291 0.03061159
0.42707893 -0.12496904 0.030603055
0.42617172 -0.12463047 0.030981364
0.42575482 -0.12516576 0.030972842
0.42533791 -0.12570103 0.030964322
0.42443335 -0.1253591 0.031342663
0.4240171 -0.12589352 0.031334154
0.42311457 -0.12554905 0.031712536
0.42269897 -0.12608261 0.031704042
0.42228341 -0.12661617 0.031695548
0.53138268 -0.086811684 0.0066460879
0.52913857 -0.085185029 0.0077936929
0.52571034 -0.082073368 0.0097127669
0.52406883 -0.081175543 0.010474889
0.52183729 -0.07953272 0.011622752
0.5202018 -0.078627244 0.012384995
0.51738614 -0.076231688 0.013918766
0.5133943 -0.072340958 0.016224146
0.51014978 -0.070495993 0.017749151
0.50970906 -0.071061902 0.017740143
0.50809211 -0.070132621 0.018502744
0.5076527 -0.070696823 0.018493762
0.50662649 -0.070511736 0.018870613
0.50618774 -0.071075097 0.018861644
0.50574893 -0.07163845 0.018852677
0.5058949 -0.072953649 0.018457837
0.50487137 -0.072765157 0.018834742
0.50443262 -0.073328502 0.018825775
0.50399381 -0.073891863 0.018816806
0.5029729 -0.073699951 0.019193787
0.50253475 -0.074262455 0.019184833
0.50151587 -0.074068002 0.019561833
0.50049829 -0.073871844 0.01993886
0.49948204 -0.073674001 0.020315912
0.49846709 -0.073474407 0.020693015
0.49745348 -0.073273152 0.021070123
0.49644122 -0.073070198 0.021447258
0.49543026 -0.072865538 0.021824419
0.49442065 -0.072659172 0.022201609
0.49341229 -0.072451077 0.022578847
0.49240533 -0.072241306 0.02295609
0.49197385 -0.072795302 0.022947272
0.49096885 -0.072582982 0.023324555
0.4899652 -0.072368957 0.023701865
0.48953503 -0.072921246 0.023693074
0.48853335 -0.072704643 0.024070449
0.48810384 -0.07325609 0.024061671
0.48767436 -0.073807523 0.024052892
0.48667532 -0.073587544 0.024430297
0.4862465 -0.074138135 0.024421534
0.48524946 -0.073915601 0.02479898
0.48482129 -0.074465342 0.024790229
0.48382625 -0.074240252 0.025167715
0.48339874 -0.074789152 0.025158977
0.48240569 -0.074561514 0.025536506
0.48141393 -0.074332133 0.025914082
0.48042351 -0.07410109 0.026291665
0.47999799 -0.074647427 0.026282968
0.4790096 -0.074413843 0.02666059
0.47858474 -0.074959323 0.026651906
0.47759831 -0.074723177 0.02702957
0.4771741 -0.075267807 0.027020901
0.47618967 -0.075029105 0.027398605
0.47576615 -0.075572886 0.027389949
0.47478366 -0.075331599 0.027767716
0.47436079 -0.07587453 0.027759073
0.47393793 -0.076417454 0.027750431
0.47295812 -0.076172806 0.028128229
0.47253591 -0.076714888 0.028119599
0.47211373 -0.077256955 0.02811097
0.47169152 -0.077799037 0.028102342
0.47126931 -0.078341126 0.028093712
0.4708471 -0.078883193 0.028085085
0.47042489 -0.079425275 0.028076455
0.47000268 -0.079967357 0.028067825
0.4695805 -0.080509432 0.028059198
0.46860734 -0.080256261 0.02843713
0.46818578 -0.080797501 0.028428515
0.46776423 -0.081338726 0.028419901
0.4673427 -0.081879951 0.028411284
0.46692115 -0.082421169 0.028402669
0.4664996 -0.082962409 0.028394055
0.46553108 -0.082703285 0.028772084
0.46511021 -0.083243661 0.02876348
0.46468934 -0.083784029 0.028754879
0.46372339 -0.083521478 0.029132983
0.46330318 -0.084060997 0.029124396
0.46288297 -0.084600531 0.029115807
0.46246275 -0.085140057 0.029107219
0.46204254 -0.085679576 0.02909863
0.46162233 -0.08621911 0.029090041
0.46120211 -0.086758628 0.029081455
0.4607819 -0.087298147 0.029072866
0.46036166 -0.087837681 0.029064277
0.45994145 -0.088377208 0.029055689
0.45952123 -0.088916741 0.0290471
0.45910102 -0.08945626 0.029038511
0.45868081 -0.089995779 0.029029924
0.4582606 -0.090535313 0.029021336
0.45784038 -0.091074839 0.029012747
0.45742017 -0.091614366 0.029004158
0.45699996 -0.092153892 0.02899557
0.45657974 -0.092693411 0.028986983
0.4561595 -0.093232945 0.028978394
0.45573929 -0.093772464 0.028969806
0.45531908 -0.09431199 0.028961217
0.45489886 -0.094851524 0.028952628
0.45447865 -0.095391043 0.028944042
0.45405844 -0.095930576 0.028935453
0.45363823 -0.096470095 0.028926864
0.45321801 -0.097009614 0.028918276
0.45279777 -0.097549148 0.028909687
0.45237756 -0.098088674 0.0289011
0.45195735 -0.098628193 0.028892512
0.45153713 -0.099167727 0.028883923
0.45111692 -0.099707246 0.028875334
0.45069671 -0.10024678 0.028866746
0.45027649 -0.10078631 0.028858159
0.44985628 -0.10132582 0.02884957
0.44943604 -0.10186536 0.028840981
0.44901583 -0.10240488 0.028832393
0.44859561 -0.10294441 0.028823804
0.4481754 -0.10348393 0.028815215
0.44775519 -0.10402346 0.028806629
0.44733498 -0.10456299 0.02879804
0.44691476 -0.10510251 0.028789451
0.44649455 -0.10564203 0.028780863
0.44607431 -0.10618156 0.028772274
0.44565409 -0.10672108 0.028763687
0.44523388 -0.10726061 0.028755099
0.44481367 -0.10780014 0.02874651
0.44439346 -0.10833966 0.028737921
0.44397324 -0.10887919 0.028729333
0.44355303 -0.10941871 0.028720746
0.44313282 -0.10995825 0.028712157
0.4427126 -0.11049777 0.028703569
0.44229239 -0.11103729 0.02869498
0.44187215 -0.11157683 0.028686391
0.44145194 -0.11211634 0.028677804
0.44103172 -0.11265586 0.028669216
0.44061151 -0.1131954 0.028660627
0.4401913 -0.11373492 0.028652038
0.43977109 -0.11427446 0.02864345
0.43935087 -0.11481398 0.028634861
0.43893066 -0.11535349 0.028626274
0.43851042 -0.11589303 0.028617686
0.43809021 -0.11643255 0.028609097
0.43766999 -0.11697208 0.028600508
0.43724978 -0.11751161 0.02859192
0.43632698 -0.11719377 0.028970884
0.43590742 -0.11773244 0.02896231
0.43548787 -0.11827111 0.028953735
0.43506831 -0.11880979 0.028945161
0.43464878 -0.11934847 0.028936585
0.43422922 -0.11988714 0.028928012
0.43380967 -0.12042582 0.028919436
0.43339011 -0.12096449 0.02891086
0.43297055 -0.12150316 0.028902287
0.4320544 -0.12117681 0.029281385
0.43213144 -0.12258051 0.028885137
0.43072131 -0.12138573 0.029651964
0.4303031 -0.1219227 0.029643416
0.42988488 -0.12245967 0.029634869
0.42946663 -0.12299665 0.029626321
0.42904842 -0.12353362 0.029617773
0.42863017 -0.12407059 0.029609226
0.42772064 -0.12373574 0.02998846
0.42730308 -0.12427185 0.029979927
0.42688552 -0.12480798 0.029971393
0.42597857 -0.12446968 0.030350702
0.42556167 -0.12500496 0.030342182
0.42514476 -0.12554023 0.030333661
0.4237532 -0.12432161 0.031100867
0.42285097 -0.12397739 0.031480253
0.42292204 -0.12538876 0.03108388
0.42250645 -0.12592232 0.031075386
0.53176475 -0.087372266 0.0055635758
0.52952081 -0.08574719 0.0067141983
0.52787471 -0.084856734 0.0074781943
0.52504498 -0.082481772 0.0090156626
0.5239979 -0.082324177 0.0093930829
0.52236032 -0.081422605 0.010157277
0.51436973 -0.073657796 0.014779873
0.5105347 -0.071071617 0.016695615
0.50950485 -0.070891894 0.017073387
0.50788856 -0.069963127 0.017837992
0.5080362 -0.071275517 0.017442191
0.50700969 -0.071091533 0.01782003
0.50657022 -0.071655743 0.017811049
0.50613081 -0.072219953 0.017802067
0.50627583 -0.073535748 0.017406212
0.50583571 -0.074100792 0.017397217
0.50481248 -0.073912568 0.017775124
0.50437301 -0.074476771 0.017766144
0.50393361 -0.075040974 0.017757162
0.502913 -0.07484933 0.018135125
0.5018937 -0.074655972 0.018513134
0.50087577 -0.074460931 0.01889115
0.49985918 -0.074264184 0.019269193
0.49884388 -0.074065737 0.019647261
0.49782988 -0.073865555 0.02002538
0.49681726 -0.073663697 0.020403504
0.49580598 -0.073460139 0.020781657
0.49479598 -0.073254891 0.021159833
0.49378732 -0.073047936 0.02153804
0.49277997 -0.072839238 0.021916293
0.49234781 -0.07339409 0.02190746
0.49134248 -0.073182873 0.022285733
0.49033847 -0.072969958 0.022664033
0.48990765 -0.073523097 0.022655228
0.48890561 -0.073307626 0.023033569
0.48847547 -0.073859915 0.023024779
0.48804531 -0.074412212 0.023015987
0.48704588 -0.074193314 0.023394404
0.4866164 -0.074744746 0.023385625
0.48618689 -0.075296193 0.023376849
0.48519015 -0.07507392 0.023755295
0.48419479 -0.074849926 0.024133774
0.48376662 -0.075399674 0.024125021
0.48277318 -0.075173147 0.024503538
0.48178113 -0.074944906 0.024882082
0.48135427 -0.075492941 0.024873359
0.48036414 -0.075262129 0.025251964
0.47937536 -0.075029634 0.025630577
0.47894984 -0.07557597 0.02562188
0.47796306 -0.075340927 0.026000531
0.4775382 -0.075886421 0.025991848
0.47655341 -0.075648829 0.026370542
0.47612923 -0.076193459 0.026361872
0.47514641 -0.075953305 0.026740605
0.47472289 -0.076497093 0.026731949
0.47429937 -0.077040873 0.026723294
0.47331917 -0.076797284 0.027102103
0.47289631 -0.077340223 0.027093461
0.47247341 -0.077883147 0.027084818
0.47205055 -0.078426078 0.027076175
0.47162768 -0.078969009 0.027067533
0.47120482 -0.079511933 0.02705889
0.47078195 -0.080054864 0.027050247
0.47035909 -0.080597796 0.027041605
0.46993622 -0.081140719 0.027032964
0.4689627 -0.080888666 0.027411887
0.46854049 -0.081430748 0.027403258
0.46811831 -0.081972823 0.027394628
0.4676961 -0.082514904 0.027386
0.46727389 -0.083056986 0.027377371
0.46685168 -0.083599053 0.027368741
0.46588281 -0.083341047 0.02774776
0.46546125 -0.083882272 0.027739145
0.4650397 -0.084423505 0.027730528
0.46407348 -0.084162079 0.028109601
0.46365261 -0.084702455 0.028100999
0.46323171 -0.08524283 0.028092397
0.46281084 -0.085783213 0.028083796
0.46238995 -0.086323589 0.028075194
0.46196908 -0.086863957 0.028066592
0.46154821 -0.087404341 0.028057991
0.46112731 -0.087944716 0.028049389
0.46070644 -0.088485099 0.028040785
0.46028557 -0.089025475 0.028032184
0.45986468 -0.089565843 0.028023582
0.45944381 -0.090106219 0.02801498
0.45902294 -0.090646602 0.028006379
0.45860204 -0.091186978 0.027997777
0.45818117 -0.091727361 0.027989175
0.45776027 -0.092267737 0.027980573
0.45733941 -0.092808105 0.027971972
0.45691854 -0.093348481 0.02796337
0.45649764 -0.093888864 0.027954768
0.45607677 -0.09442924 0.027946167
0.4556559 -0.094969623 0.027937565
0.45523503 -0.095509984 0.027928963
0.45481414 -0.096050367 0.02792036
0.45439327 -0.096590742 0.027911758
0.45397237 -0.097131126 0.027903156
0.4535515 -0.097671501 0.027894555
0.4531306 -0.098211884 0.027885953
0.45270973 -0.098752253 0.027877351
0.45228887 -0.099292628 0.02786875
0.451868 -0.099833004 0.027860148
0.4514471 -0.10037339 0.027851546
0.45102623 -0.10091376 0.027842944
0.45060536 -0.10145413 0.027834343
0.45018446 -0.10199451 0.027825741
0.4497636 -0.10253489 0.027817138
0.4493427 -0.10307527 0.027808536
0.44892183 -0.10361565 0.027799934
0.44850096 -0.10415602 0.027791332
0.44808006 -0.10469639 0.027782731
0.44765919 -0.10523678 0.027774129
0.44723833 -0.10577715 0.027765527
0.44733495 -0.10715506 0.027368682
0.44639656 -0.10685791 0.027748324
0.44597569 -0.10739828 0.027739722
0.44607031 -0.10877875 0.027342835
0.44564879 -0.10931998 0.027334221
0.44522724 -0.1098612 0.027325606
0.44429216 -0.1095598 0.027705314
0.44387129 -0.11010017 0.027696712
0.44345042 -0.11064054 0.02768811
0.44302952 -0.11118092 0.027679509
0.44260865 -0.1117213 0.027670907
0.44218776 -0.11226168 0.027662305
0.44176689 -0.11280206 0.027653703
0.44134599 -0.11334243 0.027645102
0.44092512 -0.1138828 0.0276365
0.44050425 -0.11442318 0.027627898
0.44008338 -0.11496356 0.027619297
0.43966249 -0.11550394 0.027610693
0.43924162 -0.11604432 0.027602091
0.43882075 -0.11658469 0.02759349
0.43839985 -0.11712506 0.027584888
0.43797898 -0.11766544 0.027576286
0.43705511 -0.11734953 0.027956247
0.4366349 -0.11788905 0.027947659
0.43621469 -0.11842858 0.02793907
0.43579447 -0.1189681 0.027930483
0.43537426 -0.11950763 0.027921895
0.43445441 -0.11918664 0.028301915
0.43403485 -0.11972532 0.02829334
0.4336153 -0.12026399 0.028284766
0.43319574 -0.12080267 0.02827619
0.43277621 -0.12134133 0.028267616
0.43235666 -0.12188001 0.028259041
0.43144146 -0.12155307 0.028639156
0.43052757 -0.12122442 0.029019298
0.43010935 -0.12176139 0.02901075
0.42969114 -0.12229837 0.029002203
0.42927289 -0.12283534 0.028993655
0.42885467 -0.12337231 0.028985107
0.42843643 -0.12390928 0.02897656
0.42752722 -0.12357468 0.029356798
0.42710966 -0.1241108 0.029348264
0.42669207 -0.12464692 0.029339729
0.42578545 -0.12430888 0.029720042
0.42536855 -0.12484416 0.029711522
0.42495164 -0.12537943 0.029703001
0.42404771 -0.12503801 0.030083347
0.42265874 -0.12381736 0.030852599
0.42224383 -0.12435007 0.030844118
0.42182893 -0.1248828 0.03083564
0.42092958 -0.12453539 0.0312161
0.52825624 -0.085419752 0.0063986834
0.5255639 -0.084372416 0.0075431294
0.52333355 -0.082731977 0.0086969957
0.5211072 -0.081086405 0.009850963
0.51770449 -0.077948362 0.011780525
0.51548737 -0.076290876 0.012934682
0.51047701 -0.072214372 0.015631018
0.50885993 -0.071287796 0.016397623
0.50783235 -0.071105771 0.016776437
0.50739223 -0.071670823 0.016767442
0.50695217 -0.072235882 0.016758448
0.50651205 -0.072800934 0.016749453
0.50665611 -0.074117325 0.016352581
0.50621533 -0.074683234 0.016343573
0.50519174 -0.074496105 0.016722469
0.50475162 -0.075061157 0.016713474
0.50431156 -0.075626217 0.016704479
0.50329059 -0.075435691 0.017083431
0.50285119 -0.075999893 0.017074449
0.50183225 -0.075806797 0.017453441
0.50081456 -0.075611994 0.01783248
0.49979824 -0.0754155 0.018211527
0.49878326 -0.075217314 0.018590597
0.49776962 -0.075017415 0.018969698
0.49675724 -0.074815795 0.019348845
0.49574625 -0.074612491 0.019727999
0.49473658 -0.074407488 0.02010718
0.49372825 -0.074200787 0.020486388
0.49272123 -0.073992386 0.020865623
0.49171549 -0.07378225 0.021244908
0.49128333 -0.074337088 0.021236075
0.49027961 -0.074124433 0.021615377
0.48984814 -0.074678421 0.021606559
0.48884642 -0.074463218 0.021985902
0.4884156 -0.07501635 0.021977097
0.48798478 -0.075569488 0.021968292
0.48698571 -0.075350881 0.022347691
0.48655555 -0.07590317 0.022338899
0.48555845 -0.07568197 0.022718359
0.4845627 -0.0754591 0.023097822
0.48413384 -0.076009691 0.023089059
0.48314008 -0.075784266 0.023468565
0.48214763 -0.075557142 0.023848098
0.48172015 -0.076106027 0.02383936
0.4807297 -0.075876348 0.024218934
0.48030284 -0.076424383 0.024210211
0.47931436 -0.076192111 0.024589846
0.47832721 -0.075958185 0.024969488
0.4779017 -0.076504521 0.024960792
0.47691655 -0.076268025 0.025340471
0.47649169 -0.076813519 0.02533179
0.47550851 -0.076574475 0.025711512
0.47508433 -0.077119112 0.025702842
0.47466013 -0.077663742 0.025694173
0.47367963 -0.077421293 0.026073951
0.47325611 -0.077965081 0.026065294
0.47283256 -0.078508854 0.026056638
0.47240904 -0.079052642 0.026047982
0.47198552 -0.079596415 0.026039327
0.47156197 -0.080140203 0.026030671
0.47113845 -0.080683976 0.026022015
0.47071493 -0.081227757 0.026013358
0.47029138 -0.081771545 0.026004702
0.46931747 -0.081520557 0.026384635
0.4688946 -0.082063489 0.026375994
0.46847174 -0.082606412 0.026367351
0.46804887 -0.083149344 0.026358709
0.46762601 -0.083692275 0.026350066
0.46720314 -0.084235199 0.026341423
0.46623388 -0.083978288 0.026721431
0.46581167 -0.084520377 0.026712801
0.46538949 -0.085062459 0.026704174
0.46442288 -0.084802143 0.027084233
0.46400136 -0.085343368 0.027075619
0.4635798 -0.085884586 0.027067002
0.46315825 -0.086425826 0.027058387
0.46273673 -0.086967051 0.027049772
0.46231517 -0.087508276 0.027041156
0.46189365 -0.088049501 0.027032541
0.46147209 -0.088590734 0.027023925
0.46105054 -0.089131959 0.02701531
0.46062902 -0.089673184 0.027006695
0.46020746 -0.090214409 0.02699808
0.45978594 -0.090755649 0.026989464
0.45936438 -0.091296874 0.026980849
0.45894286 -0.091838099 0.026972232
0.45852131 -0.092379324 0.026963618
0.45809975 -0.092920557 0.026955003
0.45767823 -0.093461782 0.026946386
0.45725667 -0.094003007 0.026937772
0.45683515 -0.094544232 0.026929157
0.4564136 -0.095085472 0.02692054
0.45599204 -0.095626697 0.026911926
0.45557052 -0.096167922 0.026903311
0.45514897 -0.096709147 0.026894694
0.45472741 -0.09725038 0.026886079
0.45430589 -0.097791605 0.026877465
0.45388433 -0.09833283 0.026868848
0.45346281 -0.098874055 0.026860233
0.45304126 -0.099415295 0.026851617
0.45261973 -0.09995652 0.026843002
0.45219818 -0.10049774 0.026834387
0.45177665 -0.10103897 0.026825771
0.4513551 -0.1015802 0.026817156
0.45093355 -0.10212143 0.026808541
0.45051202 -0.10266265 0.026799925
0.45009047 -0.10320388 0.02679131
0.44966891 -0.10374512 0.026782695
