# .PCD v0.7 - Point Cloud Data file format
VERSION 0.7
FIELDS x y z
SIZE 4 4 4
TYPE F F F
COUNT 1 1 1
WIDTH 1398
HEIGHT 1
VIEWPOINT 0 0 0 1 0 0 0
POINTS 1398
DATA ascii
0.63834983 -0.06954316 0.13888821
0.6386044 -0.070844978 0.13868889
0.63813055 -0.071453437 0.13867921
0.63765663 -0.072061889 0.13866952
0.63790858 -0.073367111 0.13847013
0.63743401 -0.07397642 0.13846043
0.63695943 -0.074585728 0.13845073
0.63648486 -0.075195037 0.13844103
0.63601029 -0.075804338 0.13843133
0.63553572 -0.076413646 0.13842162
0.6350612 -0.077022955 0.13841194
0.63458663 -0.077632263 0.13840224
0.63411206 -0.078241564 0.13839254
0.63363749 -0.078850873 0.13838284
0.63316292 -0.079460181 0.13837314
0.63268834 -0.08006949 0.13836344
0.63221377 -0.080678791 0.13835374
0.63245648 -0.081995934 0.13815418
0.63198125 -0.082606092 0.13814446
0.63150603 -0.08321625 0.13813475
0.6310308 -0.083826408 0.13812503
0.63055557 -0.084436566 0.13811533
0.63008034 -0.085046723 0.13810562
0.62960505 -0.085656881 0.1380959
0.62912983 -0.086267039 0.13808618
0.6286546 -0.086877197 0.13807647
0.62817937 -0.087487355 0.13806677
0.62770414 -0.088097513 0.13805705
0.62722892 -0.088707671 0.13804734
0.62675369 -0.089317828 0.13803762
0.62627846 -0.089927986 0.13802791
0.62580323 -0.090538144 0.13801821
0.625328 -0.091148302 0.13800849
0.62485278 -0.09175846 0.13799877
0.62437755 -0.092368618 0.13798906
0.62390232 -0.092978776 0.13797934
0.62342709 -0.093588933 0.13796964
0.62295187 -0.094199091 0.13795993
0.62247664 -0.094809249 0.13795021
0.62200141 -0.095419407 0.1379405
0.62152618 -0.096029565 0.13793078
0.62105095 -0.096639723 0.13792108
0.62057573 -0.097249873 0.13791136
0.6201005 -0.097860038 0.13790165
0.61962527 -0.098470196 0.13789193
0.61915004 -0.099080354 0.13788222
0.61867481 -0.099690512 0.1378725
0.61819959 -0.10030067 0.1378628
0.61772436 -0.10091083 0.13785309
0.61724913 -0.10152098 0.13784337
0.6167739 -0.10213114 0.13783365
0.61629868 -0.1027413 0.13782394
0.61582345 -0.10335146 0.13781424
0.61534822 -0.10396162 0.13780452
0.61487299 -0.10457177 0.13779481
0.61439776 -0.10518193 0.13778509
0.61323112 -0.10505107 0.13796577
0.61275655 -0.10566037 0.13795608
0.61228204 -0.10626968 0.13794638
0.61180747 -0.10687899 0.13793668
0.61133289 -0.1074883 0.13792698
0.61017025 -0.10735233 0.13810775
0.60969633 -0.10796078 0.13809806
0.60922241 -0.10856924 0.13808838
0.60874856 -0.10917769 0.13807869
0.60827464 -0.10978615 0.138069
0.60780072 -0.11039461 0.13805932
0.60732681 -0.11100306 0.13804963
0.60616946 -0.11086029 0.1382305
0.60569626 -0.11146789 0.13822083
0.605223 -0.11207551 0.13821116
0.60406828 -0.11192933 0.13839211
0.60359573 -0.11253608 0.13838243
0.60312313 -0.11314283 0.13837278
0.60197109 -0.11299321 0.13855378
0.60149914 -0.11359912 0.13854414
0.60034913 -0.11344698 0.13872516
0.59987783 -0.11405203 0.13871554
0.5994066 -0.11465709 0.13870591
0.59893537 -0.11526214 0.13869627
0.59778863 -0.11510574 0.13887736
0.59731799 -0.11570994 0.13886774
0.59684741 -0.11631414 0.13885812
0.59637684 -0.11691834 0.1388485
0.59590626 -0.11752255 0.13883889
0.59476352 -0.11736105 0.13902007
0.59429359 -0.11796439 0.13901046
0.59315276 -0.11780032 0.13919169
0.59268349 -0.11840281 0.13918211
0.59221423 -0.11900532 0.13917251
0.59174496 -0.11960781 0.13916293
0.59060752 -0.11943951 0.13934422
0.59013891 -0.12004115 0.13933463
0.5896703 -0.12064279 0.13932505
0.58853549 -0.12047109 0.13950638
0.58806759 -0.12107188 0.13949682
0.58759964 -0.12167268 0.13948725
0.58713168 -0.12227347 0.1394777
0.58666372 -0.12287427 0.13946813
0.5855329 -0.12269746 0.13964956
0.58506566 -0.12329741 0.13964
0.58459836 -0.12389735 0.13963045
0.58347017 -0.12371714 0.13981192
0.58300358 -0.12431624 0.13980238
0.58187735 -0.12413344 0.13998392
0.58141142 -0.12473168 0.1399744
0.58028722 -0.12454635 0.14015594
0.57982188 -0.12514374 0.14014643
0.57869971 -0.12495586 0.14032803
0.57757878 -0.12476628 0.14050965
0.57711482 -0.12536198 0.14050017
0.57599592 -0.12516984 0.14068183
0.57553267 -0.12576468 0.14067237
0.57506937 -0.12635952 0.14066289
0.57395303 -0.12616396 0.14084463
0.57349044 -0.12675795 0.14083517
0.57302779 -0.12735192 0.14082572
0.5719142 -0.12715299 0.1410075
0.5714522 -0.12774613 0.14099805
0.57099026 -0.12833926 0.1409886
0.56987929 -0.12813692 0.14117043
0.56876969 -0.12793288 0.14135228
0.56830901 -0.12852432 0.14134286
0.56784838 -0.12911576 0.14133346
0.56674135 -0.12890828 0.14151537
0.56628138 -0.12949885 0.14150597
0.56517643 -0.12928885 0.14168791
0.56471711 -0.12987858 0.14167853
0.56425774 -0.13046831 0.14166914
0.56315541 -0.13025491 0.14185114
0.56269681 -0.13084379 0.14184177
0.56223816 -0.13143267 0.1418324
0.56177944 -0.13202156 0.14182302
0.56132084 -0.13261043 0.14181365
0.55958277 -0.13158453 0.14218718
0.67174423 0.017755 0.14440863
0.67048383 0.017764766 0.1445884
0.66922468 0.017776232 0.14476818
0.66716313 0.018385531 0.14513712
0.66671044 0.017804308 0.14512788
0.66134673 0.01905817 0.14604589
0.66089737 0.018481201 0.1460367
0.66044801 0.017904231 0.14602752
0.65919948 0.017929312 0.14620754
0.65875077 0.017353194 0.14619838
0.65830207 0.016777076 0.1461892
0.65865046 0.015596354 0.14599079
0.6582011 0.015019385 0.14598159
0.65854752 0.013836104 0.14578317
0.65889263 0.01265113 0.14558467
0.65923643 0.011464411 0.14538617
0.65957892 0.010276032 0.14518763
0.65912688 0.0096956585 0.14517839
0.65946734 0.0085047195 0.14497983
0.65980649 0.007312085 0.14478123
0.65935308 0.0067300098 0.14477196
0.65969032 0.0055347816 0.14457332
0.65923625 0.0049518556 0.14456405
0.65878224 0.0043689292 0.14455476
0.65911674 0.0031703347 0.14435607
0.65944993 0.0019700381 0.14415735
0.65899462 0.0013854099 0.14414805
0.65932578 0.00018256043 0.14394929
0.65965563 -0.001021991 0.1437505
0.65998417 -0.0022282782 0.14355168
0.65952688 -0.0028154596 0.14354233
0.6598534 -0.0040242663 0.14334348
0.6593954 -0.0046122987 0.14333412
0.65971994 -0.0058236574 0.14313522
0.65926129 -0.006412541 0.14312585
0.65958387 -0.0076264534 0.14292692
0.65912455 -0.0082161874 0.14291753
0.65866524 -0.0088059213 0.14290814
0.65898514 -0.010023238 0.14270915
0.65930378 -0.011242294 0.14251013
0.65884316 -0.011833729 0.14250071
0.65915972 -0.013055298 0.14230165
0.65947503 -0.014278576 0.14210258
0.6582371 -0.014239872 0.14228278
0.65777582 -0.014832159 0.14227337
0.6580891 -0.016057987 0.14207426
0.65762711 -0.016651126 0.14206481
0.65716517 -0.017244264 0.14205536
0.65670317 -0.017837403 0.14204593
0.65546924 -0.017793596 0.14222622
0.65423667 -0.017748091 0.14240657
0.65300536 -0.017700844 0.14258693
0.65254539 -0.018291431 0.14257754
0.65131611 -0.018241666 0.14275794
0.65008813 -0.018190203 0.14293838
0.64962947 -0.018779086 0.14292899
0.64917082 -0.019367969 0.14291961
0.64871216 -0.019956851 0.14291024
0.64901948 -0.021190338 0.142711
0.64932549 -0.022425525 0.14251173
0.64963019 -0.023662452 0.14231242
0.64993352 -0.02490104 0.14211309
0.65099889 -0.026789341 0.14172381
0.65129894 -0.028032223 0.1415244
0.65159768 -0.029276771 0.14132498
0.65189505 -0.030523021 0.14112553
0.6521911 -0.031770971 0.14092606
0.65248585 -0.033020623 0.14072655
0.65277928 -0.034272015 0.14052701
0.65231264 -0.034871109 0.14051747
0.6526041 -0.036125019 0.1403179
0.65289414 -0.037380628 0.1401183
0.65242624 -0.037981428 0.14010873
0.65271431 -0.039239589 0.1399091
0.6522457 -0.039841238 0.13989952
0.65253186 -0.041101959 0.13969986
0.65206259 -0.041704461 0.13969027
0.65159333 -0.042306956 0.13968068
0.65112406 -0.042909458 0.13967109
0.65140688 -0.044174459 0.13947131
0.65093696 -0.044777811 0.1394617
0.65046704 -0.045381159 0.1394521
0.64999712 -0.045984507 0.13944249
0.6502766 -0.047253735 0.13924269
0.64980602 -0.047857936 0.13923307
0.64933544 -0.048462138 0.13922346
0.64886487 -0.049066339 0.13921383
0.64914101 -0.050339818 0.13901395
0.64866972 -0.050944868 0.13900431
0.64819849 -0.051549923 0.13899468
0.64772725 -0.052154973 0.13898505
0.64725602 -0.052760024 0.13897541
0.64752817 -0.054038614 0.13877547
0.64705628 -0.054644518 0.13876583
0.64658433 -0.055250421 0.13875617
0.64685392 -0.056532443 0.13855612
0.64638138 -0.057139196 0.13854647
0.64590877 -0.057745948 0.13853681
0.64543623 -0.058352701 0.13852715
0.64496362 -0.058959458 0.13851748
0.64449108 -0.059566211 0.13850783
0.64401847 -0.060172964 0.13849817
0.64354593 -0.060779721 0.13848852
0.64307332 -0.061386473 0.13847886
0.64260072 -0.06199323 0.1384692
0.64286298 -0.063284583 0.13826905
0.64238977 -0.063892186 0.13825938
0.64265001 -0.065186091 0.13805917
0.64217609 -0.06579455 0.13804948
0.64170223 -0.066403002 0.1380398
0.64122832 -0.067011461 0.13803011
0.6407544 -0.06761992 0.13802043
0.64028049 -0.068228371 0.13801074
0.63980663 -0.068836823 0.13800105
0.63933271 -0.069445282 0.13799137
0.6388588 -0.070053734 0.13798168
0.63838488 -0.070662193 0.137972
0.63791096 -0.071270652 0.13796231
0.63743711 -0.071879104 0.13795263
0.63768876 -0.073184073 0.13775225
0.63721418 -0.073793381 0.13774255
0.63673961 -0.07440269 0.13773285
0.63626504 -0.075011998 0.13772315
0.63579047 -0.075621299 0.13771345
0.6353159 -0.076230608 0.13770375
0.63484132 -0.076839916 0.13769405
0.63436675 -0.077449225 0.13768435
0.63389218 -0.078058526 0.13767464
0.63341767 -0.078667834 0.13766496
0.63294309 -0.079277143 0.13765526
0.63246852 -0.079886451 0.13764556
0.63199395 -0.080495752 0.13763586
0.6322363 -0.081812635 0.13743529
0.63176107 -0.082422793 0.13742557
0.63128585 -0.083032951 0.13741586
0.63081062 -0.083643116 0.13740614
0.63033539 -0.084253266 0.13739643
0.62986016 -0.084863424 0.13738672
0.62938493 -0.085473582 0.13737701
0.62890971 -0.08608374 0.13736729
0.62843448 -0.086693898 0.13735758
0.62795925 -0.087304056 0.13734786
0.62748402 -0.087914221 0.13733816
0.6270088 -0.088524371 0.13732845
0.62653357 -0.089134529 0.13731873
0.62605834 -0.089744687 0.13730901
0.62558311 -0.090354845 0.1372993
0.62510788 -0.090965003 0.1372896
0.62463266 -0.091575161 0.13727988
0.62415743 -0.092185318 0.13727017
0.6236822 -0.092795476 0.13726045
0.62320697 -0.093405634 0.13725074
0.62273175 -0.094015792 0.13724104
0.62225652 -0.09462595 0.13723132
0.62178129 -0.095236108 0.1372216
0.62130606 -0.095846266 0.13721189
0.62083083 -0.096456423 0.13720217
0.62035561 -0.097066581 0.13719247
0.61988038 -0.097676739 0.13718276
0.61940515 -0.098286897 0.13717304
0.61892992 -0.098897055 0.13716333
0.61845469 -0.099507213 0.13715361
0.61797947 -0.10011737 0.13714391
0.61750424 -0.10072753 0.13713419
0.61702901 -0.10133769 0.13712448
0.61655378 -0.10194784 0.13711476
0.61607856 -0.102558 0.13710505
0.61560333 -0.10316816 0.13709535
0.6151281 -0.10377832 0.13708563
0.61465287 -0.10438848 0.13707592
0.61417764 -0.10499863 0.1370662
0.61370242 -0.10560879 0.13705648
0.61253673 -0.10547733 0.13723819
0.61206216 -0.10608664 0.13722849
0.61158758 -0.10669594 0.13721879
0.61111301 -0.10730526 0.1372091
0.60995072 -0.10716955 0.13739087
0.6094768 -0.107778 0.13738118
0.60900289 -0.10838646 0.1373715
0.60852897 -0.10899491 0.13736181
0.60805511 -0.10960337 0.13735212
0.6075812 -0.11021183 0.13734244
0.60710728 -0.11082028 0.13733275
0.60595024 -0.11067776 0.13751464
0.60547704 -0.11128537 0.13750497
0.60500377 -0.11189298 0.13749528
0.60384935 -0.11174705 0.13767721
0.60337681 -0.1123538 0.13766755
0.6029042 -0.11296055 0.1376579
0.60175246 -0.11281119 0.13783991
0.60128051 -0.1134171 0.13783027
0.6001308 -0.11326522 0.13801228
0.59965956 -0.11387027 0.13800265
0.59918827 -0.11447532 0.13799302
0.59871703 -0.11508037 0.13798338
0.5975706 -0.11492424 0.13816549
0.59710002 -0.11552843 0.13815588
0.59662944 -0.11613264 0.13814627
0.59615886 -0.11673684 0.13813664
0.59568828 -0.11734104 0.13812703
0.59454578 -0.11717979 0.13830918
0.59407586 -0.11778314 0.13829958
0.59293538 -0.11761933 0.13848184
0.59246612 -0.11822182 0.13847224
0.59199685 -0.11882432 0.13846265
0.59152758 -0.11942682 0.13845307
0.59039044 -0.11925877 0.13863534
0.58992183 -0.1198604 0.13862576
0.58945322 -0.12046205 0.13861617
0.58831871 -0.12029061 0.13879852
0.58785081 -0.12089139 0.13878895
0.58738285 -0.12149219 0.13877939
0.5869149 -0.12209299 0.13876984
0.586447 -0.12269379 0.13876027
0.58531648 -0.12251723 0.13894269
0.58484918 -0.12311718 0.13893314
0.58438194 -0.12371712 0.13892359
0.58325404 -0.12353717 0.13910607
0.58278739 -0.12413627 0.13909653
0.58232081 -0.12473536 0.13908699
0.58119553 -0.12455196 0.13926955
0.5807296 -0.1251502 0.13926001
0.57960635 -0.12496428 0.13944258
0.57848448 -0.12477665 0.13962518
0.57801986 -0.1253732 0.13961568
0.57689989 -0.12518303 0.13979833
0.57578135 -0.12499115 0.13998099
0.57531804 -0.12558599 0.13997152
0.57485473 -0.12618083 0.13996205
0.57373875 -0.12598552 0.1401448
0.5732761 -0.12657951 0.14013533
0.57281345 -0.12717348 0.14012589
0.57170016 -0.12697481 0.14030865
0.57123822 -0.12756795 0.14029922
0.57077622 -0.12816109 0.14028977
0.56966561 -0.127959 0.14047258
0.56855631 -0.12775521 0.14065544
0.56809562 -0.12834665 0.14064604
0.567635 -0.12893808 0.14063662
0.56652826 -0.12873085 0.14081953
0.56606829 -0.12932143 0.14081013
0.56560832 -0.12991202 0.14080073
0.56450433 -0.12970142 0.1409837
0.56404501 -0.13029115 0.14097431
0.5635857 -0.13088088 0.14096493
0.56312633 -0.13147062 0.14095554
0.56202567 -0.13125576 0.14113857
0.56156701 -0.13184465 0.1411292
0.55982822 -0.13082096 0.1415047
0.56001031 -0.13221528 0.1413029
0.55955231 -0.13280331 0.14129354
0.55845624 -0.1325825 0.14147666
0.6720919 0.020275246 0.14393775
0.67244399 0.019099886 0.14373842
0.67198867 0.018515257 0.14372911
0.67072785 0.018523915 0.14390987
0.6694684 0.018534277 0.14409065
0.66695338 0.018560138 0.14445232
0.66569793 0.018575607 0.14463317
0.66364157 0.019190351 0.14500421
0.66238946 0.01921007 0.14518516
0.66113859 0.019231496 0.1453661
0.66068918 0.018654527 0.14535692
0.66023982 0.018077558 0.14534773
0.65899163 0.018102383 0.14552875
0.65854293 0.017526265 0.14551958
0.65809423 0.016950147 0.14551041
0.65844232 0.015769681 0.145311
0.6579929 0.015192711 0.14530182
0.65833902 0.014009688 0.14510237
0.65868384 0.012824967 0.14490288
0.65823311 0.012246296 0.14489368
0.65857601 0.011058984 0.14469415
0.65891749 0.0098700076 0.14449459
0.65846545 0.0092896344 0.14448535
0.65880495 0.0080981022 0.14428578
0.65835226 0.0075168777 0.14427653
0.65868974 0.0063227955 0.1440769
0.65823638 0.0057407203 0.14406763
0.65857196 0.0045440476 0.14386794
0.6589061 0.0033457072 0.14366826
0.65845144 0.0027619298 0.14365897
0.65878367 0.0015610397 0.14345923
0.65911454 0.00035844435 0.14325948
0.6586585 -0.00022703497 0.14325015
0.6589874 -0.0014321834 0.14305036
0.65931499 -0.0026390641 0.1428505
0.6588577 -0.0032262451 0.14284116
0.65918326 -0.0044356491 0.14264129
0.65872526 -0.0050236806 0.14263193
0.65826726 -0.005611713 0.14262258
0.6585902 -0.00682452 0.14242266
0.65813154 -0.0074134031 0.14241329
0.65325224 -0.016932843 0.14190051
0.65202194 -0.016885038 0.14208189
0.65156263 -0.017474772 0.1420725
0.6503343 -0.017424416 0.14225392
0.64910734 -0.017372355 0.14243537
0.64864933 -0.017960386 0.142426
0.64895833 -0.019191066 0.1422258
0.64773333 -0.019136451 0.14240728
0.64804101 -0.020368833 0.14220706
0.6491124 -0.02224811 0.1418159
0.65018117 -0.024130825 0.14142469
0.65048355 -0.025370013 0.14122434
0.65078455 -0.0266109 0.14102396
0.65108436 -0.027853526 0.14082356
0.65138274 -0.029097818 0.14062312
0.65167981 -0.030343812 0.14042267
0.65197557 -0.031591505 0.14022219
0.65226996 -0.032840904 0.1400217
0.6525631 -0.034092039 0.13982114
0.65285492 -0.035344847 0.13962059
0.65314531 -0.036599346 0.13942
0.65267742 -0.037200145 0.13941044
0.65296584 -0.038457204 0.13920982
0.65249723 -0.039058853 0.13920024
0.65202868 -0.039660498 0.13919066
0.65231448 -0.040920962 0.13898998
0.65184522 -0.041523464 0.1389804
0.65137595 -0.042125959 0.13897081
0.65090668 -0.042728461 0.13896121
0.65118921 -0.043993209 0.13876043
0.65071929 -0.044596557 0.13875084
0.65024936 -0.045199908 0.13874123
0.64977944 -0.045803256 0.13873163
0.65005863 -0.047072228 0.13853082
0.64958799 -0.047676429 0.13852119
0.64911741 -0.04828063 0.13851158
0.64939398 -0.049553003 0.1383107
0.64892268 -0.050158054 0.13830107
0.64845145 -0.050763108 0.13829143
0.64872533 -0.052038886 0.13809052
0.64825338 -0.052644789 0.13808088
0.64778149 -0.053250693 0.13807122
0.6473096 -0.053856596 0.13806158
0.64758021 -0.055136662 0.13786057
0.6471076 -0.055743415 0.13785091
0.646635 -0.056350172 0.13784124
0.64616245 -0.056956924 0.13783158
0.64568985 -0.057563677 0.13782193
0.6452173 -0.05817043 0.13781227
0.64474469 -0.058777183 0.13780262
0.64427215 -0.05938394 0.13779296
0.64379954 -0.059990693 0.13778329
0.643327 -0.060597446 0.13777363
0.64285439 -0.061204199 0.13776398
0.64311701 -0.062494449 0.13756283
0.64264375 -0.063102052 0.13755316
0.64217055 -0.063709654 0.13754348
0.64243048 -0.065003306 0.13734227
0.64195657 -0.065611765 0.13733259
0.64148271 -0.066220216 0.13732292
0.64100879 -0.066828676 0.13731323
0.64053488 -0.067437135 0.13730355
0.64006096 -0.068045586 0.13729386
0.63958704 -0.068654038 0.13728417
0.63911319 -0.069262497 0.13727449
0.63863927 -0.069870949 0.1372648
0.63816535 -0.070479408 0.13725512
0.63769144 -0.071087867 0.13724543
0.63721758 -0.071696319 0.13723575
0.63746887 -0.073001027 0.13703434
0.6369943 -0.073610336 0.13702464
0.63651973 -0.074219644 0.13701496
0.63604522 -0.074828953 0.13700525
0.63557065 -0.075438254 0.13699555
0.63509607 -0.076047562 0.13698585
0.6346215 -0.076656871 0.13697615
0.63414693 -0.077266179 0.13696645
0.63367236 -0.077875488 0.13695675
0.63319778 -0.078484789 0.13694705
0.63272321 -0.079094097 0.13693735
0.63224864 -0.079703405 0.13692766
0.63177413 -0.080312714 0.13691796
0.63201618 -0.081629336 0.1367164
0.63154095 -0.082239494 0.13670668
0.63106573 -0.082849652 0.13669696
0.6305905 -0.083459817 0.13668725
0.63011527 -0.084069975 0.13667753
0.62964004 -0.084680133 0.13666783
0.62916481 -0.08529029 0.13665812
0.62868959 -0.085900441 0.1366484
0.62821436 -0.086510599 0.13663869
0.62773913 -0.087120757 0.13662897
0.62726384 -0.087730922 0.13661927
0.62678862 -0.08834108 0.13660955
0.62702215 -0.089668795 0.13640776
0.62654626 -0.090279803 0.13639805
0.62607032 -0.090890817 0.13638832
0.62559444 -0.091501825 0.13637859
0.62511855 -0.092112832 0.13636887
0.62464267 -0.092723839 0.13635914
0.62416679 -0.093334846 0.13634941
0.6236909 -0.093945861 0.13633968
0.62321502 -0.094556868 0.13632996
0.62273914 -0.095167875 0.13632023
0.62226319 -0.095778883 0.1363105
0.62178731 -0.09638989 0.13630079
0.62131143 -0.097000904 0.13629106
0.62083554 -0.097611912 0.13628133
0.62035966 -0.098222919 0.1362716
0.61988378 -0.098833926 0.13626188
0.61870974 -0.098713756 0.13644443
0.61823452 -0.099323913 0.13643472
0.61775929 -0.099934071 0.136425
0.61728406 -0.10054423 0.1364153
0.61680883 -0.10115439 0.13640559
0.6163336 -0.10176455 0.13639587
0.61585838 -0.10237471 0.13638616
0.61538315 -0.10298486 0.13637644
0.61490792 -0.10359502 0.13636674
0.61443269 -0.10420518 0.13635702
0.61395746 -0.10481533 0.13634731
0.61348224 -0.10542549 0.13633759
0.61300701 -0.10603565 0.13632788
0.61184233 -0.1059036 0.1365106
0.61136776 -0.1065129 0.1365009
0.61089319 -0.10712221 0.13649119
0.6097312 -0.10698676 0.13667397
0.60925728 -0.10759521 0.13666429
0.60878336 -0.10820367 0.1366546
0.60830945 -0.10881212 0.13664493
0.60783553 -0.10942058 0.13663524
0.60736167 -0.11002903 0.13662556
0.60688776 -0.11063749 0.13661587
0.60573101 -0.11049523 0.13679874
0.60525781 -0.11110283 0.13678907
0.60478455 -0.11171044 0.1367794
0.60363048 -0.11156477 0.13696232
0.60315788 -0.11217153 0.13695267
0.60268533 -0.11277828 0.13694301
0.60153383 -0.11262918 0.13712603
0.60106194 -0.11323509 0.13711639
0.60058999 -0.11384098 0.13710673
0.59944123 -0.11368851 0.13728978
0.59897 -0.11429356 0.13728015
0.59849876 -0.11489861 0.13727051
0.59735262 -0.11474273 0.13745362
0.59688205 -0.11534692 0.137444
0.59641141 -0.11595114 0.13743438
0.59594083 -0.11655533 0.13742477
0.59547025 -0.11715953 0.13741514
0.59432811 -0.11699854 0.13759832
0.59385818 -0.11760189 0.13758871
0.59338826 -0.11820525 0.13757911
0.59224874 -0.11804082 0.13776238
0.59177947 -0.11864332 0.13775279
0.5913102 -0.11924583 0.13774319
0.59017336 -0.11907803 0.13792647
0.58970475 -0.11967967 0.13791689
0.58923614 -0.12028131 0.13790733
0.58876753 -0.12088297 0.13789774
0.58763403 -0.12071091 0.13808109
0.58716607 -0.12131171 0.13807152
0.58669817 -0.12191251 0.13806197
0.58623022 -0.12251331 0.1380524
0.5851 -0.122337 0.13823584
0.58463269 -0.12293695 0.13822629
0.58416545 -0.12353689 0.13821673
0.58303785 -0.1233572 0.1384002
0.58257127 -0.12395629 0.13839066
0.58210462 -0.12455539 0.13838112
0.5809797 -0.12437224 0.13856468
0.58051378 -0.12497048 0.13855515
0.57939082 -0.12478481 0.13873872
0.57826924 -0.12459745 0.13892233
0.57780463 -0.125194 0.13891283
0.57668501 -0.12500408 0.13909647
0.57556671 -0.12481245 0.13928014
0.5751034 -0.12540729 0.13927068
0.57398707 -0.12521309 0.13945439
0.57352442 -0.12580708 0.13944493
0.57306182 -0.12640107 0.13943549
0.57259917 -0.12699504 0.13942602
0.57148618 -0.12679663 0.13960981
0.57102418 -0.12738977 0.13960037
0.57056224 -0.1279829 0.13959093
0.56945193 -0.12778106 0.13977475
0.56834292 -0.12757754 0.13995862
0.56788224 -0.12816897 0.1399492
0.56742162 -0.12876041 0.13993979
0.56631523 -0.12855344 0.14012371
0.56585521 -0.12914401 0.14011431
0.56539524 -0.12973461 0.1401049
0.56429154 -0.12952426 0.14028887
0.56383222 -0.13011399 0.14027949
0.56337291 -0.13070372 0.1402701
0.5629136 -0.13129346 0.14026071
0.56181318 -0.13107885 0.14044474
0.56135452 -0.13166775 0.14043537
0.56025612 -0.13145059 0.14061944
0.55915904 -0.13123173 0.14080353
0.55806327 -0.13101114 0.14098769
0.55696887 -0.13078889 0.14117184
0.55651283 -0.13137436 0.14116251
0.5554204 -0.13114956 0.14134671
0.55432928 -0.13092305 0.14153095
0.55323952 -0.13069484 0.14171518
0.66758144 0.026317498 0.14461473
0.66874838 0.024562091 0.14422351
0.66991258 0.022803314 0.14383227
0.67026699 0.021631612 0.14363199
0.67062014 0.020458169 0.14343168
0.67016613 0.019875243 0.14342241
0.66971213 0.019292317 0.14341313
0.66845357 0.019303311 0.14359494
0.66800022 0.018721234 0.14358567
0.6667437 0.018734744 0.14376751
0.66468602 0.01934639 0.1441405
0.66343284 0.019364187 0.14432243
0.66218096 0.019383654 0.14450435
0.6609304 0.019404821 0.14468631
0.66048104 0.018827852 0.14467713
0.66003168 0.018250883 0.14466795
0.65878379 0.018275455 0.14484997
0.65833503 0.017699337 0.14484079
0.65788633 0.017123219 0.14483163
0.65823412 0.015943006 0.14463121
0.65778476 0.015366036 0.14462203
0.65813059 0.014183272 0.14442158
0.65768051 0.013605451 0.14441238
0.6572305 0.013027631 0.14440317
0.65678042 0.01244981 0.14439398
0.65712291 0.01126279 0.14419346
0.65746415 0.010074034 0.14399289
0.65780401 0.0088836104 0.14379232
0.65735197 0.0083032371 0.14378308
0.65768981 0.00711026 0.14358246
0.65802634 0.0059155808 0.14338182
0.65757298 0.0053335056 0.14337255
0.65790761 0.0041362364 0.14317186
0.6582408 0.002937302 0.14297116
0.65778613 0.002353525 0.14296186
0.65811735 0.0011520378 0.14276111
0.65844727 -5.1151033e-05 0.14256033
0.65877587 -0.0012560418 0.14235952
0.65910316 -0.0024626721 0.14215869
0.65864581 -0.003049853 0.14214934
0.65818846 -0.0036370344 0.14214
0.65773118 -0.0042242156 0.14213066
0.65727383 -0.0048113964 0.1421213
0.65681648 -0.0053985775 0.14211196
0.65395916 -0.015574254 0.14122348
0.65272784 -0.015528408 0.14140584
0.65226847 -0.016118143 0.14139645
0.65103918 -0.016069742 0.14157884
0.65058053 -0.016658625 0.14156947
0.64935315 -0.016607674 0.1417519
0.6488952 -0.017195705 0.14174254
0.6484372 -0.017783737 0.14173318
0.6479792 -0.01837177 0.14172383
0.64828724 -0.019603042 0.1415226
0.64935929 -0.021480106 0.14112946
0.64966404 -0.022715669 0.14092816
0.64996743 -0.023952896 0.14072683
0.65103292 -0.025838472 0.14033358
0.65133303 -0.02707999 0.14013217
0.65163177 -0.028323175 0.13993075
0.6519292 -0.029568063 0.13972932
0.65222532 -0.03081465 0.13952786
0.65252006 -0.032062948 0.13932636
0.65281355 -0.033312973 0.13912483
0.65310574 -0.034564666 0.13892327
0.65339649 -0.035818066 0.1387217
0.65292859 -0.036418863 0.13871214
0.65321738 -0.037674814 0.13851053
0.65274876 -0.03827646 0.13850094
0.65228015 -0.038878109 0.13849136
0.6518116 -0.039479759 0.13848178
0.65209711 -0.040739965 0.13828012
0.65162784 -0.041342467 0.13827053
0.65115857 -0.041944962 0.13826093
0.65144145 -0.043208603 0.13805915
0.65097153 -0.043811955 0.13804956
0.65050161 -0.044415303 0.13803995
0.65003169 -0.045018654 0.13803035
0.65031117 -0.04628652 0.13782856
0.64984059 -0.046890721 0.13781893
0.64937001 -0.047494922 0.13780932
0.64964688 -0.048766188 0.13760746
0.64917564 -0.049371239 0.13759783
0.64870441 -0.049976293 0.13758819
0.64897865 -0.051250964 0.13738628
0.6485067 -0.051856864 0.13737664
0.64803481 -0.052462772 0.137367
0.64756286 -0.053068671 0.13735734
0.64709097 -0.053674575 0.1373477
0.64736128 -0.054954387 0.13714568
0.64688867 -0.05556114 0.13713603
0.64641613 -0.056167897 0.13712637
0.64594352 -0.05677465 0.1371167
0.64547098 -0.057381403 0.13710704
0.64499837 -0.057988156 0.13709739
0.64452577 -0.058594912 0.13708773
0.64405322 -0.059201665 0.13707808
0.64431751 -0.060489103 0.13687596
0.64384425 -0.061096705 0.13686629
0.64337105 -0.061704308 0.13685662
0.64289778 -0.062311918 0.13684694
0.64315873 -0.06360361 0.13664477
0.64268488 -0.064212069 0.13663508
0.64221096 -0.064820521 0.13662539
0.64173704 -0.06542898 0.13661571
0.64126313 -0.066037431 0.13660602
0.64078927 -0.06664589 0.13659634
0.64031535 -0.06725435 0.13658665
0.63984144 -0.067862801 0.13657697
0.63936752 -0.068471253 0.13656728
0.63889366 -0.069079712 0.13655759
0.63841975 -0.069688164 0.13654791
0.63794583 -0.070296623 0.13653822
0.63747191 -0.070905082 0.13652854
0.636998 -0.071513534 0.13651885
0.63724905 -0.072817989 0.13631646
0.63677448 -0.073427297 0.13630676
0.63629991 -0.074036606 0.13629706
0.63582534 -0.074645914 0.13628736
0.63535076 -0.075255215 0.13627766
0.63487625 -0.075864524 0.13626797
0.63440168 -0.076473832 0.13625827
0.63392711 -0.077083141 0.13624857
0.63345253 -0.077692442 0.13623887
0.63297796 -0.07830175 0.13622917
0.63250339 -0.078911059 0.13621947
0.63202882 -0.079520367 0.13620977
0.63155425 -0.080129668 0.13620007
0.631796 -0.081446044 0.13599749
0.63132077 -0.082056202 0.13598779
0.63084555 -0.082666352 0.13597807
0.63037032 -0.083276518 0.13596836
0.62989509 -0.083886676 0.13595864
0.62941986 -0.084496833 0.13594893
0.62894464 -0.085106991 0.13593923
0.62846941 -0.085717149 0.13592951
0.62799418 -0.086327307 0.13591979
0.62751895 -0.086937457 0.13591008
0.62704372 -0.087547623 0.13590036
0.62727755 -0.088874236 0.1356976
0.62680167 -0.089485243 0.13568787
0.62632579 -0.090096258 0.13567816
0.6258499 -0.090707265 0.13566843
0.62537402 -0.091318272 0.1356587
0.62489814 -0.091929279 0.13564898
0.62442219 -0.092540286 0.13563925
0.62394631 -0.093151301 0.13562952
0.62347043 -0.093762308 0.1356198
0.62299454 -0.094373316 0.13561007
0.62251866 -0.094984323 0.13560034
0.62204278 -0.09559533 0.13559061
0.62156689 -0.096206345 0.1355809
0.62109101 -0.096817352 0.13557117
0.62061507 -0.097428359 0.13556144
0.62013918 -0.098039366 0.13555172
0.6196633 -0.098650374 0.13554199
0.61918741 -0.099261388 0.13553226
0.61871153 -0.099872395 0.13552253
0.61753917 -0.099750772 0.13570611
0.61706394 -0.10036093 0.13569641
0.61658871 -0.10097109 0.1356867
0.61611348 -0.10158125 0.13567698
0.61563826 -0.10219141 0.13566726
0.61516303 -0.10280157 0.13565755
0.6146878 -0.10341173 0.13564785
0.61421257 -0.10402188 0.13563813
0.61373734 -0.10463203 0.13562842
0.61326212 -0.10524219 0.1356187
0.61278689 -0.10585235 0.13560899
0.61162251 -0.10572056 0.13579272
0.61114794 -0.10632987 0.13578302
0.61067337 -0.10693917 0.13577332
0.60951161 -0.10680398 0.13595709
0.60903776 -0.10741243 0.13594741
0.60856384 -0.10802089 0.13593772
0.60808992 -0.10862934 0.13592803
0.60761601 -0.10923779 0.13591835
0.60714215 -0.10984625 0.13590866
0.60666823 -0.11045471 0.13589898
0.60551178 -0.1103127 0.13608284
0.60503858 -0.1109203 0.13607317
0.60456532 -0.11152791 0.1360635
0.60341156 -0.1113825 0.13624744
0.60293895 -0.11198925 0.13623779
0.6024664 -0.11259601 0.13622813
0.60131526 -0.11244715 0.13641214
0.60084331 -0.11305306 0.1364025
0.60037142 -0.11365896 0.13639286
0.59922296 -0.11350674 0.13657691
0.59875166 -0.1141118 0.13656726
0.59828043 -0.11471685 0.13655764
0.59713459 -0.11456122 0.13674174
0.59666401 -0.11516542 0.13673213
0.59619343 -0.11576962 0.13672251
0.59572285 -0.11637382 0.13671289
0.59525228 -0.11697803 0.13670327
0.59411043 -0.11681729 0.13688745
0.59364051 -0.11742064 0.13687783
0.59317058 -0.118024 0.13686824
0.59203136 -0.11785983 0.13705251
0.59156209 -0.11846232 0.13704291
0.59109282 -0.11906483 0.13703333
0.59062356 -0.11966732 0.13702373
0.58948767 -0.11949892 0.13720803
0.58901906 -0.12010057 0.13719845
0.58855045 -0.12070222 0.13718887
0.5880819 -0.12130387 0.13717929
0.58694935 -0.12113122 0.13736367
0.58648139 -0.12173202 0.13735411
0.58601344 -0.12233282 0.13734454
0.58488351 -0.12215677 0.13752897
0.58441627 -0.12275672 0.13751942
0.58394897 -0.12335666 0.13750987
0.58282173 -0.12317722 0.13769434
0.58235508 -0.12377632 0.13768481
0.5818885 -0.12437542 0.13767527
0.58076388 -0.12419252 0.13785984
0.58029789 -0.12479077 0.13785031
0.57917529 -0.12460535 0.13803487
0.57805401 -0.12441824 0.13821948
0.57693404 -0.12422943 0.1384041
0.57647008 -0.12482513 0.13839462
0.57535207 -0.12463375 0.13857929
0.57488877 -0.1252286 0.13856982
0.57377273 -0.12503465 0.13875456
0.57331014 -0.12562864 0.1387451
0.57284749 -0.12622263 0.13873565
0.57238483 -0.12681662 0.13872619
0.57127219 -0.12661844 0.13891096
0.5708102 -0.12721159 0.13890153
0.57034826 -0.12780471 0.13889208
0.56923819 -0.12760313 0.1390769
0.56812948 -0.12739986 0.13926178
0.56766886 -0.1279913 0.13925236
0.56720823 -0.12858273 0.13924295
0.56610215 -0.12837602 0.13942787
0.56564212 -0.1289666 0.13941847
0.56518215 -0.12955719 0.13940908
0.56472218 -0.13014777 0.13939968
0.56361943 -0.12993683 0.13958466
0.56316012 -0.13052656 0.13957527
0.56270081 -0.1311163 0.13956589
0.56224149 -0.13170603 0.1395565
0.56114203 -0.13149084 0.13974154
0.56004393 -0.13127394 0.13992661
0.55894721 -0.13105534 0.14011173
0.55785173 -0.13083501 0.14029686
0.55675757 -0.130613 0.14048202
0.55630159 -0.13119848 0.1404727
0.55520946 -0.13097394 0.1406579
0.55411863 -0.13074768 0.14084312
0.55366397 -0.13133146 0.14083384
0.55257517 -0.13110265 0.14101911
0.55212116 -0.13168557 0.14100982
0.55166709 -0.1322685 0.14100054
0.55058092 -0.13203625 0.14118588
0.55012757 -0.13261832 0.14117661
0.54841256 -0.13156672 0.14155659
0.54050481 -0.12707864 0.14326268
0.65943557 0.035813626 0.14627393
0.65656108 0.037001401 0.14684074
0.6589188 0.033523981 0.14605485
0.66090244 0.031192511 0.14546984
0.66611481 0.026501782 0.14411673
0.66647291 0.02533544 0.14391553
0.66763651 0.023577141 0.14352226
0.66799134 0.022406545 0.14332101
0.6683448 0.021234244 0.14311972
0.6678921 0.020653021 0.14311047
0.6674394 0.020071797 0.14310122
0.6669867 0.019490572 0.14309196
0.66573113 0.019504678 0.14327481
0.66447693 0.019520486 0.1434577
0.66322404 0.019538028 0.14364062
0.66197246 0.019557238 0.14382356
0.66072226 0.019578151 0.14400652
0.66027284 0.019001182 0.14399734
0.65982348 0.018424213 0.14398815
0.65857589 0.018448526 0.14417118
0.65812719 0.017872408 0.144162
0.65767848 0.01729629 0.14415284
0.65802598 0.016116336 0.14395142
0.65757656 0.015539366 0.14394222
0.6571272 0.014962397 0.14393304
0.65667784 0.014385427 0.14392386
0.65622842 0.013808458 0.14391467
0.65657198 0.012623394 0.14371319
0.65612191 0.012045573 0.14370398
0.65646344 0.01085796 0.14350244
0.65680367 0.0096686073 0.14330086
0.65714258 0.0084775863 0.14309928
0.65669054 0.0078972131 0.14309004
0.65702742 0.0067036389 0.14288841
0.65657473 0.0061224145 0.14287917
0.65690964 0.0049262913 0.14267749
0.65724325 0.0037284284 0.14247577
0.65757549 0.0025288973 0.14227405
0.65790641 0.0013276641 0.14207231
0.65823603 0.00012472937 0.14187053
0.65856433 -0.0010799039 0.14166872
0.65889132 -0.0022862765 0.14146687
0.65843397 -0.0028734575 0.14145753
0.65797663 -0.0034606387 0.14144817
0.65751928 -0.0040478203 0.14143883
0.65706199 -0.0046350006 0.14142948
0.6558243 -0.0045978855 0.14161272
0.65097296 -0.014078892 0.14109652
0.65051502 -0.014666924 0.14108714
0.64928728 -0.014617081 0.14127058
0.64959902 -0.015842987 0.14106843
0.64760423 -0.015151828 0.14144471
0.64868301 -0.017019052 0.14104971
0.64745796 -0.016965805 0.14123319
0.64776701 -0.018195117 0.14103098
0.64807475 -0.019426133 0.14082877
0.65067637 -0.022590395 0.14004786
0.65021509 -0.023182681 0.14003843
0.65051746 -0.024420505 0.1398361
0.6515817 -0.026306454 0.1394408
0.6518808 -0.027548535 0.1392384
0.65217859 -0.028792316 0.13903597
0.65247506 -0.030037796 0.13883351
0.65277016 -0.031284984 0.13863103
0.65306401 -0.032533903 0.13842849
0.65335649 -0.03378449 0.13822596
0.65364766 -0.035036784 0.13802341
0.65317976 -0.03563758 0.13801384
0.65346891 -0.036892425 0.13781124
0.6530003 -0.037494075 0.13780166
0.65253168 -0.03809572 0.13779208
0.65206313 -0.038697369 0.1377825
0.65159452 -0.039299019 0.13777293
0.65187967 -0.040558968 0.13757025
0.6514104 -0.04116147 0.13756065
0.65094119 -0.041763965 0.13755107
0.65122372 -0.043027353 0.13734829
0.6507538 -0.043630704 0.13733868
0.65028387 -0.044234052 0.13732909
0.65056378 -0.045500811 0.1371263
0.6500932 -0.046105012 0.13711667
0.64962262 -0.04670921 0.13710706
0.64915204 -0.047313411 0.13709745
0.64942861 -0.04858442 0.13689457
0.64895731 -0.049189474 0.13688494
0.64848608 -0.049794525 0.1368753
0.64876002 -0.051068943 0.13667239
0.64828807 -0.051674847 0.13666275
0.64781618 -0.05228075 0.13665311
0.64734429 -0.05288665 0.13664345
0.6476149 -0.05416536 0.13644046
0.64714235 -0.054772113 0.1364308
0.64666975 -0.055378865 0.13642114
0.6461972 -0.055985622 0.13641149
0.64572459 -0.056592375 0.13640183
0.64525205 -0.057199128 0.13639216
0.64477944 -0.057805881 0.13638251
0.64504474 -0.059091363 0.13617942
0.64457154 -0.059698969 0.13616975
0.64409828 -0.060306575 0.13616008
0.64362502 -0.060914177 0.1361504
0.64315182 -0.06152178 0.13614073
0.64341313 -0.062812366 0.13593757
0.64293921 -0.063420825 0.13592789
0.64246535 -0.064029284 0.1359182
0.64199144 -0.064637735 0.13590851
0.64151752 -0.065246195 0.13589883
0.6410436 -0.065854646 0.13588914
0.64056969 -0.066463105 0.13587946
0.64009583 -0.067071557 0.13586977
0.63962191 -0.067680016 0.13586009
0.639148 -0.068288468 0.1358504
0.63867408 -0.068896927 0.13584071
0.63820022 -0.069505379 0.13583103
0.63772631 -0.07011383 0.13582134
0.63725239 -0.070722297 0.13581166
0.63677847 -0.071330748 0.13580197
0.63702923 -0.07263495 0.13559857
0.63655466 -0.073244251 0.13558887
0.63608009 -0.07385356 0.13557917
0.63560551 -0.074462868 0.13556947
0.63513094 -0.075072177 0.13555977
0.63465637 -0.075681478 0.13555007
0.6341818 -0.076290794 0.13554037
0.63370723 -0.076900095 0.13553068
0.63323271 -0.077509403 0.13552098
0.63275814 -0.078118704 0.13551128
0.63228357 -0.07872802 0.13550158
0.631809 -0.079337321 0.13549188
0.63133442 -0.07994663 0.13548218
0.63157588 -0.081262745 0.1352786
0.63110065 -0.081872903 0.1352689
0.63062543 -0.082483061 0.13525918
0.6301502 -0.083093219 0.13524947
0.62967497 -0.083703376 0.13523975
0.62919974 -0.084313534 0.13523003
0.62872452 -0.084923692 0.13522033
0.62824929 -0.08553385 0.13521062
0.62777406 -0.086144008 0.1352009
0.62729883 -0.086754166 0.13519119
0.6268236 -0.087364323 0.13518147
0.62705714 -0.088690683 0.13497771
0.62658125 -0.08930169 0.134968
0.62610531 -0.089912705 0.13495827
0.62562943 -0.090523712 0.13494854
0.62515354 -0.09113472 0.13493881
0.62467766 -0.091745727 0.13492909
0.62420177 -0.092356741 0.13491936
0.62372589 -0.092967749 0.13490963
0.62325001 -0.093578756 0.13489991
0.62277412 -0.094189763 0.13489018
0.62229818 -0.09480077 0.13488045
0.6218223 -0.095411785 0.13487072
0.62134641 -0.096022792 0.13486101
0.62087053 -0.096633799 0.13485128
0.62039465 -0.097244807 0.13484155
0.61991876 -0.097855814 0.13483183
0.61944288 -0.098466828 0.1348221
0.61896694 -0.099077836 0.13481237
0.61849105 -0.099688843 0.13480264
0.61801517 -0.10029985 0.13479292
0.61684376 -0.10017764 0.1349775
0.61636853 -0.10078779 0.1349678
0.6158933 -0.10139795 0.13495809
0.61541808 -0.10200811 0.13494837
0.61494285 -0.10261827 0.13493866
0.61446762 -0.10322843 0.13492894
0.61399239 -0.10383859 0.13491924
0.61351717 -0.10444874 0.13490953
0.61304194 -0.1050589 0.13489981
0.61256671 -0.10566905 0.13489009
0.61140263 -0.10553751 0.13507482
0.61092806 -0.10614682 0.13506512
0.61045355 -0.10675613 0.13505542
0.60997897 -0.10736544 0.13504572
0.60881823 -0.10722964 0.13523053
0.60834432 -0.1078381 0.13522084
0.6078704 -0.10844655 0.13521115
0.60739648 -0.10905501 0.13520147
0.60692257 -0.10966346 0.13519178
0.60644871 -0.11027192 0.1351821
0.60529256 -0.11013017 0.13536698
0.60481936 -0.11073777 0.13535731
0.6043461 -0.11134539 0.13534763
0.60319263 -0.11120022 0.13553257
0.60272002 -0.11180698 0.1355229
0.60224748 -0.11241373 0.13551325
0.60177487 -0.11302048 0.13550359
0.60062468 -0.11287104 0.13568862
0.60015279 -0.11347694 0.13567898
0.5996809 -0.11408284 0.13566932
0.59853339 -0.11393003 0.13585438
0.5980621 -0.11453509 0.13584475
0.59691662 -0.11437971 0.13602987
0.59644604 -0.11498391 0.13602024
0.59597546 -0.11558811 0.13601063
0.59550488 -0.11619231 0.13600101
0.59503424 -0.11679652 0.13599139
0.59389275 -0.11663604 0.13617657
0.59342283 -0.11723939 0.13616697
0.59295285 -0.11784275 0.13615736
0.59181398 -0.11767883 0.13634263
0.59134471 -0.11828133 0.13633305
0.59087545 -0.11888383 0.13632345
0.59040618 -0.11948632 0.13631386
0.58993691 -0.12008882 0.13630427
0.58880198 -0.11991983 0.13648959
0.58833343 -0.12052149 0.13648
0.58786482 -0.12112313 0.13647044
0.5873962 -0.12172478 0.13646086
0.58626461 -0.12155154 0.13664624
0.58579665 -0.12215234 0.13663667
0.58532876 -0.12275314 0.13662711
0.58419979 -0.12257649 0.13681255
0.58373255 -0.12317643 0.136803
0.58260554 -0.12299725 0.13698848
0.58213896 -0.12359634 0.13697894
0.58167231 -0.12419544 0.1369694
0.58054799 -0.12401281 0.13715497
0.58008206 -0.12461104 0.13714544
0.57895976 -0.12442589 0.13733102
0.57783878 -0.12423903 0.13751663
0.57671911 -0.12405048 0.13770226
0.57625514 -0.12464618 0.13769278
0.5751375 -0.12445506 0.13787845
0.57467419 -0.1250499 0.13786897
0.57355845 -0.12485621 0.1380547
0.5730958 -0.12545019 0.13804525
0.57263315 -0.12604418 0.13803579
0.57217056 -0.12663817 0.13802634
0.57105815 -0.12644026 0.13821213
0.57059622 -0.1270334 0.13820268
0.57013422 -0.12762652 0.13819325
0.5690245 -0.12742521 0.13837908
0.5679161 -0.1272222 0.13856494
0.56745547 -0.12781362 0.13855553
0.56699485 -0.12840506 0.13854612
0.56653416 -0.12899651 0.13853671
0.56542903 -0.12878919 0.13872264
0.56496906 -0.12937976 0.13871326
0.56450909 -0.12997034 0.13870385
0.56404912 -0.13056093 0.13869445
0.56294733 -0.1303494 0.13888043
0.56248802 -0.13093913 0.13887106
0.56202871 -0.13152887 0.13886167
0.5609296 -0.13131393 0.13904771
0.5598318 -0.13109729 0.13923378
0.55873537 -0.13087894 0.1394199
0.55764014 -0.13065886 0.13960604
0.5571835 -0.13124521 0.13959672
0.55609035 -0.1310226 0.13978289
0.55499852 -0.13079831 0.1399691
0.55390805 -0.1305723 0.14015532
0.55345333 -0.13115609 0.14014602
0.55236483 -0.13092753 0.14033228
0.55191082 -0.13151045 0.14032301
0.55145681 -0.13209338 0.14031373
0.5510028 -0.1326763 0.14030445
0.54991752 -0.13244346 0.1404908
0.54883367 -0.13220896 0.14067717
0.54838097 -0.13279018 0.14066792
0.54513925 -0.13207383 0.14122722
0.54468858 -0.13265252 0.14121801
0.54235828 -0.13076612 0.14179595
0.54128367 -0.13051969 0.1419825
0.54021037 -0.13027152 0.14216909
0.53976297 -0.13084595 0.14215994
0.53931558 -0.13142036 0.1421508
0.53824496 -0.13116883 0.14233743
0.53672963 -0.13148831 0.14251497
0.65361512 0.041777894 0.14716652
0.65317827 0.041217092 0.14715759
0.65392572 0.038925767 0.14675386
0.65429747 0.037777517 0.14655192
0.65709531 0.034867913 0.14577104
0.65907943 0.032538876 0.14518304
0.66509879 0.027263373 0.14362995
0.66465008 0.026687255 0.14362077
0.66581434 0.024931204 0.14322555
0.66617018 0.023762567 0.1430233
0.66652471 0.022592189 0.14282103
0.66607332 0.022012666 0.14281181
0.66642582 0.020839773 0.14260949
0.66597378 0.020259401 0.14260025
0.66552174 0.019679027 0.14259101
0.66346592 0.020290537 0.14296803
0.66221404 0.020308642 0.14315197
0.66176397 0.019730821 0.14314276
0.66051406 0.019751476 0.14332673
0.65926546 0.019773835 0.14351073
0.65881675 0.019197717 0.14350156
0.65836805 0.018621599 0.14349239
0.65791935 0.018045479 0.14348322
0.65747058 0.017469361 0.14347404
0.65702188 0.016893243 0.14346488
0.65657318 0.016317125 0.1434557
0.65612447 0.015741007 0.14344653
0.65567571 0.015164888 0.14343736
0.65602028 0.013981784 0.14323489
0.65557086 0.013404815 0.1432257
0.65591341 0.012219157 0.14302319
0.65625465 0.011031797 0.14282066
0.65580398 0.010453126 0.14281145
0.65614325 0.0092631765 0.14260885
0.65569186 0.0086836545 0.14259963
0.65602911 0.0074911886 0.142397
0.65557706 0.0069108154 0.14238776
0.65591234 0.0057157967 0.14218511
0.65624624 0.0045190766 0.14198242
0.6565789 0.0033206169 0.14177969
0.65691018 0.0021204923 0.14157695
0.65724015 0.00091866608 0.14137417
0.65756881 -0.00028486602 0.1411714
0.6578961 -0.0014900962 0.14096858
0.65822208 -0.002697062 0.1407657
0.65776479 -0.0032842432 0.14075635
0.65730745 -0.0038714246 0.140747
0.6568501 -0.0044586053 0.14073765
0.65561271 -0.0044217478 0.14092191
0.64953279 -0.013853505 0.1405881
0.64830601 -0.013803029 0.14077257
0.64784932 -0.014389359 0.14076324
0.64739269 -0.01497569 0.14075391
0.64770347 -0.016202228 0.14055072
0.64801288 -0.017430434 0.14034753
0.64755487 -0.018018467 0.14033817
0.6486277 -0.019891955 0.13994107
0.64893311 -0.021125272 0.1397378
0.65076548 -0.023649182 0.1391467
0.65030348 -0.024242321 0.13913727
0.65212983 -0.026773889 0.13854602
0.65242797 -0.028016567 0.13834262
0.6527248 -0.029260941 0.13813917
0.65302026 -0.030507019 0.1379357
0.65331447 -0.031754833 0.13773218
0.65360731 -0.033004321 0.13752866
0.65314007 -0.033604264 0.13751911
0.65343088 -0.034856297 0.13731554
0.65296298 -0.035457097 0.13730597
0.65325183 -0.036711685 0.13710237
0.65278322 -0.037313335 0.13709278
0.6523146 -0.037914976 0.1370832
0.65184605 -0.038516626 0.13707364
0.65137744 -0.039118275 0.13706405
0.65166229 -0.040377971 0.13686037
0.65119302 -0.040980473 0.13685079
0.65072376 -0.041582972 0.13684119
0.65100604 -0.042846102 0.13663742
0.65053612 -0.043449454 0.13662782
0.6500662 -0.044052802 0.13661821
0.6503458 -0.0453193 0.13641442
0.64987522 -0.045923501 0.1364048
0.64940459 -0.046527702 0.13639519
0.64968157 -0.047797609 0.13619132
0.64921027 -0.04840266 0.1361817
0.64873904 -0.04900771 0.13617207
0.64826781 -0.049612764 0.13616243
0.64854139 -0.050886929 0.13595852
0.6480695 -0.051492829 0.13594888
0.64759755 -0.052098732 0.13593924
0.64786857 -0.053376332 0.13573524
0.64739603 -0.053983085 0.13572559
0.64692342 -0.054589838 0.13571592
0.64645088 -0.055196591 0.13570626
0.64597827 -0.055803347 0.1356966
0.64550567 -0.0564101 0.13568695
0.64577204 -0.057693623 0.13548288
0.64529878 -0.058301229 0.13547321
0.64482552 -0.058908831 0.13546354
0.64435232 -0.059516437 0.13545386
0.64387906 -0.060124043 0.13544419
0.6434058 -0.060731646 0.13543451
0.64293259 -0.061339248 0.13542484
0.6431936 -0.06262958 0.13522068
0.64271969 -0.06323804 0.13521099
0.64224577 -0.063846499 0.13520131
0.64177191 -0.06445495 0.13519162
0.641298 -0.06506341 0.13518193
0.64082408 -0.065671861 0.13517225
0.64035016 -0.06628032 0.13516256
0.63987631 -0.066888772 0.13515288
0.63940239 -0.067497231 0.13514319
0.63892847 -0.068105683 0.1351335
0.63845456 -0.068714142 0.13512382
0.63798064 -0.069322594 0.13511413
0.63750678 -0.069931045 0.13510445
0.63703287 -0.070539504 0.13509476
0.63655895 -0.071147963 0.13508508
0.63680935 -0.072451904 0.13488069
0.63633484 -0.073061213 0.13487099
0.63586026 -0.073670521 0.13486129
0.63538569 -0.07427983 0.13485159
0.63491112 -0.074889131 0.13484189
0.63443655 -0.075498439 0.13483219
0.63396198 -0.076107748 0.13482249
0.6334874 -0.076717056 0.13481279
0.63301283 -0.077326365 0.13480309
0.63253826 -0.077935666 0.13479339
0.63206369 -0.078544974 0.1347837
0.63158917 -0.079154283 0.134774
0.6311146 -0.079763591 0.1347643
0.6313557 -0.081079446 0.13455971
0.63088048 -0.081689604 0.13454999
0.63040525 -0.082299761 0.13454029
0.62993002 -0.082909927 0.13453057
0.62945479 -0.083520085 0.13452086
0.62897956 -0.084130235 0.13451114
0.62850434 -0.084740393 0.13450143
0.62802911 -0.085350551 0.13449173
0.62755388 -0.085960709 0.13448201
0.62707865 -0.086570866 0.1344723
0.62660342 -0.087181032 0.13446258
0.62683666 -0.088507131 0.13425781
0.62636077 -0.089118138 0.13424809
0.62588489 -0.089729145 0.13423836
0.62540901 -0.09034016 0.13422863
0.62493312 -0.090951167 0.1342189
0.62445718 -0.091562174 0.13420919
0.6239813 -0.092173181 0.13419946
0.62350541 -0.092784189 0.13418972
0.62302953 -0.093395203 0.13418001
0.62255365 -0.094006211 0.13417028
0.62207776 -0.094617218 0.13416055
0.62160188 -0.095228225 0.13415082
0.62112594 -0.095839232 0.1341411
0.62065005 -0.096450247 0.13413137
0.62017417 -0.097061254 0.13412164
0.61969829 -0.097672261 0.13411193
0.6192224 -0.098283269 0.1341022
0.61874652 -0.098894276 0.13409247
0.61827064 -0.09950529 0.13408273
0.61779475 -0.1001163 0.13407302
0.61662364 -0.099994339 0.13425861
0.61614841 -0.1006045 0.13424891
0.61567318 -0.10121465 0.1342392
0.61519796 -0.10182481 0.13422948
0.61472273 -0.10243497 0.13421977
0.6142475 -0.10304513 0.13421005
0.61377227 -0.10365529 0.13420035
0.61329705 -0.10426544 0.13419063
0.61282182 -0.1048756 0.13418092
0.61234659 -0.10548576 0.1341712
0.61118281 -0.10535447 0.13435693
0.61070824 -0.10596378 0.13434723
0.61023366 -0.10657309 0.13433753
0.60975909 -0.1071824 0.13432784
0.60928458 -0.1077917 0.13431814
0.60812479 -0.10765532 0.13450395
0.60765088 -0.10826377 0.13449426
0.60717696 -0.10887222 0.13448457
0.60670304 -0.10948068 0.13447489
0.60622919 -0.11008914 0.1344652
0.60507333 -0.10994764 0.13465108
0.60460013 -0.11055524 0.13464141
0.60412687 -0.11116286 0.13463174
0.60365361 -0.11177046 0.13462207
0.60250115 -0.1116247 0.13480803
0.60202855 -0.11223146 0.13479836
0.601556 -0.11283821 0.13478871
0.60040611 -0.11268903 0.13497475
0.59993416 -0.11329492 0.13496511
0.59946227 -0.11390083 0.13495545
0.59831506 -0.11374827 0.13514151
0.59784383 -0.11435332 0.13513188
0.59669864 -0.11419821 0.13531798
0.59622806 -0.1148024 0.13530837
0.59575742 -0.11540661 0.13529876
0.59528685 -0.1160108 0.13528913
0.59481627 -0.11661501 0.13527952
0.59367502 -0.11645479 0.13546571
0.59320509 -0.11705814 0.1354561
0.59273517 -0.1176615 0.1354465
0.59226525 -0.11826485 0.13543689
0.59112734 -0.11810033 0.13562317
0.59065807 -0.11870284 0.13561358
0.5901888 -0.11930533 0.13560399
0.58971953 -0.11990782 0.1355944
0.5885849 -0.11973909 0.13578071
0.58811635 -0.12034074 0.13577114
0.58764774 -0.12094239 0.13576156
0.58717912 -0.12154403 0.13575198
0.58604783 -0.12137105 0.13593838
0.58557993 -0.12197185 0.13592881
0.58511198 -0.12257265 0.13591924
0.58398336 -0.12239626 0.1361057
0.58351606 -0.1229962 0.13609615
0.58238941 -0.12281727 0.13628262
0.58192277 -0.12341637 0.13627309
0.58145618 -0.12401547 0.13626355
0.58033216 -0.12383308 0.13645011
0.57986623 -0.12443133 0.13644059
0.57874417 -0.12424643 0.13662717
0.57762355 -0.12405983 0.13681377
0.57650417 -0.12387153 0.1370004
0.57604021 -0.12446722 0.13699092
0.57492286 -0.12427636 0.1371776
0.57445955 -0.1248712 0.13716812
0.57334411 -0.12467777 0.13735487
0.57288152 -0.12527175 0.13734542
0.57241887 -0.12586574 0.13733596
0.57195622 -0.12645973 0.13732651
0.57084417 -0.12626207 0.13751329
0.57038218 -0.12685521 0.13750385
0.56992024 -0.12744834 0.1374944
0.56881082 -0.12724727 0.13768123
