# .PCD v0.7 - Point Cloud Data file format
VERSION 0.7
FIELDS x y z
SIZE 4 4 4
TYPE F F F
COUNT 1 1 1
WIDTH 1454
HEIGHT 1
VIEWPOINT 0 0 0 1 0 0 0
POINTS 1454
DATA ascii
0.47328821 0.18396047 0.12706254
0.47220474 0.18410908 0.12738144
0.47190517 0.18372442 0.12737532
0.47160557 0.18333977 0.1273692
0.471306 0.18295513 0.12736307
0.47100639 0.18257049 0.12735695
0.47070682 0.18218584 0.12735082
0.47040722 0.1818012 0.1273447
0.47010764 0.18141654 0.12733857
0.48738539 0.16818671 0.11984788
0.48629397 0.1683251 0.1201666
0.4859798 0.16792172 0.12016018
0.48566562 0.16751836 0.12015376
0.48535147 0.16711499 0.12014734
0.48581123 0.16616562 0.11981571
0.4854964 0.1657614 0.11980927
0.48518157 0.16535717 0.11980283
0.48486674 0.16495295 0.1197964
0.48378062 0.16509815 0.12011524
0.48346645 0.16469479 0.12010881
0.48315227 0.16429141 0.1201024
0.48360741 0.16333608 0.11977066
0.48329258 0.16293186 0.11976423
0.48297775 0.16252764 0.11975779
0.48343024 0.16156891 0.11942601
0.48311472 0.16116384 0.11941957
0.48279923 0.16075876 0.11941312
0.48248374 0.16035369 0.11940667
0.48216826 0.15994862 0.11940022
0.48185274 0.15954356 0.11939377
0.48153725 0.15913849 0.11938732
0.48122177 0.15873341 0.11938088
0.48090628 0.15832834 0.11937443
0.48059079 0.15792327 0.11936798
0.48027527 0.15751821 0.11936153
0.47995979 0.15711313 0.11935508
0.4796443 0.15670806 0.11934864
0.47932881 0.15630299 0.11934219
0.47901332 0.15589793 0.11933574
0.47869781 0.15549286 0.11932929
0.47838232 0.15508778 0.11932284
0.47806683 0.15468271 0.1193164
0.47775134 0.15427765 0.11930995
0.47743586 0.15387258 0.1193035
0.47712034 0.15346751 0.11929705
0.47680485 0.15306243 0.11929061
0.47648937 0.15265736 0.11928415
0.47617388 0.1522523 0.11927771
0.47585839 0.15184723 0.11927126
0.47554287 0.15144216 0.11926481
0.47522739 0.15103708 0.11925837
0.4749119 0.15063201 0.11925191
0.47459641 0.15022695 0.11924547
0.47428092 0.14982188 0.11923902
0.47396541 0.1494168 0.11923257
0.47364992 0.14901173 0.11922613
0.47333443 0.14860667 0.11921968
0.47301894 0.1482016 0.11921323
0.47270343 0.14779653 0.11920678
0.47238794 0.14739145 0.11920033
0.47207245 0.14698638 0.11919388
0.47175696 0.14658132 0.11918744
0.47144148 0.14617625 0.11918098
0.47112596 0.14577118 0.11917454
0.4715513 0.14477754 0.11884219
0.47123513 0.14437161 0.11883573
0.47091898 0.14396569 0.11882927
0.47060284 0.14355977 0.11882281
0.47102481 0.14256188 0.1184904
0.47070798 0.14215511 0.11848392
0.47039118 0.14174834 0.11847745
0.47007436 0.14134157 0.11847097
0.46975753 0.1409348 0.1184645
0.46944073 0.14052802 0.11845803
0.4691239 0.14012125 0.11845155
0.46880707 0.13971448 0.11844508
0.46849027 0.13930771 0.1184386
0.46817344 0.13890094 0.11843213
0.46785662 0.13849416 0.11842565
0.46753979 0.13808739 0.11841918
0.46722299 0.13768062 0.1184127
0.46690616 0.13727385 0.11840622
0.46658933 0.13686708 0.11839975
0.46627253 0.1364603 0.11839327
0.4659557 0.13605353 0.1183868
0.46563888 0.13564676 0.11838032
0.46532208 0.13523999 0.11837385
0.46500525 0.13483322 0.11836737
0.46468842 0.13442644 0.1183609
0.46437162 0.13401967 0.11835442
0.46405479 0.1336129 0.11834795
0.46373796 0.13320613 0.11834148
0.46342117 0.13279936 0.118335
0.46310434 0.13239259 0.11832853
0.46278751 0.13198581 0.11832204
0.46247068 0.13157904 0.11831557
0.46215388 0.13117227 0.1183091
0.462556 0.13014884 0.11797628
0.46223852 0.12974122 0.11796979
0.46192104 0.1293336 0.1179633
0.46160355 0.12892598 0.11795681
0.46200234 0.12789831 0.11762393
0.4616842 0.12748984 0.11761743
0.46136606 0.12708135 0.11761092
0.46104792 0.12667288 0.11760442
0.46072975 0.12626441 0.11759792
0.4611246 0.12523161 0.11726495
0.46080577 0.12482229 0.11725843
0.46048698 0.12441297 0.11725192
0.46016818 0.12400364 0.1172454
0.45984936 0.12359431 0.11723888
0.46024019 0.12255643 0.11690584
0.45992073 0.12214626 0.11689931
0.45960125 0.12173608 0.11689278
0.45928177 0.12132591 0.11688625
0.45896232 0.12091573 0.11687972
0.45934919 0.11987274 0.1165466
0.45902905 0.11946172 0.11654006
0.45870891 0.11905069 0.11653352
0.45838878 0.11863966 0.11652697
0.45877233 0.1175924 0.11619377
0.45845154 0.11718053 0.11618721
0.4588331 0.11613073 0.11585398
0.45851165 0.115718 0.11584741
0.45889124 0.11466564 0.11551412
0.45856911 0.11425206 0.11550754
0.45894668 0.11319716 0.11517423
0.45862392 0.11278273 0.11516763
0.45830113 0.1123683 0.11516104
0.45867607 0.11130998 0.11482766
0.45835263 0.11089469 0.11482105
0.45802918 0.11047941 0.11481444
0.45840144 0.10941771 0.11448101
0.45807734 0.10900157 0.11447439
0.45775321 0.10858544 0.11446776
0.45742911 0.1081693 0.11446114
0.45779809 0.10710334 0.11412765
0.45747331 0.10668635 0.11412101
0.45784029 0.10561782 0.11378747
0.45751485 0.10519999 0.11378082
0.45787984 0.10412892 0.11344725
0.45755374 0.10371023 0.11344059
0.45722765 0.10329155 0.11343392
0.45759001 0.10221706 0.11310028
0.45795101 0.10114088 0.11276663
0.4576236 0.10072049 0.11275994
0.45798263 0.099641748 0.11242624
0.45765454 0.099220507 0.11241953
0.45732647 0.098799266 0.11241283
0.45699838 0.098378032 0.11240612
0.45735407 0.097295046 0.11207236
0.45702532 0.096872956 0.11206564
0.45737904 0.095787421 0.11173183
0.45704964 0.095364481 0.11172511
0.45740139 0.094276376 0.11139125
0.4570713 0.093852587 0.1113845
0.45742106 0.092761941 0.11105062
0.45709032 0.092337303 0.11104386
0.45743805 0.091244109 0.11070994
0.45778453 0.090149172 0.11037597
0.45812964 0.089052573 0.11004199
0.45847341 0.087954275 0.10970799
0.45881587 0.086854272 0.10937396
0.45848182 0.086425371 0.10936712
0.45882228 0.085322812 0.10903306
0.45916146 0.084218524 0.10869893
0.45882607 0.083787926 0.10869208
0.45916322 0.082681119 0.10835794
0.45949903 0.0815726 0.10802377
0.45916235 0.081140302 0.10801689
0.45949617 0.080029234 0.10768268
0.45982873 0.07891643 0.10734843
0.4601599 0.077801958 0.10701416
0.45982122 0.077367105 0.10700724
0.46015042 0.076250084 0.10667294
0.46047828 0.075131357 0.10633861
0.46080482 0.074010931 0.10600425
0.46113008 0.072888762 0.10566985
0.46145397 0.071764939 0.10533544
0.46177652 0.070639402 0.105001
0.46209776 0.069512174 0.10466653
0.46241772 0.068383195 0.10433201
0.46273631 0.067252561 0.1039975
0.46305358 0.066120215 0.10366295
0.46336952 0.064986177 0.10332838
0.46368414 0.06385044 0.10299378
0.46399748 0.062712952 0.10265913
0.46430942 0.061573803 0.10232447
0.46462005 0.060432956 0.10198979
0.46427143 0.059985332 0.10198267
0.46458009 0.058841936 0.10164794
0.46488741 0.057696827 0.1013132
0.46453744 0.057247508 0.10130604
0.46418747 0.056798182 0.10129889
0.4644922 0.055649642 0.10096406
0.46348757 0.055899538 0.10128459
0.4631376 0.05545022 0.10127743
0.46278763 0.055000901 0.10127028
0.46243769 0.054551575 0.10126313
0.46208772 0.054102257 0.10125598
0.46173775 0.053652938 0.10124882
0.46138781 0.053203613 0.10124167
0.46103784 0.052754294 0.10123452
0.46068788 0.052304972 0.10122737
0.46033794 0.05185565 0.10122021
0.45998797 0.051406328 0.10121306
0.45864204 0.051217936 0.10152658
0.45829275 0.050769467 0.10151944
0.45794344 0.050320994 0.10151231
0.45595813 0.050851371 0.10215379
0.45561016 0.050404601 0.10214668
0.52112371 0.22104721 0.12211634
0.52081287 0.22064808 0.12210999
0.52135986 0.21981128 0.12177913
0.52104831 0.21941131 0.12177276
0.52073681 0.21901135 0.1217664
0.52042526 0.21861139 0.12176003
0.52011377 0.21821141 0.12175366
0.51980227 0.21781145 0.12174729
0.51863688 0.21785429 0.12206551
0.51832604 0.21745518 0.12205916
0.51801521 0.21705607 0.12205281
0.51770431 0.21665695 0.12204646
0.51739347 0.21625784 0.1220401
0.51623213 0.21630576 0.12235839
0.51592189 0.2159075 0.12235205
0.51561171 0.21550925 0.12234571
0.51530153 0.21511099 0.12233938
0.51414347 0.21516319 0.12265775
0.51383394 0.21476577 0.12265141
0.51352441 0.21436836 0.12264509
0.51321489 0.21397094 0.12263876
0.51290536 0.21357355 0.12263244
0.51259583 0.21317613 0.12262611
0.51144242 0.21323428 0.12294456
0.51113355 0.21283771 0.12293825
0.51082468 0.21244115 0.12293194
0.51051581 0.21204458 0.12292563
0.51020694 0.21164803 0.12291931
0.50989807 0.21125147 0.122913
0.5095892 0.2108549 0.12290669
0.50928032 0.21045835 0.12290038
0.50813287 0.21052414 0.12321895
0.50782472 0.21012844 0.12321266
0.5075165 0.20973273 0.12320635
0.50720829 0.20933703 0.12320006
0.50606412 0.20940709 0.12351871
0.50575662 0.20901224 0.12351242
0.50544906 0.20861737 0.12350614
0.50430757 0.20869084 0.12382483
0.50400072 0.20829682 0.12381856
0.50369382 0.20790282 0.1238123
0.50338697 0.2075088 0.12380602
0.50308007 0.2071148 0.12379975
0.50277317 0.20672078 0.12379348
0.50163633 0.20680022 0.12411228
0.50133014 0.20640707 0.12410602
0.50102389 0.20601392 0.12409976
0.5007177 0.20562075 0.1240935
0.49958417 0.20570442 0.12441237
0.4992786 0.20531212 0.12440612
0.49897304 0.20491982 0.12439988
0.49866751 0.20452751 0.12439363
0.49836195 0.20413521 0.12438739
0.49805638 0.20374289 0.12438114
0.49775085 0.20335059 0.1243749
0.49662259 0.20344108 0.12469388
0.49631771 0.20304963 0.12468765
0.49601281 0.20265818 0.12468141
0.49488723 0.20275207 0.12500043
0.49458301 0.20236146 0.12499422
0.49427879 0.20197086 0.124988
0.49397457 0.20158026 0.12498178
0.49367034 0.20118965 0.12497557
0.49336612 0.20079905 0.12496935
0.4930619 0.20040844 0.12496313
0.49275768 0.20001784 0.12495691
0.49163806 0.20011938 0.12527606
0.4913345 0.19972962 0.12526986
0.49103093 0.19933988 0.12526365
0.49072737 0.19895013 0.12525745
0.4904238 0.19856037 0.12525125
0.49012023 0.19817062 0.12524503
0.48900524 0.19827813 0.12556429
0.48870236 0.19788922 0.12555809
0.48839945 0.19750033 0.12555191
0.48809654 0.19711143 0.12554571
0.48779365 0.19672252 0.12553953
0.48749074 0.19633363 0.12553334
0.48718786 0.19594473 0.12552714
0.48688495 0.19555582 0.12552096
0.48658204 0.19516692 0.12551476
0.48627916 0.19477803 0.12550858
0.48597625 0.19438912 0.12550238
0.48567334 0.19400021 0.12549619
0.48537046 0.19361132 0.12548999
0.48396251 0.19334269 0.12580325
0.48366028 0.19295463 0.12579708
0.48335806 0.19256657 0.12579089
0.4830558 0.19217853 0.12578472
0.48275357 0.19179048 0.12577854
0.48245132 0.19140244 0.12577237
0.48214909 0.19101438 0.12576619
0.48184687 0.19062632 0.12576002
0.48154461 0.19023828 0.12575383
0.48124239 0.18985023 0.12574767
0.48094013 0.18946218 0.12574148
0.47984305 0.18959266 0.1260611
0.47954148 0.18920547 0.12605494
0.47923991 0.18881828 0.12604877
0.47893831 0.18843107 0.1260426
0.47863674 0.18804388 0.12603645
0.47754365 0.18817945 0.12635612
0.47724274 0.18779311 0.12634999
0.47694182 0.18740675 0.12634383
0.47664091 0.18702041 0.12633768
0.47634 0.18663406 0.12633154
0.47603908 0.18624771 0.12632538
0.47495061 0.18638927 0.12664518
0.47465035 0.18600376 0.12663904
0.47435012 0.18561827 0.1266329
0.47404987 0.18523277 0.12662676
0.47374961 0.18484728 0.12662062
0.47344938 0.18446177 0.1266145
0.47236556 0.18460926 0.12693436
0.47206596 0.18422462 0.12692824
0.47176638 0.18383998 0.12692212
0.47146678 0.18345533 0.12691601
0.47008735 0.18322328 0.12722984
0.48818403 0.1695208 0.11939093
0.4878692 0.16911657 0.11938449
0.48755437 0.16871236 0.11937806
0.48723954 0.16830814 0.11937162
0.48692471 0.16790392 0.11936519
0.48660988 0.16749971 0.11935876
0.48629504 0.16709548 0.11935232
0.48598021 0.16669126 0.11934589
0.48566538 0.16628705 0.11933945
0.48535055 0.16588283 0.11933301
0.48503572 0.1654786 0.11932658
0.48472089 0.16507439 0.11932015
0.48440605 0.16467017 0.11931372
0.48409122 0.16426595 0.11930728
0.48377639 0.16386174 0.11930084
0.48423055 0.1629058 0.1189681
0.48391506 0.16250072 0.11896165
0.48359957 0.16209567 0.1189552
0.48405108 0.16113631 0.11862239
0.48373494 0.16073039 0.11861593
0.48341879 0.16032447 0.11860947
0.48310262 0.15991855 0.11860301
0.48278648 0.15951262 0.11859655
0.4824703 0.1591067 0.11859009
0.48215416 0.15870078 0.11858362
0.48183799 0.15829486 0.11857716
0.48152184 0.15788895 0.1185707
0.48120567 0.15748303 0.11856424
0.48088953 0.1570771 0.11855777
0.48057339 0.15667118 0.11855131
0.48025721 0.15626526 0.11854485
0.47994107 0.15585934 0.11853839
0.4796249 0.15545341 0.11853193
0.47930875 0.15504749 0.11852547
0.47899258 0.15464157 0.11851901
0.47867644 0.15423566 0.11851255
0.47836027 0.15382974 0.11850608
0.47804412 0.15342382 0.11849962
0.47772798 0.15301789 0.11849316
0.47741181 0.15261197 0.1184867
0.47709566 0.15220605 0.11848024
0.47677949 0.15180013 0.11847378
0.47646335 0.1513942 0.11846732
0.47614717 0.15098828 0.11846086
0.47583103 0.15058237 0.11845439
0.47551486 0.15017645 0.11844793
0.47519872 0.14977053 0.11844147
0.47488254 0.14936461 0.11843501
0.4745664 0.14895868 0.11842854
0.47425026 0.14855276 0.11842208
0.47393408 0.14814684 0.11841562
0.47361794 0.14774092 0.11840916
0.47330177 0.14733499 0.1184027
0.47298563 0.14692909 0.11839624
0.47266945 0.14652316 0.11838978
0.47235331 0.14611724 0.11838332
0.47203714 0.14571132 0.11837685
0.47172099 0.1453054 0.11837039
0.47140485 0.14489947 0.11836393
0.47108868 0.14449355 0.11835747
0.47077253 0.14408763 0.11835101
0.47119486 0.14309086 0.11801761
0.47087803 0.14268409 0.11801114
0.47056124 0.14227732 0.11800466
0.47024441 0.14187054 0.11799819
0.47066346 0.14086948 0.11766472
0.47034597 0.14046186 0.11765823
0.47002849 0.14005424 0.11765174
0.46971101 0.13964662 0.11764525
0.46939352 0.139239 0.11763876
0.46907604 0.13883138 0.11763227
0.46875855 0.13842376 0.11762578
0.4684411 0.13801613 0.11761929
0.46812361 0.1376085 0.1176128
0.46780613 0.13720088 0.11760632
0.46748865 0.13679326 0.11759983
0.46717116 0.13638563 0.11759334
0.46685368 0.13597801 0.11758685
0.46653619 0.13557039 0.11758036
0.46621871 0.13516277 0.11757387
0.46590123 0.13475515 0.11756738
0.46558374 0.13434753 0.11756089
0.46526626 0.13393991 0.1175544
0.46494877 0.13353227 0.11754792
0.46463129 0.13312465 0.11754143
0.46431381 0.13271703 0.11753494
0.46399635 0.13230941 0.11752845
0.46367887 0.13190179 0.11752196
0.46336138 0.13149416 0.11751547
0.4630439 0.13108654 0.11750899
0.46272641 0.13067892 0.1175025
0.46240893 0.1302713 0.11749601
0.46280938 0.12924643 0.11716217
0.46249124 0.12883796 0.11715566
0.4621731 0.12842949 0.11714916
0.46185496 0.12802102 0.11714266
0.46153682 0.12761253 0.11713616
0.46121868 0.12720406 0.11712965
0.46161452 0.12617323 0.1167957
0.46129572 0.12576391 0.11678919
0.4609769 0.12535457 0.11678267
0.46137008 0.12432036 0.11644869
0.46105063 0.12391018 0.11644216
0.46073115 0.1235 0.11643562
0.46041167 0.12308983 0.1164291
0.46009222 0.12267966 0.11642257
0.45977274 0.12226948 0.11641604
0.45945325 0.1218593 0.11640951
0.4591338 0.12144913 0.11640298
0.459521 0.12040725 0.11606887
0.45920089 0.11999622 0.11606233
0.45888075 0.11958519 0.11605579
0.45856062 0.11917417 0.11604924
0.45894453 0.11812802 0.11571505
0.45862374 0.11771613 0.11570849
0.45900565 0.11666745 0.11537427
0.45868418 0.11625472 0.1153677
0.45906413 0.11520346 0.11503343
0.45874202 0.11478988 0.11502684
0.45911995 0.11373609 0.11469254
0.45879716 0.11332165 0.11468595
0.45847437 0.11290723 0.11467934
0.45815158 0.1124928 0.11467275
0.45852622 0.11143473 0.11433837
0.45820278 0.11101945 0.11433176
0.45787933 0.11060417 0.11432514
0.4582513 0.10954271 0.11399072
0.4579272 0.10912658 0.1139841
0.4576031 0.10871045 0.11397747
0.45797241 0.10764559 0.11364299
0.45764762 0.10722861 0.11363635
0.45801497 0.10616118 0.11330182
0.45768955 0.10574335 0.11329518
0.45805487 0.10467338 0.11296061
0.45772877 0.10425469 0.11295395
0.45809215 0.10318216 0.11261934
0.4577654 0.10276262 0.11261266
0.45812675 0.10168756 0.11227801
0.45779935 0.10126717 0.11227132
0.45815873 0.10018953 0.11193663
0.45783064 0.099768296 0.11192992
0.45750257 0.099347055 0.11192322
0.45785928 0.098266028 0.11158849
0.45753053 0.097843938 0.11158177
0.45720178 0.097421847 0.11157504
0.45755586 0.096337423 0.11124026
0.45722646 0.095914476 0.11123352
0.45757857 0.094827481 0.11089868
0.45724848 0.094403684 0.11089194
0.45759857 0.093314148 0.11055706
0.45726785 0.09288951 0.11055031
0.45761594 0.091797419 0.1102154
0.45728454 0.091371931 0.11020862
0.45830822 0.089608103 0.10954547
0.45865235 0.088510908 0.10921047
0.45831898 0.088082865 0.10920366
0.45866111 0.086983114 0.10886862
0.45900193 0.085881665 0.10853356
0.45934147 0.08477848 0.10819845
0.4590061 0.084347874 0.10819159
0.45934358 0.083242178 0.10785647
0.45967978 0.082134768 0.10752131
0.45934308 0.081702463 0.10751443
0.45967725 0.080592513 0.10717923
0.46001017 0.079480812 0.10684399
0.45967212 0.079046808 0.10683708
0.46000302 0.077932596 0.10650182
0.46033257 0.076816678 0.10616653
0.46066079 0.075699061 0.10583121
0.46032077 0.075262502 0.10582425
0.46064699 0.074142337 0.1054889
0.46163753 0.072335958 0.10482506
0.46196046 0.071211532 0.10448963
0.4616178 0.070771575 0.10448263
0.46193874 0.069644593 0.10414717
0.46225837 0.068515874 0.10381165
0.46257666 0.067385495 0.10347612
0.46289361 0.066253409 0.10314058
0.46320924 0.065119624 0.102805
0.46352357 0.063984141 0.10246939
0.46383658 0.062846914 0.10213374
0.46414822 0.061708018 0.10179809
0.46445855 0.060567424 0.1014624
0.46476758 0.059425127 0.10112669
0.46507522 0.058281127 0.10079096
0.46472529 0.057831809 0.1007838
0.465031 0.056685217 0.100448
0.4646804 0.056235045 0.10044083
0.46432978 0.055784877 0.10043367
0.46397915 0.055334706 0.1004265
0.46297547 0.055585198 0.10074804
0.46262553 0.05513588 0.10074089
0.46227556 0.054686554 0.10073373
0.4619256 0.054237235 0.10072658
0.46157566 0.053787917 0.10071943
0.46122569 0.053338591 0.10071228
0.46152478 0.052183498 0.10037634
0.46017581 0.051990628 0.10069082
0.45982584 0.05154131 0.10068367
0.4594759 0.051091991 0.10067651
0.45912594 0.050642665 0.10066936
0.45778164 0.050455719 0.10098391
0.45678863 0.050719801 0.10130564
0.45579693 0.050985582 0.1016274
0.5209797 0.2211671 0.1216461
0.52066886 0.22076799 0.12163974
0.52121556 0.21993142 0.12130789
0.520904 0.21953146 0.12130152
0.52059251 0.2191315 0.12129515
0.52028096 0.21873154 0.12128878
0.51996946 0.21833158 0.12128242
0.51965797 0.21793161 0.12127605
0.51849288 0.21797419 0.12159528
0.51818204 0.21757507 0.12158892
0.5178712 0.21717596 0.12158257
0.5175603 0.21677686 0.12157621
0.51724946 0.21637774 0.12156986
0.51608843 0.2164254 0.12188915
0.51577824 0.21602714 0.12188282
0.515468 0.21562889 0.12187648
0.51515782 0.21523063 0.12187014
0.51400006 0.21528257 0.12218951
0.51369053 0.21488516 0.12218318
0.513381 0.21448775 0.12217686
0.51307148 0.21409033 0.12217053
0.51276195 0.21369293 0.1221642
0.51245242 0.21329552 0.12215788
0.51129931 0.2133534 0.12247734
0.51099044 0.21295685 0.12247102
0.51068157 0.21256028 0.12246471
0.51037276 0.21216372 0.1224584
0.51006389 0.21176717 0.12245209
0.50975502 0.2113706 0.12244577
0.50944614 0.21097404 0.12243946
0.50913727 0.21057747 0.12243315
0.50799012 0.21064302 0.12275273
0.50768191 0.21024731 0.12274643
0.50737375 0.20985161 0.12274013
0.50706553 0.20945589 0.12273383
0.50592166 0.2095257 0.12305348
0.50561416 0.20913085 0.1230472
0.5053066 0.20873599 0.12304091
0.50499904 0.20834114 0.12303463
0.50385857 0.20841518 0.12335435
0.50355166 0.20802118 0.12334807
0.50324476 0.20762718 0.1233418
0.50293791 0.20723316 0.12333553
0.50263101 0.20683916 0.12332926
0.50232416 0.20644514 0.12332299
0.50118828 0.20652518 0.1236428
0.50088203 0.20613202 0.12363654
0.50057584 0.20573886 0.12363029
0.50026959 0.20534571 0.12362403
0.4999634 0.20495255 0.12361777
0.49965718 0.2045594 0.12361151
0.49935097 0.20416623 0.12360525
0.49822041 0.20425306 0.12392517
0.49791485 0.20386074 0.12391893
0.49760929 0.20346844 0.12391268
0.49730375 0.20307614 0.12390643
0.49617648 0.20316723 0.12422643
0.49587157 0.20277578 0.1242202
0.4955667 0.20238432 0.12421397
0.49526182 0.20199287 0.12420774
0.49413785 0.20208819 0.12452779
0.49383363 0.20169759 0.12452158
0.49352941 0.20130698 0.12451535
0.49322519 0.20091638 0.12450913
0.49292096 0.20052579 0.12450292
0.49261674 0.20013519 0.1244967
0.49231252 0.19974458 0.12449048
0.49119386 0.19984671 0.12481064
0.49089029 0.19945696 0.12480444
0.49058676 0.19906721 0.12479824
0.49028319 0.19867745 0.12479203
0.48997962 0.19828771 0.12478583
0.48967606 0.19789796 0.12477963
0.48937249 0.1975082 0.12477342
0.48825914 0.19761716 0.1250937
0.48795623 0.19722825 0.12508751
0.48765334 0.19683936 0.12508132
0.48735043 0.19645046 0.12507513
0.48704752 0.19606155 0.12506893
0.48674464 0.19567266 0.12506275
0.48644173 0.19528376 0.12505655
0.48613882 0.19489485 0.12505037
0.48583594 0.19450594 0.12504418
0.48553303 0.19411705 0.12503798
0.48523012 0.19372815 0.1250318
0.48492724 0.19333924 0.1250256
0.48382249 0.19345926 0.12534605
0.48352027 0.1930712 0.12533987
0.48321804 0.19268315 0.1253337
0.48291579 0.1922951 0.12532751
0.48261356 0.19190705 0.12532134
0.48231131 0.19151901 0.12531516
0.48200908 0.19113095 0.12530899
0.48170686 0.19074291 0.12530281
0.4814046 0.19035485 0.12529664
0.48110238 0.1899668 0.12529045
0.48080012 0.18957876 0.12528428
0.47970334 0.18970898 0.1256049
0.47940177 0.18932179 0.12559873
0.4791002 0.18893459 0.12559257
0.47879863 0.18854739 0.12558641
0.47849706 0.1881602 0.12558024
0.47740427 0.18829551 0.12590092
0.47710335 0.18790917 0.12589478
0.47680244 0.18752281 0.12588863
0.47650152 0.18713647 0.12588248
0.47620061 0.18675011 0.12587634
0.4758997 0.18636377 0.12587018
0.47481152 0.18650506 0.12619098
0.47451127 0.18611957 0.12618484
0.47421104 0.18573408 0.1261787
0.47391078 0.18534859 0.12617257
0.47361052 0.18496308 0.12616643
0.47331029 0.18457758 0.12616029
0.47222677 0.18472482 0.12648118
0.47192717 0.18434018 0.12647505
0.47162759 0.18395554 0.12646893
0.47132802 0.18357088 0.1264628
0.4894478 0.16991368 0.11860046
0.48913231 0.16950861 0.11859401
0.4888168 0.16910353 0.11858756
0.48850131 0.16869846 0.11858112
0.48818582 0.1682934 0.11857466
0.48787034 0.16788833 0.11856822
0.48755482 0.16748326 0.11856177
0.48723933 0.16707818 0.11855532
0.48692384 0.16667311 0.11854887
0.48660836 0.16626805 0.11854243
0.48629287 0.16586298 0.11853598
0.48597735 0.1654579 0.11852953
0.48566186 0.16505283 0.11852308
0.48534638 0.16464777 0.11851663
0.48503089 0.1642427 0.11851019
0.4847154 0.16383763 0.11850373
0.48439988 0.16343255 0.11849729
0.48485312 0.16247602 0.11816352
0.48453695 0.1620701 0.11815706
0.4842208 0.16166417 0.11815059
0.48390463 0.16125825 0.11814413
0.48358849 0.16085233 0.11813767
0.48327231 0.16044641 0.11813121
0.48295617 0.16004048 0.11812475
0.48264 0.15963456 0.11811829
0.48232386 0.15922865 0.11811183
0.48200771 0.15882273 0.11810537
0.48169154 0.15841681 0.1180989
0.4813754 0.15801089 0.11809244
0.48105922 0.15760496 0.11808598
0.48074308 0.15719904 0.11807952
0.48042691 0.15679312 0.11807305
0.48011076 0.15638719 0.11806659
0.47979459 0.15598127 0.11806013
0.47947845 0.15557536 0.11805367
0.47916228 0.15516944 0.11804721
0.47884613 0.15476352 0.11804075
0.47852999 0.1543576 0.11803429
0.47821382 0.15395167 0.11802783
0.47789767 0.15354575 0.11802136
0.4775815 0.15313983 0.1180149
0.47726536 0.15273391 0.11800844
0.47694919 0.15232798 0.11800198
0.47663304 0.15192208 0.11799552
0.47631687 0.15151615 0.11798906
0.47600073 0.15111023 0.1179826
0.47568458 0.15070431 0.11797614
0.47536841 0.15029839 0.11796967
0.47505227 0.14989246 0.11796321
0.47473609 0.14948654 0.11795675
0.47441995 0.14908062 0.11795029
0.47410378 0.1486747 0.11794382
0.47378764 0.14826879 0.11793736
0.47347146 0.14786287 0.1179309
0.47315532 0.14745694 0.11792444
0.47283918 0.14705102 0.11791798
0.472523 0.1466451 0.11791152
0.47220686 0.14623918 0.11790506
0.4726322 0.14524691 0.11757073
0.47231537 0.14484014 0.11756425
0.47199857 0.14443336 0.11755778
0.47168174 0.14402659 0.1175513
0.47136492 0.14361982 0.11754483
0.47104812 0.14321305 0.11753835
0.47146884 0.1422148 0.11720391
0.47115135 0.14180718 0.11719742
0.47083387 0.14139956 0.11719094
0.47051638 0.14099194 0.11718445
0.4701989 0.14058432 0.11717796
0.46988142 0.1401767 0.11717147
0.46956393 0.13976908 0.11716498
0.46924645 0.13936146 0.11715849
0.46892896 0.13895382 0.11715201
0.46861151 0.1385462 0.11714552
0.46829402 0.13813858 0.11713903
0.46797654 0.13773096 0.11713254
0.46838862 0.13672167 0.11679794
0.46807048 0.1363132 0.11679143
0.46775234 0.13590473 0.11678494
0.4674342 0.13549624 0.11677843
0.46711606 0.13508777 0.11677193
0.46679789 0.1346793 0.11676542
0.46647975 0.13427083 0.11675893
0.46616161 0.13386236 0.11675242
0.46584347 0.13345388 0.11674592
0.46552533 0.13304541 0.11673942
0.46520719 0.13263693 0.11673292
0.46488902 0.13222846 0.11672641
0.46457088 0.13181998 0.11671991
0.46425274 0.13141151 0.11671341
0.4639346 0.13100304 0.11670691
0.46361646 0.13059457 0.1167004
0.46329832 0.1301861 0.11669391
0.46298015 0.12977761 0.1166874
0.46266201 0.12936914 0.1166809
0.46234387 0.12896067 0.1166744
0.46274206 0.12793349 0.1163395
0.46242326 0.12752417 0.11633299
0.46210444 0.12711485 0.11632647
0.46178564 0.12670551 0.11631995
0.46146685 0.12629619 0.11631344
0.46114802 0.12588687 0.11630692
0.46154156 0.12485375 0.11597194
0.46122208 0.12444358 0.11596541
0.46090263 0.12403341 0.11595888
0.46058315 0.12362323 0.11595235
0.46026367 0.12321305 0.11594582
0.46065325 0.12217483 0.11561076
0.46033311 0.1217638 0.11560422
0.46001297 0.12135278 0.11559768
0.45969284 0.12094175 0.11559114
0.4593727 0.12053072 0.1155846
0.45905256 0.1201197 0.11557805
0.45943752 0.1190755 0.11524288
0.45911673 0.11866362 0.11523633
0.45879593 0.11825175 0.11522977
0.45917818 0.11720416 0.11489455
0.45885673 0.11679143 0.11488799
0.45923704 0.11574128 0.11455273
0.45891491 0.11532771 0.11454614
0.45929319 0.11427502 0.11421085
0.45897043 0.11386058 0.11420425
0.45864764 0.11344615 0.11419766
0.45832485 0.11303173 0.11419106
0.45869985 0.11197477 0.11385569
0.45837641 0.11155948 0.11384908
0.45805296 0.1111442 0.11384246
0.45842528 0.11008386 0.11350705
0.45879626 0.10902181 0.11317161
0.45847151 0.10860483 0.11316498
0.45814672 0.10818784 0.11315834
0.45851511 0.10712237 0.11282283
0.45818967 0.10670453 0.11281618
0.45786422 0.1062867 0.11280953
0.45822993 0.10521784 0.11247398
0.45790383 0.10479916 0.11246732
0.45826754 0.10372773 0.11213171
0.45794079 0.10330819 0.11212504
0.4583025 0.10223423 0.11178941
0.45797509 0.10181385 0.11178271
0.45833483 0.10073731 0.11144703
0.45800674 0.10031608 0.11144032
0.45836449 0.09923701 0.11110462
0.45803574 0.09881492 0.11109789
0.45770699 0.098392829 0.11109117
0.45806208 0.097310357 0.11075541
0.45773268 0.096887417 0.11074868
0.45740327 0.096464477 0.11074194
0.45775571 0.095378585 0.11040612
0.45742565 0.094954789 0.11039937
0.4577761 0.093866363 0.11006351
0.45744535 0.093441717 0.11005675
0.45779383 0.092350736 0.10972085
0.45746243 0.091925241 0.10971407
0.45848683 0.090163633 0.10904894
0.45883131 0.089067541 0.10871296
0.45849791 0.088639498 0.10870615
0.45884043 0.087540857 0.10837012
0.45918158 0.086440511 0.10803407
0.45884687 0.086010769 0.10802723
0.45918611 0.084907837 0.10769112
0.45952398 0.083803236 0.107355
0.4598605 0.082696937 0.10701885
0.4595238 0.082264632 0.10701197
0.45985833 0.081155784 0.10667578
0.46019161 0.080045201 0.10633955
0.46052349 0.078932941 0.10600331
0.46018481 0.078498088 0.10599639
0.46051469 0.077383272 0.1056601
0.46017537 0.07694757 0.10565317
0.46050328 0.075830206 0.10531685
0.46082985 0.074711144 0.1049805
0.46115518 0.073590338 0.1046441
0.4614791 0.072467871 0.1043077
0.46180174 0.071343705 0.10397127
0.46212301 0.070217825 0.10363481
0.46244302 0.069090217 0.10329831
0.46276167 0.06796094 0.10296179
0.46307898 0.066829965 0.10262526
0.46339497 0.065697283 0.10228869
0.46370962 0.064562909 0.1019521
0.46402299 0.063426793 0.10161546
0.46433499 0.062289 0.10127881
0.46464568 0.061149515 0.10094214
0.46495506 0.060008321 0.10060544
0.4652631 0.058865432 0.10026871
0.46491313 0.058416106 0.10026156
0.4652192 0.057270631 0.099924766
0.46486858 0.056820456 0.099917598
0.46451798 0.056370284 0.099910438
0.46416736 0.055920113 0.099903271
0.46381673 0.055469941 0.099896103
0.46346611 0.05501977 0.099888936
0.46246341 0.055270862 0.10021149
0.46276486 0.054119423 0.099874608
0.4617635 0.054372218 0.10019719
0.46141353 0.053922899 0.10019004
0.46106356 0.053473573 0.10018288
0.46136236 0.052318733 0.099845938
0.46001369 0.05212561 0.10016143
0.45966375 0.051676288 0.10015427
0.45931378 0.05122697 0.10014712
0.45896381 0.050777644 0.10013997
0.45761982 0.050590444 0.10045552
0.45662713 0.050854273 0.10077826
0.45692122 0.04969351 0.10044124
0.52052486 0.22088788 0.12116951
0.52021402 0.22048877 0.12116316
0.51990318 0.22008966 0.1211568
0.52044821 0.21925165 0.12082391
0.52013665 0.21885169 0.12081754
0.51982516 0.21845172 0.12081118
0.51865971 0.21849321 0.12113139
0.51834887 0.21809408 0.12112503
0.51803803 0.21769497 0.12111869
0.5177272 0.21729586 0.12111233
0.5174163 0.21689676 0.12110598
0.51710546 0.21649764 0.12109962
0.51594472 0.21654505 0.12141992
0.51563454 0.2161468 0.12141358
0.51532435 0.21574853 0.12140724
0.51501417 0.21535027 0.1214009
0.51385671 0.21540196 0.12172128
0.51354718 0.21500455 0.12171495
0.51323766 0.21460713 0.12170862
0.51292813 0.21420972 0.1217023
0.5126186 0.21381231 0.12169597
0.51230907 0.21341491 0.12168965
0.51115626 0.21347253 0.1220101
0.51084739 0.21307597 0.12200379
0.51053852 0.2126794 0.12199748
0.51022965 0.21228285 0.12199116
0.50992078 0.21188629 0.12198485
0.5096119 0.21148974 0.12197854
0.50930303 0.21109317 0.12197223
0.50899416 0.21069661 0.12196591
0.50784737 0.21076189 0.1222865
0.50753915 0.21036619 0.1222802
0.50723094 0.20997047 0.1222739
0.50692272 0.20957477 0.1222676
0.50577921 0.20964433 0.12258826
0.50547165 0.20924947 0.12258197
0.50516415 0.20885462 0.12257569
0.50485659 0.20845975 0.1225694
0.50454903 0.2080649 0.12256312
0.50424153 0.20767003 0.12255684
0.5031026 0.20774554 0.12287758
0.50279576 0.20735152 0.1228713
0.50248885 0.20695752 0.12286504
0.50218201 0.20656352 0.12285876
0.5018751 0.2061695 0.12285249
0.50156826 0.2057755 0.12284622
0.50126135 0.2053815 0.12283994
0.50012779 0.20546381 0.12316081
0.49982154 0.20507066 0.12315455
0.49951532 0.20467751 0.12314829
0.49920911 0.20428434 0.12314203
0.49890292 0.20389119 0.12313578
0.49777332 0.2039786 0.12345671
0.49746776 0.2035863 0.12345047
0.49716219 0.20319399 0.12344422
0.49685666 0.20280169 0.12343797
0.4965511 0.20240939 0.12343173
0.49542546 0.20250192 0.12375276
0.49512056 0.20211047 0.12374652
0.49481568 0.20171902 0.12374029
0.4945108 0.20132756 0.12373406
0.49338847 0.20142433 0.12405514
0.49308425 0.20103373 0.12404893
0.49278003 0.20064312 0.1240427
0.49247581 0.20025252 0.12403649
0.49217159 0.19986191 0.12403027
0.49186736 0.19947131 0.12402406
0.49074969 0.19957405 0.12434524
0.49044612 0.1991843 0.12433903
0.49014255 0.19879454 0.12433282
0.48983899 0.19840479 0.12432662
0.48953542 0.19801503 0.12432042
0.48923185 0.19762528 0.12431421
0.48811883 0.197734 0.1246355
0.48781592 0.19734509 0.1246293
0.48751301 0.19695619 0.12462311
0.48721012 0.19656728 0.12461692
0.48690721 0.19617839 0.12461073
0.4866043 0.19578949 0.12460454
0.48630142 0.19540058 0.12459835
0.48599851 0.19501168 0.12459216
0.4856956 0.19462278 0.12458597
0.48539272 0.19423388 0.12457978
0.48508981 0.19384497 0.12457359
0.4847869 0.19345608 0.1245674
0.48448402 0.19306718 0.12456121
0.48418111 0.19267827 0.12455501
0.48307803 0.19279973 0.12487649
0.48277578 0.19241168 0.12487032
0.48247355 0.19202362 0.12486414
0.4821713 0.19163558 0.12485796
0.48186907 0.19124752 0.12485179
0.48156685 0.19085948 0.12484561
0.48126459 0.19047143 0.12483943
0.48096237 0.19008337 0.12483325
0.48066011 0.18969533 0.12482707
0.47956365 0.1898253 0.1251487
0.47926205 0.1894381 0.12514253
0.47896048 0.18905091 0.12513638
0.47865891 0.18866371 0.12513021
0.47835734 0.18827651 0.12512404
0.47726485 0.18841158 0.12544574
0.47696394 0.18802522 0.12543958
0.47666302 0.18763888 0.12543343
0.47636211 0.18725254 0.12542728
0.47606122 0.18686618 0.12542114
0.47576031 0.18647984 0.12541498
0.47467244 0.18662088 0.12573677
0.47437218 0.18623538 0.12573065
0.47407195 0.18584988 0.12572451
0.47377169 0.18546438 0.12571837
0.47347143 0.18507889 0.12571223
0.47317117 0.1846934 0.12570609
0.47208798 0.18484037 0.12602799
0.47178841 0.18445572 0.12602186
0.4714888 0.18407108 0.12601574
0.47118923 0.18368644 0.12600961
0.49008131 0.16949861 0.1177951
0.48976514 0.16909268 0.11778864
0.48944899 0.16868676 0.11778218
0.48913282 0.16828085 0.11777572
0.48881668 0.16787493 0.11776926
0.48850054 0.16746901 0.1177628
0.48818436 0.16706309 0.11775634
0.48786822 0.16665716 0.11774987
0.48755205 0.16625124 0.11774341
0.4872359 0.16584532 0.11773695
0.48691973 0.1654394 0.11773049
0.48660359 0.16503347 0.11772402
0.48628742 0.16462757 0.11771756
0.48597127 0.16422164 0.1177111
0.48565513 0.16381572 0.11770464
0.48533896 0.1634098 0.11769818
0.48502281 0.16300388 0.11769172
0.48547503 0.16204676 0.11735694
0.48515821 0.16163999 0.11735047
0.48484138 0.16123322 0.11734399
0.48452455 0.16082644 0.11733752
0.48420775 0.16041967 0.11733104
0.48389092 0.1600129 0.11732457
0.48357409 0.15960613 0.11731809
0.48325729 0.15919936 0.11731162
0.48294047 0.15879259 0.11730514
0.48262364 0.15838581 0.11729867
0.48230684 0.15797904 0.1172922
0.48199001 0.15757227 0.11728571
0.48167318 0.1571655 0.11727924
0.48135638 0.15675873 0.11727276
0.48103955 0.15635195 0.11726629
0.48072273 0.15594518 0.11725982
0.48040593 0.15553841 0.11725334
0.4800891 0.15513164 0.11724687
0.47977227 0.15472487 0.11724039
0.47945544 0.15431809 0.11723392
0.47913864 0.15391132 0.11722744
0.47882181 0.15350455 0.11722097
0.47850499 0.15309778 0.11721449
0.47818819 0.15269101 0.11720802
0.47787136 0.15228423 0.11720154
0.47755453 0.15187746 0.11719506
0.47723773 0.15147069 0.11718859
0.4769209 0.15106392 0.11718211
0.47660407 0.15065715 0.11717564
0.47628728 0.15025038 0.11716916
0.47597045 0.1498436 0.11716269
0.47565362 0.14943683 0.11715622
0.47533682 0.14903006 0.11714974
0.47501999 0.14862329 0.11714327
0.47470316 0.14821652 0.11713679
0.47438633 0.14780974 0.11713032
0.47406954 0.14740297 0.11712384
0.47375271 0.1469962 0.11711737
0.47343588 0.14658943 0.11711089
0.47311908 0.14618266 0.11710441
0.47280225 0.14577588 0.11709794
0.47248542 0.14536911 0.11709146
0.47216862 0.14496234 0.11708499
0.4725917 0.14396776 0.11674961
0.47227421 0.14356013 0.11674312
0.47195673 0.14315251 0.11673663
0.47163925 0.14274488 0.11673014
0.47132176 0.14233726 0.11672365
0.47100428 0.14192964 0.11671716
0.47068679 0.14152202 0.11671067
0.47036931 0.1411144 0.11670418
0.47005183 0.14070678 0.1166977
0.46973434 0.14029916 0.11669121
0.46941686 0.13989152 0.11668472
0.46983197 0.13888675 0.11634918
0.46951383 0.13847828 0.11634268
0.46919569 0.13806981 0.11633618
0.46887752 0.13766132 0.11632968
0.46855938 0.13725285 0.11632317
0.46824124 0.13684438 0.11631667
0.4679231 0.13643591 0.11631017
0.46760496 0.13602744 0.11630367
0.46728683 0.13561895 0.11629716
0.46696866 0.13521048 0.11629067
0.46665052 0.13480201 0.11628416
0.46633238 0.13439354 0.11627766
0.46601424 0.13398506 0.11627115
0.4656961 0.13357659 0.11626466
0.46537796 0.13316812 0.11625815
0.46505979 0.13275965 0.11625165
0.46474165 0.13235117 0.11624515
0.46442351 0.13194269 0.11623865
0.46410537 0.13153422 0.11623214
0.46378723 0.13112575 0.11622564
0.46346906 0.13071728 0.11621914
0.46315092 0.13030881 0.11621264
0.46355081 0.12928443 0.11587678
0.46323201 0.12887511 0.11587026
0.46291319 0.12846579 0.11586375
0.46259439 0.12805645 0.11585723
0.46227556 0.12764713 0.11585072
0.46195677 0.12723781 0.1158442
0.46235198 0.1262075 0.11550826
0.4620325 0.12579733 0.11550172
0.46171305 0.12538715 0.1154952
0.46139356 0.12497698 0.11548867
0.46107411 0.1245668 0.11548214
0.46146533 0.12353139 0.11514612
0.46114522 0.12312036 0.11513957
0.46082509 0.12270933 0.11513303
0.46050495 0.12229831 0.11512649
0.46018481 0.12188728 0.11511995
0.45986468 0.12147626 0.11511341
0.45954454 0.12106523 0.11510686
0.4592244 0.1206542 0.11510032
0.45960972 0.11961111 0.11476416
0.4592889 0.11919923 0.1147576
0.4589681 0.11878736 0.11475105
0.45935073 0.11774088 0.11441485
0.45902929 0.11732815 0.11440828
0.45940992 0.11627911 0.11407202
0.45908782 0.11586553 0.11406545
0.45946646 0.11481395 0.11372916
0.45914367 0.11439952 0.11372256
0.45882088 0.11398508 0.11371597
0.45849809 0.11357065 0.11370938
0.45887345 0.1125148 0.11337301
0.45855001 0.11209952 0.1133664
0.45822656 0.11168424 0.11335979
0.45859924 0.110625 0.11302339
0.45897061 0.10956406 0.11268695
0.45864582 0.10914707 0.11268032
0.45901522 0.10808356 0.11234383
0.45868978 0.10766573 0.11233719
0.45836434 0.10724789 0.11233053
0.45873106 0.106181 0.11199401
0.45840496 0.10576231 0.11198734
0.45807886 0.10534362 0.11198068
0.45844296 0.1042733 0.11164409
0.45811617 0.10385376 0.11163741
0.45847827 0.10278091 0.1113008
0.45815083 0.10236052 0.1112941
0.45851094 0.10128509 0.11095743
0.45818284 0.10086386 0.11095072
0.45854095 0.099785894 0.11061402
0.4582122 0.099363804 0.1106073
0.45788345 0.098941714 0.11060058
0.4582389 0.097860351 0.11026383
0.45790949 0.097437412 0.1102571
0.45758009 0.097014472 0.11025037
0.45793289 0.095929682 0.10991354
0.45760283 0.095505893 0.1099068
0.45795363 0.09441857 0.10956995
0.45762289 0.093993925 0.10956319
0.45797172 0.092904054 0.1092263
0.45831925 0.091812439 0.10888936
0.4586654 0.090719163 0.10855241
0.45901024 0.089624181 0.10821544
0.45867687 0.089196131 0.10820863
0.45901972 0.088098601 0.10787161
0.45936126 0.086999364 0.10753457
0.45902655 0.086569615 0.10752773
0.45936611 0.085467786 0.10719063
0.45970434 0.084364302 0.10685353
0.46004122 0.083259106 0.10651639
0.45970452 0.082826808 0.10650951
0.46003941 0.081719063 0.10617233
0.46037304 0.080609575 0.10583511
0.46003503 0.080175579 0.1058282
0.46036661 0.079063572 0.10549096
0.46069685 0.077949874 0.10515369
0.46035752 0.077514164 0.10514675
0.46068579 0.076397903 0.10480944
0.46101272 0.075279951 0.1044721
0.4613384 0.074160255 0.10413472
0.46099705 0.073721997 0.10412774
0.46198565 0.071915828 0.10345991
0.4623073 0.070791066 0.10312247
0.46262765 0.06966456 0.10278497
0.46228367 0.069222897 0.10277794
0.46260199 0.068093881 0.10244042
0.462919 0.066963151 0.10210288
0.46323469 0.06583073 0.10176531
0.46354905 0.06469661 0.10142772
0.46386212 0.063560747 0.10109007
0.46417382 0.062423214 0.10075243
0.46448418 0.061283983 0.10041475
0.46479324 0.060143046 0.10007705
0.46510097 0.059000414 0.099739313
0.4654074 0.057856038 0.099401534
0.46505678 0.057405867 0.099394374
0.46470615 0.056955691 0.099387206
0.46435553 0.05650552 0.099380039
0.46400493 0.056055348 0.099372871
0.46365431 0.055605177 0.099365704
0.46330369 0.055155005 0.099358544
0.46230128 0.05540584 0.0996821
0.46260244 0.054254659 0.099344209
0.46125141 0.054057878 0.099660642
0.46090144 0.053608552 0.09965349
0.45985156 0.052260589 0.099632032
0.45950162 0.05181127 0.09962488
0.45915166 0.051361952 0.099617727
0.51975918 0.22020955 0.12068656
0.51944828 0.21981044 0.12068021
0.51913744 0.21941133 0.12067386
0.5188266 0.21901222 0.1206675
0.51851577 0.2186131 0.12066115
0.51820487 0.21821399 0.1206548
0.51789403 0.21781488 0.12064844
0.51758319 0.21741576 0.12064209
0.51727235 0.21701665 0.12063574
0.51696146 0.21661754 0.12062939
0.51580101 0.21666469 0.12095068
0.51549083 0.21626644 0.12094434
0.51518065 0.21586818 0.120938
0.51487046 0.21546991 0.12093166
0.5137133 0.21552135 0.12125304
0.51340377 0.21512394 0.12124672
0.51309425 0.21472652 0.12124039
0.51278472 0.21432911 0.12123407
0.51247519 0.21393169 0.12122774
0.51216567 0.2135343 0.12122142
0.51101315 0.21359167 0.12154288
0.51070428 0.2131951 0.12153656
0.51039541 0.21279854 0.12153025
0.5100866 0.21240199 0.12152394
0.50977772 0.21200542 0.12151763
0.50946885 0.21160886 0.12151131
0.50915998 0.21121229 0.121505
0.50885111 0.21081574 0.12149869
0.50770456 0.21088077 0.12182027
0.5073964 0.21048507 0.12181398
0.50708818 0.21008936 0.12180767
0.50677997 0.20969364 0.12180138
0.50563675 0.20976295 0.12212303
0.50532919 0.20936809 0.12211675
0.50502163 0.20897323 0.12211046
0.50471413 0.20857838 0.12210418
0.50440657 0.20818351 0.12209789
0.50409907 0.20778866 0.12209161
0.50379151 0.2073938 0.12208533
0.50348395 0.20699894 0.12207904
0.50317645 0.20660408 0.12207276
0.50286889 0.20620923 0.12206647
0.50173295 0.20628788 0.12238827
0.5014261 0.20589386 0.12238199
0.5011192 0.20549986 0.12237572
0.50081235 0.20510586 0.12236945
0.49967968 0.20518877 0.12269133
0.4993735 0.20479561 0.12268507
0.49906728 0.20440245 0.12267882
0.49876106 0.20400929 0.12267256
0.49845484 0.20361614 0.1226663
0.49814862 0.20322299 0.12266004
0.49702066 0.20331185 0.122982
0.4967151 0.20291954 0.12297576
0.49640957 0.20252724 0.12296952
0.496104 0.20213494 0.12296326
0.49579844 0.20174262 0.12295702
0.49467444 0.20183662 0.12327908
0.49436957 0.20144515 0.12327284
0.49406466 0.20105369 0.12326661
0.49375978 0.20066224 0.12326039
0.49263909 0.20076047 0.1235825
0.49233487 0.20036986 0.12357628
0.49203065 0.19997926 0.12357006
0.49172643 0.19958866 0.12356384
0.49142221 0.19919805 0.12355763
0.49030548 0.19930138 0.12387982
0.49000195 0.19891162 0.12387361
0.48969838 0.19852188 0.12386741
0.48939481 0.19813213 0.12386121
0.48909125 0.19774237 0.123855
0.48878768 0.19735262 0.1238488
0.48848411 0.19696286 0.12384259
0.4873727 0.19707301 0.12416491
0.48706979 0.19668412 0.12415872
0.4867669 0.19629522 0.12415253
0.48646399 0.19590631 0.12414633
0.48616108 0.19551741 0.12414014
0.4858582 0.19512852 0.12413395
0.48555529 0.19473961 0.12412776
0.48525241 0.1943507 0.12412157
0.4849495 0.19396181 0.12411538
0.48464659 0.19357291 0.12410919
0.48434371 0.193184 0.124103
0.4840408 0.1927951 0.12409681
0.48373789 0.19240621 0.12409062
0.483435 0.1920173 0.12408443
0.48313209 0.1916284 0.12407824
0.48203132 0.19175215 0.12440076
0.48172906 0.19136409 0.12439458
0.48142684 0.19097605 0.1243884
0.48112458 0.190588 0.12438223
0.48082235 0.19019996 0.12437605
0.4805201 0.1898119 0.12436987
0.47942394 0.18994161 0.12469249
0.47912237 0.18955442 0.12468633
0.4788208 0.18916723 0.12468017
0.4785192 0.18878002 0.12467401
0.47821763 0.18839283 0.12466784
0.47712547 0.18852764 0.12499053
0.47682455 0.18814129 0.12498438
0.47652364 0.18775494 0.12497824
0.47622272 0.18736859 0.12497208
0.47592181 0.18698224 0.12496594
0.4756209 0.1865959 0.12495978
0.47453335 0.18673669 0.12528259
0.47423309 0.18635118 0.12527645
0.47393286 0.18596569 0.12527031
0.4736326 0.18558019 0.12526418
0.47333235 0.1851947 0.12525804
0.47303209 0.18480919 0.1252519
0.47194919 0.18495592 0.12557478
0.47164962 0.18457128 0.12556866
0.47135004 0.18418664 0.12556255
0.49056715 0.17043239 0.11732977
0.49103099 0.16949084 0.11699423
0.49071419 0.16908407 0.11698776
0.48961869 0.16921464 0.11731038
0.48930255 0.16880871 0.11730392
0.48898637 0.16840279 0.11729746
0.48867023 0.16799687 0.117291
0.48913008 0.16705021 0.11695538
0.48881328 0.16664344 0.11694891
0.48849645 0.16623667 0.11694244
0.48817962 0.1658299 0.11693595
0.4878628 0.16542313 0.11692948
0.487546 0.16501635 0.116923
0.48722917 0.16460958 0.11691653
0.48691234 0.16420281 0.11691006
0.48659554 0.16379604 0.11690358
0.48627871 0.16338927 0.11689711
0.48596188 0.16298249 0.11689063
0.48564509 0.16257572 0.11688416
0.48532826 0.16216895 0.11687768
0.48501143 0.16176218 0.11687121
0.48469463 0.16135541 0.11686473
0.4843778 0.16094863 0.11685826
0.48406097 0.16054186 0.11685178
0.48374417 0.16013509 0.1168453
0.48342735 0.15972832 0.11683883
0.48311052 0.15932155 0.11683235
0.48279369 0.15891477 0.11682588
0.48247689 0.158508 0.1168194
0.48216006 0.15810123 0.11681293
0.48184323 0.15769446 0.11680645
0.48152643 0.15728769 0.11679998
0.48120961 0.15688092 0.11679351
0.48089278 0.15647414 0.11678703
0.48057598 0.15606737 0.11678056
0.48025915 0.1556606 0.11677408
0.47994232 0.15525383 0.11676761
0.47962552 0.15484706 0.11676113
0.47930869 0.15444028 0.11675465
0.47899187 0.15403351 0.11674818
0.47867507 0.15362674 0.1167417
0.47835824 0.15321997 0.11673523
0.47804141 0.1528132 0.11672875
0.47772458 0.15240642 0.11672228
0.47740778 0.15199965 0.1167158
0.47709095 0.15159288 0.11670933
0.47677413 0.15118611 0.11670285
0.47645733 0.15077934 0.11669638
0.4761405 0.15037256 0.11668991
0.47582367 0.14996579 0.11668343
0.47550687 0.14955902 0.11667696
0.47519004 0.14915225 0.11667048
0.47487321 0.14874548 0.116664
0.47455642 0.14833871 0.11665753
0.47423959 0.14793193 0.11665105
0.47392276 0.14752516 0.11664458
0.47360596 0.14711839 0.1166381
0.47403201 0.14612833 0.11630178
0.47371456 0.14572071 0.11629529
0.47339708 0.14531308 0.1162888
0.47307959 0.14490545 0.11628232
0.47276211 0.14449783 0.11627583
0.47244462 0.14409021 0.11626934
0.47212714 0.14368258 0.11626285
0.47180966 0.14327496 0.11625636
0.47149217 0.14286734 0.11624987
0.47191161 0.14186877 0.11591343
0.47159347 0.1414603 0.11590693
0.4712753 0.14105183 0.11590043
0.47095716 0.14064336 0.11589392
0.47063902 0.14023489 0.11588742
0.47032088 0.1398264 0.11588092
0.47000274 0.13941793 0.11587442
0.4696846 0.13900946 0.11586791
0.46936643 0.13860099 0.11586142
0.46904829 0.1381925 0.11585491
0.46873015 0.13778403 0.11584841
0.46841201 0.13737556 0.11584191
0.46882284 0.13636592 0.11550528
0.46850404 0.1359566 0.11549876
0.46818525 0.13554727 0.11549225
0.46786642 0.13513795 0.11548573
0.46754763 0.13472863 0.11547921
0.4672288 0.13431929 0.1154727
0.46691 0.13390997 0.11546618
0.46659121 0.13350065 0.11545967
0.46627238 0.13309132 0.11545315
0.46595359 0.132682 0.11544663
0.46563476 0.13227268 0.11544012
0.46531597 0.13186334 0.1154336
0.46499717 0.13145402 0.11542708
0.46467835 0.1310447 0.11542057
0.46435955 0.13063538 0.11541405
0.46404073 0.13022605 0.11540754
0.46372193 0.12981673 0.11540102
0.46340311 0.12940739 0.11539451
0.46308431 0.12899807 0.11538799
0.46276551 0.12858875 0.11538148
0.46244669 0.12817943 0.11537496
0.46284294 0.12715107 0.11503804
0.46252346 0.1267409 0.11503151
0.46220398 0.12633072 0.11502498
0.46188453 0.12592055 0.11501846
0.46156505 0.12551036 0.11501192
0.46195731 0.12447692 0.11467493
0.46163717 0.12406589 0.11466838
0.46131703 0.12365486 0.11466184
0.4609969 0.12324384 0.1146553
0.46067679 0.12283281 0.11464875
0.46035665 0.12242179 0.11464221
0.46003652 0.12201076 0.11463567
0.45971638 0.12159973 0.11462913
0.46010268 0.1205586 0.114292
0.45978189 0.12014672 0.11428544
0.45946109 0.11973485 0.11427888
0.45984474 0.11869033 0.11394171
0.45952329 0.11827759 0.11393514
0.45920181 0.11786487 0.11392856
0.45958284 0.11681693 0.11359133
0.4592607 0.11640335 0.11358474
0.4596397 0.11535288 0.11324748
0.45931694 0.11493845 0.11324088
0.45899415 0.11452401 0.11323428
0.45937052 0.11347012 0.11289694
0.45904708 0.11305484 0.11289033
0.45872363 0.11263955 0.11288372
0.45909733 0.11158228 0.11254635
0.45946971 0.11052329 0.11220894
0.45914492 0.1101063 0.1122023
0.45882013 0.10968933 0.11219566
0.45918989 0.10862692 0.11185819
0.45886445 0.10820908 0.11185154
0.45923218 0.10714414 0.11151404
0.45890608 0.10672545 0.11150738
0.45857999 0.10630677 0.11150071
0.4589451 0.10523841 0.11116315
0.45861834 0.10481887 0.11115647
0.45829156 0.10439933 0.11114979
0.45865402 0.10332759 0.11081218
0.45832658 0.1029072 0.11080549
0.45868704 0.10183287 0.11046783
0.45835894 0.10141164 0.11046112
0.45803088 0.1009904 0.11045442
0.45838866 0.099912696 0.11011671
0.45805991 0.099490605 0.11010999
0.45841572 0.098410346 0.10977225
0.45808631 0.097987406 0.10976552
0.45775691 0.097564466 0.10975879
0.45811006 0.096480787 0.10942098
0.45778 0.096056998 0.10941423
0.45813116 0.094970778 0.10907639
0.45780042 0.094546139 0.10906963
0.45814958 0.093457371 0.10873175
0.45781818 0.093031876 0.10872497
0.45884401 0.091274694 0.10805589
0.45851129 0.090847492 0.10804909
0.45885581 0.089752771 0.10771111
0.45919904 0.088656344 0.10737311
0.45886499 0.088227443 0.10736629
0.45920619 0.08712846 0.10702824
0.45954615 0.086027741 0.10669015
0.4598847 0.084925368 0.10635205
0.45954868 0.084493913 0.10634519
0.45988524 0.083388977 0.10600705
0.46022052 0.082282335 0.10566889
0.46055448 0.081173964 0.10533068
