# .PCD v0.7 - Point Cloud Data file format
VERSION 0.7
FIELDS x y z
SIZE 4 4 4
TYPE F F F
COUNT 1 1 1
WIDTH 1386
HEIGHT 1
VIEWPOINT 0 0 0 1 0 0 0
POINTS 1386
DATA ascii
0.4930785 -0.019182738 0.096153639
0.49426365 -0.018555041 0.096454114
0.49456537 -0.017565966 0.096441403
0.49398464 -0.016212406 0.096115448
0.49428666 -0.015222298 0.096102722
0.49370694 -0.01386565 0.095776752
0.49312782 -0.012506937 0.095450751
0.49254936 -0.011146151 0.095124729
0.49285233 -0.010152939 0.095111959
0.49227473 -0.0087890476 0.094785884
0.49169785 -0.0074231001 0.094459787
0.49200147 -0.0064278226 0.094446994
0.49230507 -0.0054325452 0.094434202
0.49172944 -0.0040624538 0.09410806
0.49203336 -0.003066144 0.094095245
0.49233729 -0.0020698342 0.094082437
0.49264124 -0.001073517 0.09406963
0.49382314 -0.0004561508 0.094370224
0.49412677 0.00053912663 0.094357423
0.49443039 0.0015344041 0.094344631
0.49473399 0.0025296817 0.094331838
0.49591434 0.0031418859 0.094632491
0.49621764 0.0041361311 0.094619714
0.49739709 0.0047452217 0.094920427
0.49857587 0.0053522494 0.095221154
0.49887854 0.0063444292 0.095208399
0.49918121 0.0073366025 0.095195644
0.5003587 0.0079395082 0.095496424
0.50066108 0.0089306552 0.095483676
0.50096345 0.0099217966 0.095470935
0.50126576 0.010912944 0.095458195
0.5024417 0.011510679 0.095759034
0.50274372 0.012500788 0.095746309
0.5030458 0.013490896 0.095733576
0.50334781 0.014481012 0.09572085
0.50364989 0.015471127 0.095708117
0.50395191 0.016461235 0.095695391
0.5051257 0.017051714 0.09599635
0.50542742 0.018040797 0.095983632
0.50572914 0.019029865 0.095970914
0.50690162 0.019616229 0.09627191
0.50720298 0.020604273 0.096259207
0.50837451 0.021187548 0.096560232
0.50867563 0.022174552 0.096547544
0.5089767 0.023161555 0.096534856
0.50927782 0.024148574 0.096522167
0.50957888 0.025135577 0.096509479
0.50988001 0.026122594 0.096496783
0.51018107 0.027109599 0.096484095
0.51048219 0.028096603 0.096471407
0.51165086 0.028670579 0.096772566
0.51195163 0.029656557 0.096759886
0.51311934 0.030227415 0.097061075
0.51341981 0.031212354 0.097048417
0.51458669 0.031780105 0.097349659
0.5148868 0.032764003 0.097337008
0.51518697 0.033747915 0.097324364
0.51635247 0.03431154 0.097625643
0.51665235 0.035294414 0.097613014
0.51695216 0.036277287 0.097600378
0.51811641 0.036836796 0.097901709
0.51928008 0.037394226 0.09820307
0.52044308 0.037949573 0.098504461
0.52074194 0.038929358 0.098491862
0.52190405 0.039481599 0.098793313
0.52306551 0.040031794 0.099094771
0.52336377 0.041009501 0.099082202
0.52452421 0.041556589 0.099383689
0.52568412 0.042101629 0.099685222
0.52684337 0.042644557 0.099986784
0.52800196 0.043185469 0.10028835
0.52829897 0.044159029 0.10027584
0.52945662 0.044696819 0.10057746
0.52975327 0.045669354 0.10056496
0.53090996 0.046204042 0.10086661
0.53206605 0.046736676 0.1011683
0.5323621 0.047707148 0.10115582
0.53265816 0.048677634 0.10114334
0.533813 0.049206093 0.10144509
0.53410876 0.05017554 0.10143263
0.53526258 0.050700914 0.1017344
0.53555804 0.051669318 0.10172195
0.53671092 0.052191615 0.10202377
0.53700602 0.053158995 0.10201133
0.538158 0.053678174 0.10231318
0.5384528 0.054644518 0.10230076
0.53960389 0.055160575 0.10260267
0.54075426 0.055674613 0.1029046
0.54190403 0.056186557 0.10320654
0.54305315 0.056696437 0.10350852
0.5433467 0.057658646 0.10349614
0.54449487 0.058165435 0.10379816
0.5456425 0.05867013 0.10410021
0.54678941 0.059172776 0.10440228
0.54793572 0.059673373 0.10470437
0.54908139 0.060171887 0.1050065
0.55022645 0.060668338 0.10530864
0.55137092 0.061162706 0.10561083
0.55251467 0.061655015 0.10591304
0.55450994 0.061681591 0.10652975
0.55650401 0.061704006 0.10714654
0.55764526 0.062188037 0.10744885
0.5579347 0.063136809 0.10743665
0.55992591 0.063149936 0.10805354
0.56191587 0.063158914 0.1086705
0.56390452 0.063163772 0.10928749
0.56504202 0.063635416 0.10958996
0.56702852 0.063633025 0.11020707
0.56901371 0.06362652 0.11082421
0.57014871 0.064089872 0.1111268
0.57213169 0.064076133 0.11174403
0.57411343 0.064058237 0.11236132
0.57694197 0.063559078 0.11329334
0.57976866 0.06305372 0.11422545
0.58089852 0.063500568 0.11452822
0.58287489 0.063465126 0.11514574
0.58485007 0.063425511 0.11576333
0.58682394 0.063381813 0.11638095
0.59048885 0.062367283 0.11762813
0.59161371 0.062797599 0.11793113
0.59273797 0.063225813 0.11823417
0.59555197 0.062679127 0.11916678
0.59751928 0.062613688 0.1197847
0.60032982 0.06205564 0.12071746
0.60313851 0.061491378 0.12165032
0.60594529 0.060920909 0.12258326
0.60875016 0.06034426 0.12351626
0.61155319 0.05976139 0.12444936
0.6151973 0.058678649 0.12569742
0.62052429 0.056598257 0.12757535
0.62247801 0.056488395 0.12819384
0.62443042 0.056374401 0.12881236
0.6246981 0.057251856 0.12880108
0.62749004 0.056632809 0.12973464
0.629439 0.056507453 0.13035332
0.6313867 0.05637794 0.13097204
0.63333315 0.056244295 0.13159083
0.63443816 0.056609478 0.13189466
0.6363824 0.056468599 0.13251355
0.6374858 0.056828626 0.13281745
0.63942784 0.056680527 0.13343643
0.64052969 0.057035372 0.13374038
0.64163095 0.057388164 0.13404439
0.64273149 0.057738878 0.13434842
0.64383143 0.058087528 0.13465247
0.64493078 0.058434125 0.13495654
0.64519215 0.059290916 0.13494553
0.64629054 0.059634395 0.13524963
0.64655155 0.060490146 0.13523863
0.64764905 0.060830519 0.1355428
0.64790982 0.061685245 0.13553181
0.64900631 0.062022544 0.13583601
0.64926672 0.062876232 0.13582504
0.64952713 0.063729912 0.13581406
0.64978755 0.0645836 0.13580309
0.65004796 0.065437287 0.13579211
0.65030837 0.066290967 0.13578114
0.65056878 0.067144655 0.13577016
0.65082926 0.067998335 0.13575917
0.65108967 0.068852022 0.13574821
0.65135008 0.06970571 0.13573723
0.65161049 0.07055939 0.13572626
0.65187091 0.071413077 0.13571528
0.65213132 0.072266765 0.13570431
0.6532234 0.072589584 0.13600868
0.65348351 0.073442228 0.13599773
0.53471911 -0.15711048 0.12292781
0.53775555 -0.15692516 0.12385416
0.53803015 -0.15602496 0.12384259
0.53738511 -0.15488338 0.12351833
0.53582132 -0.15349731 0.12288135
0.53517783 -0.15235054 0.12255702
0.53177875 -0.15046823 0.1212945
0.53205591 -0.14955977 0.12128282
0.53233302 -0.14865132 0.12127114
0.53077459 -0.14724767 0.12063394
0.53013492 -0.14608851 0.12030946
0.52857864 -0.14467762 0.11967215
0.52794051 -0.14351329 0.1193476
0.52730304 -0.1423469 0.11902303
0.52574992 -0.14092568 0.11838558
0.52511406 -0.13975412 0.11806095
0.52447873 -0.1385805 0.11773628
0.52384412 -0.13740481 0.11741159
0.52229512 -0.13597015 0.11677398
0.52166206 -0.13478929 0.11644921
0.52102959 -0.13360636 0.11612443
0.52039778 -0.13242137 0.11579962
0.51885289 -0.13097326 0.11516183
0.51730925 -0.12952104 0.11452401
0.51668 -0.12832779 0.11419909
0.51513857 -0.12686832 0.11356115
0.51451081 -0.12566988 0.11323617
0.51297164 -0.1242032 0.11259816
0.51234543 -0.12299959 0.11227309
0.51171994 -0.12179393 0.11194801
0.51109511 -0.12058619 0.11162291
0.50955993 -0.11910605 0.11098471
0.50893664 -0.11789316 0.11065954
0.50831395 -0.11667819 0.11033434
0.50769192 -0.11546116 0.11000912
0.50707054 -0.11424207 0.10968387
0.5064497 -0.11302089 0.10935857
0.50582957 -0.11179765 0.10903327
0.50521004 -0.11057235 0.10870794
0.50459117 -0.10934499 0.10838258
0.50397289 -0.10811555 0.1080572
0.50335521 -0.10688404 0.10773177
0.50273824 -0.10565047 0.10740634
0.50212187 -0.10441484 0.10708088
0.50150615 -0.10317714 0.10675539
0.50089097 -0.10193735 0.10642985
0.50027651 -0.10069552 0.10610431
0.49966267 -0.099451616 0.10577875
0.49814397 -0.09791775 0.10513987
0.49753165 -0.096668661 0.10481422
0.49692002 -0.095417529 0.10448856
0.49630901 -0.094164319 0.10416286
0.49569866 -0.092909053 0.10383715
0.49508891 -0.091651715 0.10351141
0.49447975 -0.090392292 0.10318562
0.49387127 -0.089130819 0.10285983
0.49326342 -0.087867282 0.102534
0.4926562 -0.086601675 0.10220816
0.49295193 -0.085632235 0.1021957
0.49324766 -0.084662795 0.10218323
0.49264163 -0.083393037 0.10185732
0.49203631 -0.082121231 0.10153139
0.49233267 -0.081149727 0.1015189
0.49262905 -0.080178216 0.1015064
0.49202499 -0.078902274 0.10118043
0.49142155 -0.077624269 0.10085442
0.49081874 -0.076344192 0.10052839
0.49021649 -0.075062037 0.10020231
0.48961496 -0.073777825 0.099876218
0.48901403 -0.072491549 0.099550106
0.48931229 -0.071513839 0.099537537
0.48871234 -0.070224464 0.09921138
0.4890109 -0.069245726 0.099198796
0.48841181 -0.067953229 0.098872595
0.48781344 -0.066658683 0.098546371
0.48721567 -0.065362073 0.098220125
0.48751518 -0.064380229 0.098207496
0.48781469 -0.063398391 0.098194875
0.4872182 -0.062097639 0.097868577
0.48751804 -0.061114762 0.09785594
0.48692247 -0.059810922 0.097529605
0.48722261 -0.058827009 0.097516954
0.48662797 -0.057520047 0.097190559
0.48603398 -0.056211032 0.096864149
0.48633477 -0.055225059 0.096851476
0.48663554 -0.054239083 0.096838802
0.48693633 -0.053253103 0.096826121
0.48634392 -0.051938925 0.096499652
0.48664501 -0.050951913 0.096486963
0.48605356 -0.049634628 0.096160449
0.48635498 -0.048646584 0.096147746
0.48665637 -0.047658544 0.096135043
0.48606616 -0.046337131 0.095808476
0.48636791 -0.045348056 0.095795766
0.48666963 -0.044358976 0.095783047
0.48697135 -0.0433699 0.095770329
0.48727307 -0.042380825 0.095757619
0.48757479 -0.041391749 0.0957449
0.4878765 -0.040402673 0.095732182
0.48817822 -0.039413597 0.095719472
0.48847997 -0.038424514 0.095706753
0.48878169 -0.037435438 0.095694035
0.48908341 -0.036446363 0.095681325
0.48938513 -0.03545728 0.095668606
0.48968685 -0.034468204 0.095655888
0.48998857 -0.033479128 0.09564317
0.49029031 -0.032490052 0.095630459
0.49059203 -0.031500977 0.095617741
0.49089375 -0.030511901 0.095605023
0.49119547 -0.029522825 0.095592313
0.49149719 -0.028533749 0.095579594
0.49179891 -0.027544666 0.095566876
0.49210066 -0.02655559 0.095554166
0.49240237 -0.025566515 0.095541447
0.49270409 -0.024577439 0.095528729
0.49300581 -0.023588363 0.095516019
0.49330753 -0.022599287 0.0955033
0.49360925 -0.021610212 0.095490582
0.493911 -0.02062113 0.095477872
0.49421272 -0.019632054 0.095465153
0.49451444 -0.018642979 0.095452435
0.49481615 -0.017653903 0.095439725
0.49511787 -0.016664827 0.095427006
0.49541959 -0.015675751 0.095414288
0.49483976 -0.014320211 0.095087267
0.49426061 -0.012962629 0.094760239
0.49368206 -0.011602975 0.094433181
0.49310416 -0.010241242 0.0941061
0.49252683 -0.0088774422 0.093778968
0.49195021 -0.0075115873 0.093451835
0.49225381 -0.0065163099 0.093439035
0.49255744 -0.0055210325 0.093426242
0.49198207 -0.0041510328 0.09309905
0.492286 -0.0031547232 0.093086243
0.49258992 -0.0021584132 0.093073435
0.49289384 -0.0011620962 0.093060628
0.49407551 -0.00054463808 0.093362264
0.49437913 0.00045063935 0.093349472
0.49468273 0.0014459168 0.093336672
0.49498636 0.0024411944 0.093323879
0.49616644 0.0030534905 0.093625583
0.49646974 0.0040477356 0.093612805
0.49677303 0.0050419807 0.09360002
0.49795192 0.0056501306 0.093901798
0.4991301 0.0062562176 0.094203576
0.49943277 0.0072483909 0.094190821
0.49973544 0.0082405712 0.094178066
0.50091237 0.0088425353 0.094479904
0.50121474 0.0098336767 0.094467163
0.50151712 0.010824824 0.094454423
0.50269276 0.011422652 0.094756313
0.50299478 0.01241276 0.094743587
0.50329685 0.013402868 0.094730854
0.50359887 0.014392984 0.094718128
0.50390095 0.015383099 0.094705395
0.50420296 0.016373208 0.09469267
0.50537646 0.016963778 0.094994672
0.50567818 0.017952859 0.094981954
0.5059799 0.01894193 0.094969235
0.50715214 0.019528385 0.095271274
0.50745356 0.020516429 0.095258571
0.50862479 0.021099797 0.095560648
0.50892586 0.022086799 0.095547959
0.50922698 0.023073804 0.095535271
0.50952804 0.024060821 0.095522583
0.50982916 0.025047826 0.095509894
0.51013023 0.026034843 0.095497206
0.51043135 0.027021848 0.095484518
0.51073241 0.02800885 0.095471829
0.51190084 0.028582919 0.095774025
0.51220167 0.029568898 0.095761351
0.51336908 0.030139847 0.096063584
0.51366955 0.031124786 0.096050918
0.51483613 0.031692628 0.096353218
0.5151363 0.032676525 0.096340567
0.51543647 0.033660442 0.096327923
0.51660168 0.034224156 0.096630245
0.51690155 0.035207029 0.096617609
0.51720136 0.036189903 0.096604973
0.51836538 0.036749505 0.096907355
0.51952875 0.037307024 0.097209774
0.52069151 0.037862465 0.097512208
0.52099037 0.03884225 0.097499609
0.52215225 0.039394584 0.097802095
0.5233134 0.039944869 0.098104604
0.52361166 0.040922575 0.098092034
0.52477187 0.041469757 0.09839458
0.52593148 0.042014886 0.098697148
0.52709049 0.04255791 0.098999761
0.52824885 0.043098912 0.099302381
0.5285458 0.044072472 0.099289864
0.5297032 0.044610355 0.099592529
0.52999985 0.045582891 0.09958002
0.5311563 0.046117667 0.099882722
0.53231215 0.046650395 0.10018545
0.53260815 0.047620866 0.10017298
0.53290421 0.048591349 0.1001605
0.53320026 0.049561821 0.10014803
0.53435457 0.050089348 0.10045084
0.53550816 0.050614815 0.10075366
0.53666115 0.051138245 0.10105651
0.53695625 0.052105609 0.10104407
0.53725135 0.053072989 0.10103163
0.53840303 0.053592261 0.10133453
0.53869784 0.054558601 0.10132211
0.53984863 0.055074751 0.10162506
0.54014313 0.056040067 0.10161266
0.54129297 0.056553159 0.10191564
0.54244214 0.057064153 0.10221864
0.54359066 0.057573099 0.10252168
0.54473859 0.05807998 0.10282474
0.54588598 0.058584768 0.10312784
0.54703259 0.059087504 0.10343096
0.54817867 0.05958819 0.1037341
0.54932404 0.060086798 0.10403727
0.5504688 0.060583342 0.10434046
0.55161303 0.061077803 0.1046437
0.55275655 0.061570205 0.10494695
0.55475128 0.061596964 0.10556576
0.55674487 0.061619561 0.10618463
0.55788583 0.062103685 0.10648799
0.55817527 0.063052453 0.10647579
0.56016594 0.063065767 0.10709477
0.56215537 0.063074924 0.10771383
0.56329352 0.063549764 0.1080173
0.56528074 0.063551702 0.10863643
0.56641734 0.064021356 0.10893998
0.56840235 0.064016066 0.10955921
0.56953734 0.064480565 0.10986281
0.57152015 0.064468019 0.11048215
0.57350171 0.064451359 0.11110152
0.57463419 0.064907588 0.11140523
0.577461 0.064405605 0.11234043
0.57943881 0.064376526 0.11295997
0.58141524 0.064343333 0.11357956
0.58339047 0.064306006 0.11419919
0.58536446 0.064264514 0.11481889
0.58987486 0.062769204 0.11638602
0.59184539 0.062716372 0.11700585
0.59212404 0.06363 0.11699411
0.59578258 0.062598266 0.1182457
0.59859395 0.062045641 0.11918155
0.60140347 0.061486825 0.12011748
0.60336703 0.061411254 0.1207376
0.60617304 0.060841061 0.12167369
0.60982049 0.059773173 0.12292573
0.61346543 0.058697026 0.12417789
0.61710787 0.057612587 0.12543015
0.61990541 0.057014499 0.12636659
0.62270099 0.056410197 0.12730311
0.62465292 0.05629639 0.12792373
0.62492055 0.057173841 0.12791245
0.62771177 0.056555074 0.12884915
0.62881935 0.056929663 0.12915391
0.63160735 0.056300573 0.13009073
0.63271308 0.056668948 0.13039559
0.63549793 0.056029521 0.13133255
0.63744134 0.055887785 0.13195354
0.6385442 0.056246877 0.13225849
0.64048535 0.05609791 0.13287957
0.64158666 0.05645182 0.13318461
0.6435256 0.056295618 0.13380577
0.64378726 0.057153445 0.13379474
0.64488667 0.057501163 0.13409986
0.64598542 0.057846814 0.13440499
0.64708358 0.058190368 0.13471016
0.64734429 0.059045095 0.13469917
0.64760506 0.059899803 0.13468818
0.64870191 0.060239259 0.13499339
0.6497981 0.06057664 0.13529864
0.65005821 0.061429299 0.13528767
0.65031832 0.062281944 0.13527672
0.65057844 0.063134603 0.13526575
0.65083855 0.063987248 0.13525479
0.65109867 0.064839907 0.13524383
0.65135872 0.065692551 0.13523287
0.65161884 0.066545211 0.1352219
0.65187895 0.067397855 0.13521095
0.65213907 0.068250515 0.13519998
0.65239918 0.069103166 0.13518901
0.6526593 0.069955826 0.13517806
0.65291941 0.07080847 0.13516709
0.65317947 0.071661115 0.13515614
0.65427101 0.07198301 0.13546157
0.65453076 0.072834633 0.13545063
0.53255504 -0.15852511 0.12140889
0.53283125 -0.15761974 0.12139726
0.53494817 -0.1571908 0.122013
0.53614372 -0.15652673 0.12231509
0.53641897 -0.15562446 0.12230349
0.53577483 -0.15448092 0.12197816
0.53513122 -0.15333527 0.1216528
0.53540713 -0.15243094 0.12164117
0.53200912 -0.15054901 0.12037446
0.53228623 -0.14964055 0.12036279
0.53164554 -0.14848562 0.12003731
0.5310055 -0.14732862 0.11971181
0.52944887 -0.14592102 0.11907246
0.52881032 -0.14475885 0.11874688
0.52817243 -0.14359461 0.11842129
0.52753526 -0.14242832 0.11809567
0.52598268 -0.14100727 0.11745613
0.52534699 -0.1398358 0.11713045
0.52471197 -0.13866228 0.11680473
0.52407759 -0.13748668 0.11647899
0.52344382 -0.13630901 0.11615323
0.5218963 -0.13487144 0.11551348
0.52126414 -0.1336886 0.11518764
0.52063257 -0.1325037 0.11486179
0.51908821 -0.13105579 0.11422191
0.5175451 -0.12960374 0.11358199
0.5169161 -0.12841058 0.11325603
0.51628762 -0.12721533 0.11293002
0.51474774 -0.12575296 0.11228997
0.5132091 -0.12428645 0.11164986
0.51258314 -0.12308293 0.11132375
0.51195788 -0.12187736 0.11099762
0.51133329 -0.12066972 0.11067148
0.50979871 -0.11918977 0.11003118
0.50917566 -0.11797696 0.10970496
0.50855321 -0.11676209 0.10937872
0.50793147 -0.11554515 0.10905245
0.50731033 -0.11432614 0.10872615
0.50668973 -0.11310506 0.10839981
0.50606984 -0.11188191 0.10807347
0.50545061 -0.11065671 0.10774709
0.50483197 -0.10942943 0.10742068
0.50421399 -0.1082001 0.10709425
0.5035966 -0.10696867 0.10676778
0.50297982 -0.10573519 0.1064413
0.50236374 -0.10449965 0.10611479
0.50174826 -0.10326204 0.10578825
0.50113338 -0.10202235 0.10546167
0.50051916 -0.10078061 0.10513508
0.49990559 -0.099536791 0.10480846
0.49838743 -0.098003112 0.1041675
0.49777538 -0.096754119 0.1038408
0.49716401 -0.095503077 0.1035141
0.49655327 -0.094249964 0.10318735
0.49594316 -0.092994779 0.10286059
0.49623731 -0.09203051 0.10284819
0.49562815 -0.090772234 0.10252139
0.49501956 -0.089511864 0.10219455
0.49441165 -0.088249452 0.1018677
0.49380437 -0.086984977 0.10154081
0.49319774 -0.085718423 0.1012139
0.49349347 -0.084748983 0.10120144
0.49288771 -0.083479322 0.10087448
0.49318376 -0.082508847 0.100862
0.49257901 -0.081236094 0.10053501
0.49287537 -0.080264591 0.10052253
0.49227157 -0.078988738 0.1001955
0.4916684 -0.077710822 0.099868439
0.49106586 -0.076430842 0.099541359
0.49046388 -0.075148776 0.099214241
0.48986259 -0.073864654 0.098887101
0.48926196 -0.072578475 0.098559946
0.48956022 -0.071600765 0.098547369
0.4889605 -0.070311479 0.09822017
0.48925906 -0.069332741 0.098207586
0.48866025 -0.068040334 0.097880334
0.48806211 -0.066745885 0.097553067
0.48746464 -0.065449364 0.09722577
0.48776415 -0.06446752 0.097213149
0.48806366 -0.063485682 0.097200528
0.48836318 -0.062503837 0.097187907
0.48776725 -0.061202146 0.096860543
0.48806709 -0.060219273 0.096847907
0.48747212 -0.058914486 0.096520513
0.48687771 -0.057607617 0.096193068
0.48717818 -0.056622673 0.096180402
0.48658475 -0.055312719 0.095852934
0.48688555 -0.054326743 0.09584026
0.48718631 -0.053340767 0.095827587
0.48659417 -0.052026678 0.095500067
0.48689526 -0.051039666 0.095487379
0.48630407 -0.049722474 0.095159821
0.4866055 -0.04873443 0.095147118
0.48690689 -0.04774639 0.095134415
0.48631695 -0.046425067 0.094806798
0.4866187 -0.045435991 0.094794087
0.48692042 -0.044446912 0.094781369
0.48722214 -0.043457836 0.094768651
0.48752385 -0.04246876 0.09475594
0.48782557 -0.041479684 0.094743222
0.48812729 -0.040490609 0.094730504
0.48842904 -0.039501533 0.094717793
0.48873076 -0.03851245 0.094705075
0.48903248 -0.037523374 0.094692357
0.4893342 -0.036534298 0.094679646
0.48963591 -0.035545215 0.094666928
0.48993763 -0.034556139 0.09465421
0.49023938 -0.033567064 0.094641492
0.4905411 -0.032577988 0.094628781
0.49084282 -0.031588912 0.094616063
0.49114454 -0.030599838 0.094603345
0.49144626 -0.029610762 0.094590634
0.49174798 -0.028621687 0.094577916
0.49204972 -0.027632603 0.094565198
0.49235144 -0.026643528 0.094552487
0.49265316 -0.025654452 0.094539769
0.49383929 -0.0250214 0.094842255
0.49414068 -0.024033356 0.094829552
0.49444211 -0.023045314 0.094816849
0.4947435 -0.022057271 0.094804153
0.49504492 -0.021069227 0.09479145
0.49534634 -0.020081183 0.094778746
0.49564773 -0.019093141 0.094766043
0.49594915 -0.018105097 0.09475334
0.49625054 -0.017117053 0.094740637
0.49655196 -0.016129011 0.094727933
0.49597213 -0.014774611 0.094399899
0.49539286 -0.013418131 0.094071813
0.49569488 -0.012428022 0.094059087
0.49511662 -0.011068461 0.093730979
0.49365899 -0.0093363402 0.093087465
0.49308226 -0.0079715932 0.092759274
0.49250618 -0.0066047972 0.092431076
0.49193075 -0.0052359221 0.092102855
0.49223468 -0.0042396123 0.092090048
0.4925386 -0.0032433022 0.09207724
0.49284256 -0.0022469924 0.092064433
0.49314648 -0.0012506754 0.092051625
0.49432787 -0.00063312543 0.092354305
0.4946315 0.00036215206 0.092341512
0.4949351 0.0013574295 0.092328712
0.49523872 0.0023527069 0.09231592
0.49641854 0.0029650952 0.092618674
0.49672183 0.00395934 0.092605889
0.49702513 0.0049535851 0.092593111
0.49820375 0.0055618272 0.092895932
0.49938169 0.006168006 0.093198761
0.49968436 0.0071601789 0.093186006
0.50086135 0.0077632684 0.09348888
0.50116372 0.0087544164 0.093476132
0.50146604 0.0097455569 0.093463391
0.50176841 0.010736704 0.093450651
0.50294381 0.011334624 0.093753591
0.50324583 0.012324733 0.093740858
0.50354791 0.01331484 0.093728133
0.50384992 0.014304955 0.0937154
0.504152 0.015295072 0.093702674
0.50445402 0.016285179 0.093689941
0.50562727 0.016875841 0.093992993
0.50592899 0.017864924 0.093980275
0.50623071 0.018853992 0.093967564
0.50740266 0.019440541 0.094270647
0.50770408 0.020428585 0.094257943
0.50887507 0.021012044 0.094561063
0.50917614 0.021999048 0.094548374
0.50947726 0.022986051 0.094535686
0.50977832 0.023973068 0.094522998
0.51007944 0.024960073 0.094510309
0.51038051 0.02594709 0.094497621
0.51068163 0.026934095 0.094484933
0.51098269 0.027921099 0.094472244
0.51215088 0.028495258 0.094775483
0.51245165 0.029481236 0.09476281
0.51361883 0.030052278 0.095066093
0.51391929 0.031037217 0.095053434
0.51508564 0.031605151 0.09535677
0.51538575 0.032589052 0.095344126
0.51568592 0.033572964 0.095331475
0.51685095 0.034136772 0.095634848
0.51715076 0.035119645 0.095622212
0.51745057 0.036102518 0.095609576
0.51861435 0.03666221 0.095913008
0.51977748 0.037219822 0.096216463
0.52093995 0.037775356 0.096519947
0.52210182 0.038328834 0.096823469
0.52240038 0.039307564 0.096810892
0.5235613 0.039857943 0.097114436
0.52472156 0.040406242 0.09741801
0.52588123 0.040952507 0.097721621
0.5270403 0.041496657 0.098025262
0.52733761 0.04247126 0.09801273
0.52849567 0.043012351 0.098316401
0.52879268 0.043985914 0.098303884
0.52994978 0.044523887 0.0986076
0.53110629 0.045059796 0.09891133
0.53140265 0.046031293 0.098898843
0.5325582 0.046564113 0.099202618
0.53285426 0.047534585 0.099190146
0.53315032 0.048505068 0.099177666
0.53344637 0.049475539 0.099165186
0.53460038 0.05000316 0.099469043
0.53575373 0.050528716 0.099772908
0.53690642 0.051052239 0.10007681
0.53720152 0.052019604 0.10006437
0.53749663 0.052986983 0.10005194
0.53779173 0.053954352 0.1000395
0.53894287 0.054472689 0.10034346
0.53923762 0.055439029 0.10033104
0.54038787 0.055954244 0.10063505
0.54153746 0.056467425 0.10093908
0.54268634 0.056978516 0.10124313
0.54298019 0.05794175 0.10123075
0.54412818 0.058449749 0.10153485
0.54527551 0.058955699 0.10183897
0.5464223 0.059459552 0.10214313
0.54756838 0.059961341 0.10244731
0.54956675 0.060001712 0.10306804
0.55071121 0.060498346 0.10337228
0.55185515 0.0609929 0.10367656
0.55385035 0.061022919 0.10429742
0.55499268 0.061512332 0.10460176
0.55698568 0.061535116 0.10522273
0.55812639 0.062019333 0.10552713
0.55841583 0.062968105 0.10551494
0.56040597 0.062981598 0.10613601
0.56239492 0.062990941 0.10675716
0.56353277 0.063465871 0.10706168
0.56551945 0.063467994 0.1076829
0.56665581 0.063937739 0.1079875
0.56779152 0.064405441 0.10829212
0.56892657 0.064871058 0.10859675
0.5709092 0.064859733 0.10921817
0.57289052 0.064844303 0.10983961
0.57402301 0.065301642 0.11014436
0.57600218 0.065278955 0.11076592
0.5788269 0.064773135 0.1117043
0.58080322 0.06474112 0.11232597
0.58277822 0.064705007 0.11294769
0.58475202 0.064664751 0.11356948
0.58841574 0.06365408 0.11482497
0.5912317 0.063119307 0.11576373
0.59151071 0.06403397 0.11575197
0.59601319 0.062517405 0.11732461
0.59882379 0.061965056 0.11826361
0.60163254 0.061406516 0.11920268
0.60443926 0.060841784 0.12014182
0.60724419 0.060270827 0.12108105
0.61004716 0.05969369 0.12202035
0.6145339 0.058125444 0.12359367
0.61817497 0.057040352 0.12485012
0.62181354 0.055946998 0.12610669
0.62376589 0.05583645 0.12672938
0.62571692 0.055721786 0.1273521
0.62598425 0.056598213 0.12734084
0.62793344 0.056477338 0.12796365
0.62988138 0.056352351 0.12858652
0.63182801 0.056223202 0.12920943
0.63377339 0.056089923 0.1298324
0.63571751 0.055952519 0.13045542
0.63849974 0.055307169 0.13139561
0.640441 0.055160448 0.13201874
0.64238107 0.0550096 0.13264196
0.64264303 0.055868454 0.13263091
0.64541924 0.055203468 0.13357133
0.64568031 0.056059219 0.13356033
0.64677882 0.056404945 0.13386652
0.64787668 0.056748621 0.13417274
0.64813709 0.057602309 0.13416176
0.64839751 0.058455992 0.13415079
0.64949411 0.058795527 0.13445704
0.65059006 0.059133012 0.13476333
0.65084982 0.059984632 0.13475239
0.65110964 0.060836252 0.13474144
0.65136945 0.061687872 0.13473049
0.65162921 0.062539488 0.13471954
0.65188903 0.063391112 0.1347086
0.65214878 0.064242728 0.13469765
0.6524086 0.065094337 0.13468669
0.65266836 0.065945961 0.13467574
0.65292817 0.066797577 0.1346648
0.65318799 0.067649201 0.13465385
0.65344775 0.068500817 0.1346429
0.65370756 0.069352441 0.13463195
0.65479916 0.069675423 0.13493843
0.65505862 0.070526004 0.1349275
0.65614921 0.070845902 0.13523401
0.6572392 0.071163744 0.13554056
0.65749806 0.072012261 0.13552965
0.65609652 0.073928341 0.13488376
0.66050535 0.072104834 0.13646035
0.66076326 0.072950244 0.13644949
0.53278458 -0.15860561 0.120492
0.53306079 -0.15770024 0.12048036
0.53425705 -0.15703298 0.12078346
0.5345329 -0.15612866 0.12077183
0.53480881 -0.15522432 0.1207602
0.53508466 -0.15432 0.12074857
0.53536052 -0.15341567 0.12073695
0.53563643 -0.15251134 0.12072532
0.53407592 -0.1511184 0.12008407
0.5325166 -0.14972131 0.11944275
0.53187615 -0.14856647 0.11911622
0.53123635 -0.14740957 0.11878968
0.53059721 -0.14625061 0.11846311
0.52904195 -0.14484008 0.11782161
0.52840436 -0.14367594 0.11749497
0.52776742 -0.14250973 0.11716831
0.52713108 -0.14134146 0.11684161
0.52649534 -0.14017111 0.11651488
0.5249452 -0.13874406 0.11587318
0.52431107 -0.13756855 0.1155464
0.52367759 -0.13639098 0.11521959
0.52213061 -0.13495357 0.11457775
0.52149868 -0.13377084 0.11425086
0.52086741 -0.13258603 0.11392396
0.51932353 -0.13113829 0.11328199
0.51778096 -0.12968644 0.11263997
0.51715219 -0.12849337 0.11231297
0.51652402 -0.12729821 0.11198591
0.51498461 -0.12583601 0.11134376
0.51344651 -0.1243697 0.11070157
0.51282084 -0.12316627 0.11037441
0.51219583 -0.1219608 0.11004724
0.51157153 -0.12075325 0.10972004
0.51003742 -0.11927348 0.10907765
0.50941461 -0.11806076 0.10875039
0.50879252 -0.11684598 0.10842309
0.50817096 -0.11562914 0.10809578
0.50755012 -0.11441022 0.10776844
0.50692981 -0.11318922 0.10744105
0.50631016 -0.11196618 0.10711365
0.50569117 -0.11074106 0.10678623
0.50507283 -0.10951388 0.10645878
0.50445509 -0.10828463 0.1061313
0.50383794 -0.10705329 0.10580378
0.50322145 -0.10581991 0.10547625
0.50260562 -0.10458446 0.1051487
0.50199044 -0.10334694 0.10482112
0.50137579 -0.10210735 0.10449349
0.50076181 -0.10086569 0.10416585
0.50014853 -0.099621974 0.10383819
0.49863088 -0.098088473 0.10319513
0.49801907 -0.09683957 0.10286738
0.49740797 -0.095588617 0.10253963
0.4967975 -0.094335601 0.10221184
0.49618766 -0.093080513 0.10188404
0.49648181 -0.092116237 0.10187164
0.49587291 -0.09085805 0.10154379
0.49526456 -0.089597777 0.1012159
0.49465692 -0.088335462 0.100888
0.49404994 -0.087071069 0.10056007
0.49434534 -0.086102664 0.10054762
0.49373928 -0.084835172 0.10021965
0.49403501 -0.083865739 0.10020719
0.49342984 -0.082595132 0.099879168
0.49282536 -0.081322469 0.099551126
0.49312171 -0.080350965 0.099538639
0.49251816 -0.079075202 0.099210568
0.49191526 -0.077797383 0.098882459
0.49131298 -0.076517493 0.098554336
0.49071127 -0.075235516 0.098226167
0.49011025 -0.07395149 0.097897984
0.49040818 -0.072974816 0.09788543
0.48980811 -0.071687691 0.097557209
0.48920867 -0.070398502 0.097228959
0.48950723 -0.069419757 0.097216375
0.48890868 -0.068127446 0.096888073
0.48831081 -0.066833086 0.096559763
0.48771358 -0.065536655 0.096231423
0.48801309 -0.064554818 0.096218795
0.4883126 -0.063572973 0.096206173
0.48861212 -0.062591128 0.096193552
0.48801646 -0.06128953 0.095865145
0.4883163 -0.060306657 0.095852509
0.48772159 -0.059001964 0.095524065
0.48712745 -0.057695184 0.095195577
0.48742792 -0.056710243 0.095182911
0.48683476 -0.055400379 0.0948544
0.48713553 -0.054414403 0.094841726
0.48743632 -0.053428426 0.094829053
0.48684445 -0.052114431 0.094500482
0.48714554 -0.051127419 0.094487794
0.48744664 -0.050140407 0.094475098
0.48685601 -0.048822273 0.094146483
0.48715743 -0.047834232 0.094133779
0.48745883 -0.046846192 0.094121076
0.48776025 -0.045858148 0.09410838
0.4871712 -0.044534847 0.093779691
0.48747292 -0.043545771 0.093766972
0.48777464 -0.042556696 0.093754262
0.48807636 -0.04156762 0.093741544
0.48837808 -0.040578544 0.093728825
0.48867983 -0.039589468 0.093716115
0.48898154 -0.038600385 0.093703397
0.48928326 -0.037611309 0.093690678
0.48958498 -0.036622234 0.093677968
0.4898867 -0.03563315 0.09366525
0.49018845 -0.034644075 0.093652532
0.49049017 -0.033654999 0.093639813
0.49079189 -0.032665923 0.093627103
0.49197996 -0.03202555 0.093930542
0.49228135 -0.031037504 0.093917839
0.49258277 -0.030049462 0.093905136
0.49288419 -0.029061418 0.093892433
0.49318558 -0.028073374 0.09387973
0.493487 -0.02708533 0.093867034
0.49378839 -0.026097288 0.09385433
0.49408981 -0.025109245 0.093841627
0.4943912 -0.024121201 0.093828924
0.49469262 -0.023133159 0.093816221
0.49587724 -0.022504138 0.094119802
0.49617833 -0.021517128 0.094107114
0.49647942 -0.020530123 0.094094425
0.49678051 -0.019543113 0.094081737
0.49708161 -0.018556101 0.094069049
0.4973827 -0.017569091 0.09405636
0.49768379 -0.016582079 0.094043672
0.49798489 -0.015595069 0.094030976
0.49740529 -0.014240768 0.093701899
0.49770671 -0.013252725 0.093689196
0.49712807 -0.011895313 0.093360074
0.49567029 -0.010165432 0.092714474
0.49421382 -0.0084314318 0.092068829
0.49363765 -0.0070657432 0.091739587
0.49306217 -0.0056980071 0.091410324
0.49336576 -0.0047027296 0.091397531
0.49279124 -0.0033318815 0.091068238
0.49309516 -0.0023355717 0.09105543
0.49339911 -0.0013392546 0.091042615
0.49458024 -0.00072161271 0.091346346
0.49488387 0.00027366474 0.091333553
0.49518746 0.0012689421 0.091320761
0.49549109 0.0022642196 0.09130796
0.49667063 0.0028766997 0.091611765
0.49697393 0.0038709447 0.09159898
0.49815261 0.0044803107 0.091902837
0.49845558 0.0054735234 0.091890067
0.49963325 0.0060797944 0.092193939
0.49993593 0.0070719672 0.092181183
0.50111264 0.0076751485 0.092485107
0.50141501 0.0086662965 0.092472367
0.50171739 0.009657437 0.092459626
0.5020197 0.010648585 0.092446886
0.50319487 0.011246596 0.092750862
0.50349689 0.012236704 0.092738137
0.50379896 0.013226813 0.092725404
0.50410098 0.014216928 0.092712678
0.504403 0.015207043 0.092699952
0.50470507 0.016197151 0.092687219
0.50587803 0.016787905 0.092991315
0.50617975 0.017776988 0.092978597
0.50735176 0.018364655 0.093282714
0.50765318 0.019352697 0.093270011
0.5079546 0.020340741 0.093257315
0.50912529 0.020924291 0.093561478
0.50942641 0.021911295 0.09354879
0.50972748 0.0228983 0.093536101
0.5100286 0.023885317 0.093523413
0.51032966 0.02487232 0.093510725
0.51063079 0.025859339 0.093498036
0.51093185 0.026846342 0.093485348
0.5121001 0.02742162 0.09378963
0.51240087 0.028407598 0.093776949
0.51270163 0.029393576 0.093764275
0.51386857 0.02996471 0.094068602
0.51416904 0.030949648 0.094055943
0.51533508 0.031517673 0.094360329
0.51563525 0.032501575 0.094347678
0.51593542 0.033485487 0.094335027
0.51710016 0.034049384 0.09463945
0.51739997 0.035032261 0.094626814
0.51769978 0.036015134 0.094614178
0.51886332 0.036574919 0.094918653
0.52002615 0.037132621 0.095223166
0.52118838 0.037688248 0.095527694
0.52235001 0.038241819 0.095832258
0.52351099 0.038793314 0.096136846
0.52380919 0.03977102 0.096124277
0.52496922 0.040319409 0.096428894
0.52612859 0.040865764 0.096733548
0.52728742 0.04141001 0.097038239
0.52844554 0.041952219 0.097342938
0.52874255 0.042925794 0.097330421
0.52989972 0.043464888 0.097635172
0.53019637 0.044437423 0.097622663
0.53135264 0.044973422 0.097927444
0.53164899 0.045944918 0.097914957
0.53280425 0.046477832 0.098219782
0.53310031 0.047448304 0.09820731
0.53339636 0.048418786 0.09819483
0.53369242 0.049389258 0.09818235
0.53484619 0.049916968 0.098487251
0.53599924 0.050442617 0.098792166
0.53715169 0.050966229 0.09909711
0.5374468 0.051933598 0.099084675
0.5377419 0.052900977 0.09907224
0.538037 0.053868342 0.099059805
0.53918785 0.054386772 0.09936481
0.53948265 0.055353113 0.099352382
0.53977746 0.056319453 0.099339962
0.54092711 0.056833722 0.099645041
0.54207611 0.057345957 0.099950127
0.54322445 0.057856113 0.10025524
0.54437214 0.058364205 0.10056038
0.54551923 0.058870245 0.10086555
0.54666573 0.059374187 0.10117076
0.54866451 0.059417833 0.10179354
0.5498094 0.059916623 0.10209881
0.55095363 0.060413349 0.1024041
0.55209732 0.060907997 0.10270942
0.55409199 0.060938198 0.10333238
0.55523401 0.061427705 0.10363776
0.55722654 0.061450671 0.10426082
0.55836695 0.061934981 0.10456628
0.55865639 0.06288375 0.10455408
0.560646 0.062897436 0.10517725
0.56263441 0.062906958 0.10580049
0.56377208 0.063381977 0.10610605
0.56575817 0.063384287 0.10672937
0.56689429 0.063854128 0.10703502
0.5680297 0.064321913 0.10734068
0.56916451 0.064787626 0.10764636
0.57029867 0.065251283 0.10795208
0.57227981 0.06523703 0.10857562
0.57341242 0.065695532 0.1088814
0.57539129 0.065674059 0.10950503
0.57736897 0.065648451 0.11012871
0.57934535 0.065618716 0.11075244
0.58301252 0.064622864 0.11201195
0.58498579 0.064582787 0.11263584
0.58949387 0.063089423 0.11421341
0.59061861 0.063522071 0.11451952
0.59174263 0.063952647 0.11482566
0.5962438 0.062436543 0.11640353
0.59905362 0.06188447 0.11734567
0.6027053 0.06083798 0.11860583
0.60635453 0.059783231 0.1198661
0.60915798 0.059210513 0.12080847
0.61280239 0.058140241 0.12206895
0.61644435 0.057061724 0.12332952
0.62008375 0.055974919 0.1245902
0.62287873 0.055374276 0.12553295
0.6256718 0.054767452 0.12647578
0.62762171 0.054650892 0.12710063
0.62788844 0.05552524 0.1270894
0.62899578 0.055901051 0.12739624
0.63178319 0.0552756 0.12833931
0.63288867 0.055645201 0.12864624
0.63483322 0.055511083 0.12927131
0.63845527 0.054367445 0.13053271
0.64207482 0.053215533 0.13179424
0.64485306 0.052560121 0.13273768
0.64511412 0.053415887 0.13272668
0.64621335 0.053764794 0.13303389
0.64731187 0.054111671 0.1333411
0.64757228 0.054965355 0.13333012
0.64866984 0.055309109 0.13363738
0.64892995 0.056161769 0.13362642
0.64919007 0.057014417 0.13361545
0.65028644 0.057354055 0.13392276
0.65054619 0.058205675 0.13391182
0.65164161 0.058542181 0.13421917
0.65190113 0.059392776 0.13420823
0.65216058 0.060243357 0.13419729
0.65242004 0.061093938 0.13418637
0.65267956 0.061944533 0.13417543
0.65293902 0.06279511 0.1341645
0.65319848 0.063645691 0.13415356
0.65345794 0.064496286 0.13414262
0.65371746 0.065346867 0.13413168
0.65397692 0.066197447 0.13412076
0.65506881 0.066522606 0.13442825
0.65532798 0.067372158 0.13441733
0.65558714 0.068221718 0.1344064
0.6558463 0.069071271 0.13439548
0.65610546 0.069920816 0.13438456
0.65719551 0.07023979 0.13469213
0.6582849 0.070556678 0.13499974
0.65854341 0.071404167 0.13498884
0.65880191 0.07225164 0.13497794
0.66071975 0.072029673 0.13560416
0.6609776 0.072875082 0.1355933
0.53301418 -0.1586861 0.11957511
0.53329033 -0.15778074 0.11956346
0.53448635 -0.15711339 0.11986761
0.5347622 -0.15620905 0.11985598
0.53503811 -0.15530473 0.11984435
0.53531396 -0.15440041 0.11983272
0.53467131 -0.15325393 0.11950526
0.53494745 -0.15234856 0.11949363
0.53430569 -0.15119898 0.11916613
0.53274691 -0.14980207 0.11852271
0.53210676 -0.14864734 0.11819515
0.5314672 -0.14749052 0.11786755
0.5308283 -0.14633164 0.11753993
0.53019005 -0.1451707 0.11721228
0.52863628 -0.14375725 0.11656865
0.52891535 -0.14284259 0.11655689
0.52736354 -0.14142296 0.1159132
0.52672803 -0.14025269 0.11558542
0.52517843 -0.13882583 0.11494163
0.5245446 -0.13765042 0.1146138
0.52391136 -0.13647294 0.11428595
0.52327871 -0.13529338 0.11395804
0.52173322 -0.13385308 0.11331408
0.52110219 -0.13266836 0.11298613
0.51955885 -0.1312208 0.11234206
0.51801682 -0.12976915 0.11169796
0.51738834 -0.12857616 0.1113699
0.51676041 -0.12738109 0.1110418
0.51522154 -0.12591909 0.11039756
0.51368392 -0.12445295 0.10975327
0.51305854 -0.12324961 0.10942507
0.51243383 -0.12204423 0.10909684
0.51089936 -0.12056775 0.10845242
0.51027614 -0.11935718 0.10812412
0.50965363 -0.11814456 0.10779581
0.50903177 -0.11692987 0.10746747
0.50841051 -0.11571312 0.10713911
0.50778985 -0.1144943 0.10681072
0.50716984 -0.11327339 0.10648228
0.50655049 -0.11205044 0.10615384
0.50593174 -0.11082541 0.10582537
0.50531363 -0.10959832 0.10549688
0.50469619 -0.10836916 0.10516835
0.50407928 -0.10713793 0.10483979
0.50346309 -0.10590463 0.10451121
0.50284749 -0.10466927 0.10418261
0.50223255 -0.10343185 0.10385398
0.50161821 -0.10219234 0.1035253
0.50100452 -0.10095078 0.10319662
0.50039142 -0.099707156 0.10286792
0.49977902 -0.098461464 0.10253917
0.49916723 -0.0972137 0.10221041
0.49855602 -0.095963858 0.10188161
0.49794549 -0.094711959 0.10155279
0.49733558 -0.093457997 0.10122395
0.4967263 -0.092201971 0.10089508
0.49611765 -0.090943873 0.10056619
0.49550959 -0.089683697 0.10023725
0.49490222 -0.088421464 0.0999083
0.49429548 -0.087157167 0.099579327
0.49459088 -0.086188763 0.099566877
0.49398509 -0.084921367 0.099237859
0.49428082 -0.083951928 0.099225402
0.49367592 -0.08268141 0.098896332
0.49307168 -0.081408843 0.098567247
0.49336803 -0.08043734 0.098554753
0.49276477 -0.079161674 0.098225638
0.49216211 -0.077883944 0.097896487
0.49245912 -0.076910369 0.09788397
0.49185741 -0.075629532 0.097554781
0.49125627 -0.074346617 0.097225554
0.4915539 -0.073370978 0.097213008
0.49095377 -0.072084971 0.096883759
0.49035427 -0.070796907 0.096554473
0.48975539 -0.069506772 0.096225165
0.48915711 -0.068214551 0.095895819
0.48855951 -0.066920288 0.095566459
0.48796254 -0.065623946 0.095237069
0.48826206 -0.064642109 0.095224448
0.48766601 -0.063342668 0.09489502
0.48796585 -0.062359795 0.094882384
0.48826569 -0.061376918 0.094869748
0.48767093 -0.06007335 0.094540268
0.48797107 -0.059089441 0.094527625
0.4873772 -0.057782754 0.094198085
0.48767763 -0.05679781 0.094185419
0.48708478 -0.055488039 0.093855865
0.48738554 -0.054502062 0.093843184
0.48768634 -0.053516086 0.093830511
0.4870947 -0.05220218 0.093500897
0.48739579 -0.051215172 0.093488201
0.48769689 -0.05022816 0.093475513
0.48799798 -0.049241152 0.093462825
0.48829907 -0.04825414 0.093450136
0.48770934 -0.046934035 0.093120448
0.48801076 -0.045945991 0.093107745
0.48742199 -0.044622783 0.092778012
0.48772371 -0.043633707 0.092765301
0.48802543 -0.042644631 0.092752583
0.48832715 -0.041655555 0.092739865
0.48862889 -0.04066648 0.092727154
0.48893061 -0.039677404 0.092714436
0.48923233 -0.038688321 0.092701718
0.48953405 -0.037699245 0.092689008
0.48983577 -0.036710169 0.092676289
0.49013749 -0.035721086 0.092663571
0.49132624 -0.035077523 0.092968017
0.49162766 -0.03408948 0.092955314
0.49192908 -0.033101436 0.09294261
0.49223047 -0.032113392 0.092929915
0.4925319 -0.031125348 0.092917211
0.49283329 -0.030137306 0.092904508
0.49313471 -0.029149262 0.092891805
0.4934361 -0.028161218 0.092879102
0.49462202 -0.027526937 0.093183666
0.49492311 -0.026539927 0.093170978
0.49522421 -0.025552923 0.09315829
0.4955253 -0.024565913 0.093145594
0.49582639 -0.023578901 0.093132906
0.49612749 -0.022591891 0.093120217
0.49642858 -0.021604879 0.093107529
0.497612 -0.020978872 0.093412206
0.49791276 -0.019992894 0.093399532
0.49821353 -0.019006921 0.093386859
0.49939567 -0.018385051 0.09369158
0.49969614 -0.017400112 0.093678914
0.4999966 -0.016415166 0.093666255
0.49941665 -0.015063015 0.09333615
0.49971744 -0.014077037 0.093323477
0.49913841 -0.012721796 0.092993326
0.49768057 -0.010994173 0.092345677
0.49622396 -0.0092624109 0.091697961
0.49476862 -0.0075265225 0.0910502
0.49419305 -0.0061598937 0.090719894
0.49449635 -0.0051656486 0.090707108
0.49392176 -0.0037959395 0.090376779
0.49422535 -0.0028006549 0.090363979
0.49452898 -0.0018053774 0.090351187
0.49483261 -0.0008101 0.090338394
0.4951362 0.00018517744 0.090325594
0.49543983 0.0011804549 0.090312801
0.49574345 0.0021757323 0.090300001
0.49692273 0.0027883044 0.090604849
0.49722603 0.0037825492 0.090592071
0.49840444 0.0043920074 0.090896972
0.49870744 0.0053852201 0.090884201
0.49988484 0.0059915828 0.091189124
0.50106162 0.0065958882 0.091494083
0.50136399 0.0075870291 0.091481335
0.50166631 0.0085781766 0.091468595
0.50196868 0.0095693171 0.091455854
0.50227106 0.010560465 0.091443114
0.50344592 0.011158569 0.091748141
0.50374794 0.012148676 0.091735408
0.50405002 0.013138785 0.091722682
0.50435203 0.0141289 0.091709957
0.50465405 0.015119015 0.091697223
0.50582713 0.015710901 0.092002355
0.50612885 0.01669997 0.091989636
0.50730091 0.017288767 0.09229479
0.50760227 0.018276811 0.092282087
0.5079037 0.019264853 0.092269383
0.50820512 0.020252896 0.09225668
0.50937557 0.02083654 0.092561893
0.50967669 0.021823542 0.092549205
0.50997776 0.022810547 0.092536516
0.51114696 0.02339006 0.092841789
0.51144773 0.024376024 0.092829116
0.51174855 0.025362002 0.092816442
0.51204932 0.02634798 0.092803761
0.51235008 0.02733396 0.092791088
0.51265085 0.028319938 0.092778414
0.51295167 0.029305916 0.092765734
0.51325244 0.03029188 0.09275306
0.51441878 0.03086208 0.093058452
0.51558459 0.031430196 0.093363889
0.51588476 0.032414097 0.093351237
0.51618487 0.03339801 0.093338586
0.51734936 0.033962 0.093644053
0.51764917 0.034944877 0.093631417
0.51881272 0.03550579 0.093936928
0.51997566 0.03606461 0.094242468
0.52027482 0.037045419 0.094229855
0.52143681 0.037601136 0.094535433
0.52259815 0.038154803 0.094841048
0.52375889 0.038706388 0.095146678
0.52491891 0.03925591 0.095452338
0.52607834 0.039803367 0.095758021
0.52723724 0.040348746 0.096063748
0.52753454 0.04132336 0.096051216
0.52869242 0.041865662 0.096356966
0.52984965 0.04240587 0.096662745
0.5301463 0.04337842 0.096650243
0.53044301 0.044350956 0.096637733
0.53159899 0.044887051 0.096943565
0.53189534 0.045858547 0.09693107
0.53305036 0.04639155 0.097236946
0.53334641 0.047362018 0.097224467
0.53364241 0.048332505 0.097211994
0.53479624 0.048861332 0.09751793
0.535092 0.049830779 0.097505465
0.53624481 0.050356518 0.097811423
0.53739697 0.050880224 0.098117419
0.53769207 0.051847592 0.098104976
0.53798717 0.052814972 0.098092541
0.53913814 0.053334516 0.098398581
0.53943288 0.05430086 0.098386161
0.53972769 0.0552672 0.098373733
0.54002249 0.05623354 0.098361313
0.54117185 0.056747898 0.098667435
0.54232061 0.057260226 0.098973572
0.54346865 0.057770476 0.099279732
0.5446161 0.058278657 0.099585921
0.54576296 0.058784787 0.099892132
0.54690921 0.059288826 0.10019839
0.54890746 0.059332654 0.10082327
0.55005205 0.059831537 0.10112958
0.55119604 0.060328357 0.10143591
0.55233943 0.060823094 0.10174228
0.55433357 0.060853478 0.10236733
0.55632651 0.060879733 0.10299246
0.55746734 0.061366227 0.10329892
0.55945802 0.061385237 0.10392412
0.5597471 0.06233298 0.10391194
0.56088609 0.062813267 0.10421848
0.56287396 0.062822968 0.10484382
0.56401134 0.063298084 0.10515043
0.56599694 0.06330058 0.10577584
0.56713277 0.06377051 0.10608254
0.56826794 0.064238392 0.10638924
0.56940246 0.064704195 0.10669597
0.57053638 0.065167941 0.10700274
0.5716697 0.065629601 0.10730954
0.57364929 0.065612465 0.1079352
0.57562768 0.065591179 0.10856091
0.57760483 0.06556575 0.10918669
0.57873464 0.066016048 0.10949363
0.58155531 0.065502502 0.11043841
0.58437407 0.064982764 0.11138325
0.58972633 0.063007921 0.113285
0.59000599 0.063924663 0.11327321
0.59197456 0.063871324 0.11389934
0.59225363 0.064785987 0.11388759
0.6009711 0.06082971 0.11706569
0.60377765 0.060269643 0.11801106
0.61501443 0.054811765 0.12214666
0.61528528 0.055699553 0.12213524
0.61471349 0.05707857 0.12180479
0.61751145 0.056490622 0.12275051
0.62030756 0.055896446 0.12369633
0.62478501 0.054307435 0.12528038
0.62673533 0.054194178 0.12590729
0.62784344 0.054573156 0.12621514
0.6297915 0.054452665 0.12684214
0.63005763 0.055324946 0.12683092
0.63368398 0.054199249 0.1280963
0.63478857 0.054566864 0.12840429
0.6350531 0.055433992 0.12839314
0.63867408 0.054290719 0.12965873
0.64564782 0.051124644 0.13220124
0.64674705 0.051474717 0.13250947
0.64700747 0.0523284 0.13249849
0.64810574 0.052675352 0.13280675
0.64920342 0.053020254 0.13311504
0.64946318 0.053871874 0.13310409
0.64972299 0.054723494 0.13309313
0.64998275 0.055575099 0.1330822
0.65024257 0.056426719 0.13307124
0.65133834 0.056765396 0.13337962
0.65159786 0.057615977 0.13336869
0.65185732 0.058466557 0.13335775
0.65295178 0.058801107 0.13366617
0.65321094 0.059650663 0.13365525
0.6534701 0.060500216 0.13364433
0.65372926 0.061349772 0.1336334
0.65398842 0.062199313 0.13362248
0.65424758 0.063048869 0.13361156
0.65450674 0.063898422 0.13360064
0.6555987 0.064224727 0.13390917
0.65585756 0.065073244 0.13389826
0.65611643 0.065921761 0.13388735
0.65637529 0.066770278 0.13387644
0.65663409 0.067618787 0.13386554
0.65689296 0.068467304 0.13385463
0.65715182 0.069315836 0.13384372
0.65824127 0.069633849 0.13415235
0.65849978 0.07048133 0.13414145
0.65958828 0.070796236 0.13445012
0.65984648 0.071642689 0.13443924
0.66093409 0.071954511 0.13474797
0.661192 0.072799921 0.1347371
0.53471565 -0.15719378 0.11895175
0.5349915 -0.15628946 0.11894013
0.53434849 -0.15514514 0.11861165
0.53462464 -0.15423977 0.11860001
0.53398252 -0.15309235 0.11827148
0.53425902 -0.15218596 0.11825983
0.53361785 -0.15103544 0.11793128
0.53297728 -0.14988285 0.11760268
0.53233737 -0.14872819 0.11727406
0.53261483 -0.1478187 0.11726237
0.53197587 -0.14666095 0.11693371
0.53133756 -0.14550112 0.11660504
0.52978402 -0.14408889 0.11595932
0.53006274 -0.14317527 0.11594758
0.52851111 -0.14175686 0.1153018
0.5278756 -0.14058773 0.114973
0.52632618 -0.13916208 0.11432713
0.52569228 -0.13798779 0.11399826
0.52414513 -0.1365549 0.1133523
0.52351272 -0.13537543 0.11302336
0.52196777 -0.13393532 0.1123773
0.52133697 -0.13275069 0.1120483
0.51979417 -0.13130333 0.11140214
0.51825267 -0.12985183 0.11075594
0.51762444 -0.12865895 0.11042684
0.5169968 -0.12746397 0.11009769
0.51545841 -0.12600215 0.10945135
0.51392132 -0.1245362 0.10880497
0.51329619 -0.12333295 0.10847572
0.51267177 -0.12212766 0.10814645
0.51113784 -0.12065137 0.10749993
0.51051486 -0.11944089 0.10717059
0.50989264 -0.11822836 0.10684123
0.50927103 -0.11701377 0.10651185
0.50865 -0.1157971 0.10618243
0.50802964 -0.11457837 0.10585301
0.50740987 -0.11335756 0.10552352
0.50679076 -0.1121347 0.10519403
0.5061723 -0.11090977 0.10486452
0.5055545 -0.10968277 0.10453497
0.50493729 -0.1084537 0.10420541
0.50432062 -0.10722255 0.10387579
0.50370467 -0.10598935 0.10354616
0.50308937 -0.10475408 0.10321651
0.50247467 -0.10351675 0.10288684
0.50186056 -0.10227734 0.10255712
0.50124717 -0.10103587 0.1022274
0.50063437 -0.099792331 0.10189763
0.50002223 -0.098546728 0.10156786
0.49941069 -0.097299062 0.10123804
0.49879971 -0.096049309 0.1009082
0.49818945 -0.094797507 0.10057833
0.49757981 -0.093543641 0.10024844
0.4969708 -0.092287704 0.099918522
0.49636242 -0.091029696 0.09958858
0.49575463 -0.089769609 0.099258602
0.4951475 -0.088507473 0.098928608
0.49454102 -0.087243266 0.098598577
0.49483645 -0.086274862 0.098586127
0.4942309 -0.085007556 0.098256074
0.49452662 -0.084038116 0.098243609
0.49392197 -0.082767695 0.097913489
