# .PCD v0.7 - Point Cloud Data file format
VERSION 0.7
FIELDS x y z
SIZE 4 4 4
TYPE F F F
COUNT 1 1 1
WIDTH 1354
HEIGHT 1
VIEWPOINT 0 0 0 1 0 0 0
POINTS 1354
DATA ascii
0.61730093 -0.044167817 0.056496561
0.61587071 -0.042496052 0.055705298
0.61103392 -0.039255038 0.053302921
0.6130141 -0.039140083 0.054122951
0.61499298 -0.039029244 0.054942884
0.61611962 -0.03852817 0.055360019
0.61639494 -0.037633765 0.055374403
0.61581987 -0.03634293 0.054986089
0.61694551 -0.035844959 0.055403173
0.61722082 -0.034950554 0.055417556
0.61664671 -0.033656612 0.055029292
0.61692232 -0.032761175 0.05504369
0.62144178 -0.033873793 0.05707119
0.62341279 -0.033788815 0.057890724
0.62623054 -0.034111641 0.059112772
0.62650299 -0.033226546 0.059127007
0.62762296 -0.032747202 0.059543807
0.62874222 -0.032269921 0.059960559
0.62986088 -0.031794701 0.060377277
0.63097888 -0.031321544 0.060793962
0.63209635 -0.030850479 0.061210629
0.6332131 -0.030381462 0.061627246
0.6343292 -0.029914511 0.062043834
0.63544464 -0.029449638 0.0624604
0.63655949 -0.028986827 0.062876903
0.63767374 -0.028526098 0.063293405
0.63878727 -0.028067423 0.06370987
0.63990021 -0.027610816 0.064126275
0.64101249 -0.027156273 0.064542674
0.64212418 -0.026703797 0.064959027
0.64407825 -0.026673634 0.065777682
0.64518833 -0.026226329 0.066193946
0.6454553 -0.025358817 0.066207901
0.64656442 -0.024914609 0.06662412
0.64851469 -0.024896849 0.067442574
0.6496222 -0.024457827 0.067858726
0.6515702 -0.024447287 0.068677045
0.65267617 -0.024013441 0.069093116
0.65462196 -0.024010139 0.069911316
0.65572631 -0.023581447 0.070327289
0.65682995 -0.023154836 0.070743226
0.65793312 -0.022730295 0.071159139
0.6590355 -0.0223078 0.071575008
0.66097617 -0.022321051 0.072392948
0.66207707 -0.021903746 0.072808765
0.66317725 -0.021488504 0.073224522
0.66427684 -0.021075316 0.073640227
0.66537571 -0.020664204 0.074055925
0.66563672 -0.019816337 0.074069567
0.6667347 -0.019408319 0.074485205
0.66783208 -0.019002398 0.074900821
0.66892874 -0.018598525 0.075316392
0.67002481 -0.018196719 0.075731926
0.67028451 -0.017352968 0.075745501
0.67054421 -0.016509233 0.075759068
0.67163897 -0.016111573 0.076174542
0.67273319 -0.015715981 0.076589994
0.67299229 -0.014874311 0.076603524
0.67408544 -0.014481822 0.077018917
0.67434418 -0.013641179 0.077032432
0.67460293 -0.012800549 0.077045955
0.67486173 -0.011959906 0.077059478
0.67595333 -0.011572559 0.077474795
0.67704427 -0.011187308 0.077890053
0.67730236 -0.010348745 0.077903539
0.67839235 -0.0099665839 0.078318775
0.6786502 -0.0091290455 0.078332245
0.6797393 -0.0087499944 0.078747429
0.67999679 -0.0079134973 0.078760885
0.68108487 -0.0075375484 0.079176001
0.68134201 -0.0067020766 0.079189442
0.68242913 -0.0063292338 0.079604514
0.68268597 -0.0054948023 0.079617932
0.68377221 -0.0051250365 0.080032952
0.68402869 -0.0042916308 0.080046356
0.68511397 -0.0039249854 0.080461331
0.68537015 -0.0030926196 0.080474719
0.68645447 -0.0027290974 0.080889657
0.68671036 -0.0018977714 0.080903023
0.68696624 -0.0010664313 0.08091639
0.68722212 -0.00023510541 0.080929764
0.68830484 0.0001232909 0.081344604
0.68856037 0.00095357676 0.081357956
0.68881595 0.0017838768 0.081371307
0.68907154 0.0026141768 0.081384659
0.69015265 0.0029673874 0.081799418
0.69040787 0.0037966475 0.081812754
0.6906631 0.0046259076 0.081826091
0.69091839 0.0054551675 0.081839427
0.69117361 0.0062844278 0.081852764
0.69142884 0.0071137021 0.0818661
0.69168413 0.0079429625 0.081879437
0.69276267 0.0082879094 0.082294062
0.6930176 0.009116143 0.082307383
0.69327253 0.0099443635 0.082320698
0.69352746 0.010772598 0.082334019
0.69378239 0.011600832 0.082347341
0.69403732 0.012429052 0.082360663
0.69511372 0.012766731 0.082775198
0.69536829 0.013593925 0.082788497
0.69562292 0.014421119 0.082801804
0.69587755 0.015248314 0.082815103
0.69613212 0.016075509 0.08282841
0.69720656 0.016407005 0.083242819
0.69746083 0.017233161 0.083256103
0.69771516 0.018059328 0.083269387
0.69796944 0.018885484 0.083282679
0.69822371 0.019711651 0.083295964
0.69847804 0.020537807 0.083309248
0.69873232 0.021363974 0.08332254
0.69898659 0.022190129 0.083335824
0.69924092 0.023016296 0.083349109
0.6994952 0.023842452 0.083362393
0.69974947 0.024668619 0.083375685
0.69979542 0.10063699 0.074779518
0.69847238 0.1026572 0.073993839
0.69794285 0.10409592 0.073607892
0.69662213 0.1061234 0.072822332
0.69688565 0.10697956 0.072836101
0.69556683 0.1090132 0.072050653
0.69504017 0.11046124 0.07166487
0.69451416 0.1119113 0.071279109
0.69398868 0.11336345 0.070893377
0.69267404 0.11541057 0.070108145
0.69215024 0.11686787 0.069722496
0.69083774 0.11892225 0.068937369
0.68952662 0.12098074 0.068152323
0.68821669 0.12304338 0.06736733
0.6876964 0.12451208 0.066981874
0.6871767 0.12598282 0.066596434
0.68665767 0.12745565 0.06621106
0.68613929 0.12893055 0.065825686
0.68562144 0.1304075 0.065440349
0.68510431 0.13188657 0.06505508
0.6853742 0.13276339 0.065069176
0.68485802 0.1342455 0.064683922
0.68512821 0.13512337 0.06469804
0.68539846 0.13600123 0.064712159
0.68566865 0.13687907 0.064726278
0.61725307 -0.045115076 0.055576533
0.61752743 -0.044223778 0.055590868
0.6152457 -0.042161949 0.054393642
0.61041087 -0.038920317 0.051985003
0.61239088 -0.038804192 0.052807126
0.61522055 -0.039085463 0.054032989
0.61549616 -0.038190026 0.054047391
0.61577183 -0.037294589 0.054061793
0.61434722 -0.035606407 0.053268682
0.61462349 -0.034708902 0.053283118
0.61489975 -0.033811394 0.053297553
0.61517602 -0.03291389 0.053311985
0.61630106 -0.032416884 0.053730108
0.61657703 -0.031520415 0.053744525
0.62363851 -0.033844579 0.056988195
0.62475973 -0.033359997 0.057406116
0.62672794 -0.033282116 0.05822761
0.62784761 -0.032802708 0.058645464
0.62896663 -0.032325361 0.059063271
0.63008505 -0.031850077 0.059481043
0.63035655 -0.030968074 0.059495229
0.63147396 -0.030495893 0.05991295
0.63259083 -0.030025803 0.060330655
0.63370699 -0.029557753 0.060748298
0.63482249 -0.02909177 0.061165918
0.63593739 -0.028627867 0.061583508
0.63789606 -0.028581018 0.062404536
0.63900936 -0.02812228 0.062822044
0.640122 -0.027665608 0.0632395
0.64123404 -0.027210999 0.063656941
0.64234543 -0.026758458 0.064074345
0.64345622 -0.026308015 0.064491734
0.64540875 -0.026280796 0.06531243
0.64567578 -0.025413282 0.065326378
0.64678466 -0.024969012 0.065743655
0.64789289 -0.024526838 0.066160895
0.64984167 -0.024512036 0.06698139
0.65094823 -0.024075001 0.067398548
0.65289479 -0.024067454 0.068218939
0.65399987 -0.023635592 0.068636
0.65510422 -0.023205811 0.069053046
0.65620798 -0.022778081 0.069470048
0.65731108 -0.022352429 0.069887027
0.65841359 -0.021928864 0.070303984
0.66035408 -0.021940945 0.071124047
0.66145498 -0.021522531 0.071540885
0.66255528 -0.021106202 0.07195773
0.66365486 -0.020691922 0.072374515
0.66475385 -0.020279706 0.072791278
0.66585219 -0.019869572 0.073208004
0.6661132 -0.01902169 0.073221639
0.66721058 -0.018614646 0.073638313
0.66830736 -0.018209701 0.074054956
0.66940349 -0.017806789 0.074471563
0.66966349 -0.016962014 0.074485146
0.67075866 -0.016562207 0.074901707
0.67185318 -0.016164482 0.075318232
0.67211252 -0.015321772 0.075331785
0.67320615 -0.014927154 0.075748272
0.67346525 -0.014085486 0.07576181
0.67372429 -0.013243816 0.075775348
0.67481661 -0.012853327 0.076191753
0.67507535 -0.012012684 0.076205276
0.67616665 -0.011625273 0.076621637
0.6764251 -0.010785669 0.076635137
0.67751551 -0.010401393 0.077051431
0.67777359 -0.0095628155 0.077064916
0.67886305 -0.0091816308 0.07748118
0.67912084 -0.0083440933 0.077494651
0.68020934 -0.0079660164 0.07791087
0.68046683 -0.0071295188 0.077924326
0.68072432 -0.0062930072 0.077937774
0.68181151 -0.0059190593 0.078353919
0.68206865 -0.0050836015 0.07836736
0.68315488 -0.0047127451 0.078783453
0.68424052 -0.0043439548 0.079199508
0.684497 -0.0035105629 0.079212911
0.68475354 -0.0026771571 0.079226315
0.68583786 -0.0023125133 0.079642296
0.68609411 -0.0014801475 0.079655685
0.68635029 -0.00064778153 0.079669066
0.68743342 -0.00028730003 0.080085009
0.6876893 0.00054404011 0.080098376
0.68794519 0.001375366 0.080111749
0.68902695 0.0017317474 0.080527611
0.68928254 0.0025620474 0.080540963
0.68953812 0.0033923476 0.080554314
0.68979365 0.0042226478 0.080567665
0.69004923 0.0050529335 0.080581024
0.69030482 0.0058832336 0.080594376
0.69138438 0.0062323632 0.081010118
0.6916396 0.0070616375 0.081023455
0.69189489 0.0078908978 0.081036791
0.69215012 0.0087201577 0.081050128
0.69240534 0.0095494175 0.081063464
0.69266063 0.010378692 0.081076801
0.69291586 0.011207952 0.081090137
0.69399285 0.011548833 0.081505746
0.69424778 0.012377053 0.081519067
0.69450271 0.013205287 0.081532389
0.69557852 0.013541991 0.081947945
0.69583315 0.014369185 0.081961252
0.69608778 0.015196379 0.081974551
0.69634235 0.016023573 0.081987858
0.69659698 0.016850768 0.082001157
0.69685161 0.017677961 0.082014464
0.69792509 0.018007459 0.082429893
0.69817942 0.018833613 0.082443178
0.6984337 0.019659782 0.082456462
0.69868797 0.020485936 0.082469754
0.6989423 0.021312105 0.082483038
0.69919658 0.022138258 0.082496323
0.69945085 0.022964427 0.082509615
0.69970518 0.023790581 0.082522899
0.69995946 0.02461675 0.082536183
0.69868922 0.10260364 0.073127024
0.69815993 0.1040423 0.072740033
0.69683969 0.10606965 0.071952365
0.69631201 0.10751346 0.071565457
0.69499409 0.10954802 0.070777915
0.69446796 0.11099702 0.070391104
0.69394249 0.11244806 0.070004299
0.69341767 0.11390119 0.06961754
0.69210386 0.11594921 0.068830222
0.69158059 0.11740749 0.068443544
0.69026899 0.11946274 0.067656338
0.68974733 0.12092621 0.06726975
0.68922633 0.12239173 0.066883184
0.68791789 0.12445734 0.066096134
0.68818617 0.125329 0.066110156
0.68687969 0.12740079 0.065323226
0.68636155 0.12887563 0.064936817
0.685844 0.13035251 0.06455043
0.68532717 0.13183151 0.064164087
0.68559706 0.13270833 0.064178184
0.68508112 0.13419038 0.063791893
0.68535131 0.13506825 0.063806012
0.68562156 0.13594612 0.063820131
0.68589175 0.13682397 0.06383425
0.6115129 -0.042454772 0.051836282
0.61178952 -0.041556228 0.051850732
0.61121428 -0.040267572 0.051460259
0.61063975 -0.038976859 0.051069848
0.61091697 -0.038076252 0.051084332
0.61119419 -0.037175644 0.051098816
0.61487329 -0.037852012 0.052732654
0.6151492 -0.036955535 0.052747071
0.6120258 -0.034473814 0.051142268
0.61400211 -0.034367904 0.051966336
0.61427867 -0.03346936 0.05198079
0.61455524 -0.03257082 0.05199524
0.61652893 -0.032473169 0.052819159
0.61680484 -0.031576697 0.052833576
0.61792868 -0.031082733 0.053252701
0.62074715 -0.03139795 0.054481164
0.62695283 -0.033337686 0.057328228
0.62722528 -0.032452583 0.057342462
0.62834442 -0.031974144 0.057761341
0.63030916 -0.031905454 0.058584794
0.63058066 -0.03102345 0.058598977
0.63169783 -0.030551204 0.059017755
0.63281441 -0.030081049 0.059436515
0.63393033 -0.029612934 0.059855208
0.63504559 -0.029146885 0.060273886
0.63616019 -0.028682917 0.06069253
0.63727421 -0.028221002 0.061111126
0.63838762 -0.027761182 0.061529718
0.63950032 -0.027303411 0.061948262
0.64061242 -0.026847707 0.062366758
0.64172381 -0.026394067 0.062785238
0.64283466 -0.025942501 0.063203663
0.64478707 -0.025914144 0.064026482
0.64589626 -0.02546775 0.064444847
0.64616328 -0.024600221 0.064458802
0.64811283 -0.024581175 0.065281473
0.64922017 -0.024140971 0.065699734
0.65116739 -0.024129145 0.06652227
0.65227312 -0.023694126 0.066940449
0.65337825 -0.023261176 0.067358591
0.65448272 -0.022830289 0.067776702
0.65558648 -0.022401469 0.068194769
0.65668964 -0.021974714 0.068612814
0.65779221 -0.021550039 0.069030829
0.65973252 -0.021560967 0.069853015
0.66083342 -0.021141464 0.070270941
0.66193378 -0.020724012 0.070688821
0.66303349 -0.020308644 0.071106702
0.66413248 -0.019895338 0.071524531
0.66523087 -0.019484097 0.071942315
0.66632867 -0.019074922 0.072360076
0.66742575 -0.018667815 0.072777785
0.6685223 -0.018262804 0.073195502
0.66961813 -0.017859828 0.073613144
0.66987818 -0.017015053 0.073626734
0.67013818 -0.016170276 0.073640317
0.67123276 -0.015771447 0.074057914
0.67232668 -0.01537468 0.074475482
0.67258608 -0.014531971 0.074489035
0.67367911 -0.01413833 0.074906543
0.67393821 -0.01329666 0.074920081
0.67419726 -0.012454991 0.074933618
0.67528898 -0.012065464 0.075351059
0.67554772 -0.01122482 0.075364582
0.67663848 -0.010838384 0.075781979
0.67689693 -0.0099987797 0.075795479
0.67798674 -0.0096154641 0.076212816
0.67824483 -0.0087769013 0.076226301
0.67933369 -0.0083966767 0.076643594
0.67959148 -0.0075591388 0.076657064
0.68067944 -0.0071820384 0.077074312
0.68093687 -0.0063455263 0.077087767
0.68119437 -0.0055090287 0.077101223
0.68145186 -0.0046725315 0.077114671
0.68253815 -0.0043005841 0.077531837
0.68362379 -0.0039307037 0.07794895
0.68388063 -0.0030962718 0.077962376
0.68413746 -0.00226184 0.077975795
0.68522185 -0.0018960903 0.078392856
0.68547839 -0.0010626843 0.078406259
0.68656182 -0.0007000413 0.078823261
0.68681806 0.00013232461 0.078836642
0.68707424 0.00096469052 0.078850031
0.68815643 0.0013231713 0.079266995
0.68841231 0.0021544972 0.079280362
0.68866825 0.0029858374 0.079293735
0.68892413 0.0038171632 0.079307102
0.68918002 0.0046484889 0.079320475
0.6894359 0.0054798294 0.079333842
0.68969178 0.0063111549 0.079347216
0.6907714 0.0066614044 0.079764031
0.69102693 0.0074917045 0.079777382
0.69128251 0.0083220042 0.079790734
0.6915381 0.0091523044 0.079804085
0.69261611 0.0094973529 0.080220804
0.69287133 0.010326627 0.08023414
0.69312662 0.011155887 0.080247477
0.69338185 0.011985147 0.080260813
0.69363713 0.012814407 0.08027415
0.69389236 0.013643681 0.080287486
0.69496816 0.013981507 0.0807041
0.69522309 0.014809742 0.080717422
0.696298 0.015144444 0.081133999
0.69655257 0.015971638 0.081147306
0.69680721 0.016798833 0.081160605
0.69706184 0.017626027 0.081173912
0.69731641 0.018453235 0.081187218
0.69757104 0.01928043 0.081200518
0.69782567 0.020107623 0.081213824
0.69808024 0.020934818 0.081227124
0.69833487 0.021762012 0.08124043
0.6985895 0.022589207 0.08125373
0.69884408 0.0234164 0.081267036
0.69909871 0.024243595 0.081280336
0.69935334 0.02507079 0.081293643
0.69996601 0.099679127 0.073036395
0.69943565 0.1011136 0.072648272
0.6981141 0.10313459 0.071858421
0.6975854 0.10457418 0.071470395
0.696266 0.10660245 0.070680648
0.69573891 0.10804722 0.070292704
0.69442183 0.11008272 0.069503091
0.69389623 0.11153267 0.069115222
0.69337136 0.1129847 0.068727396
0.69284713 0.11443879 0.068339609
0.69153416 0.11648768 0.067550197
0.69101149 0.11794697 0.067162484
0.69048947 0.11940827 0.066774808
0.68996811 0.12087168 0.066387162
0.68944734 0.12233713 0.06599956
0.68892717 0.12380466 0.065611966
0.68840772 0.12527429 0.065224431
0.68788886 0.12674592 0.064836919
0.68737072 0.12821968 0.064449452
0.68685311 0.12969545 0.064061999
0.68554997 0.13177647 0.063273109
0.68581986 0.13265328 0.063287206
0.68608975 0.13353013 0.06330131
0.68635964 0.13440694 0.063315414
0.68662953 0.13528375 0.06332951
0.68689942 0.1361606 0.063343614
0.68560082 0.13825601 0.062554948
0.6117413 -0.042511187 0.050923225
0.61201787 -0.041612644 0.050937675
0.61144292 -0.040324051 0.050546162
0.61086863 -0.039033405 0.050154697
0.61625093 -0.040485445 0.052604713
0.61652625 -0.03959104 0.052619096
0.60999984 -0.035543226 0.049386375
0.60857791 -0.033850111 0.048589133
0.60970598 -0.033341631 0.049009558
0.60998416 -0.032437924 0.049024094
0.60941333 -0.031135878 0.048632782
0.61308628 -0.031828534 0.050270569
0.61506015 -0.031728696 0.051096633
0.61703265 -0.031632982 0.051922642
0.61815625 -0.031138953 0.052342806
0.61927921 -0.030646995 0.052762941
0.62294263 -0.031370666 0.054400228
0.62660354 -0.032102611 0.056037366
0.62856913 -0.032029651 0.05686301
0.62968731 -0.031553209 0.057282895
0.63080484 -0.031078825 0.057702743
0.63192171 -0.030606514 0.058122575
0.63303804 -0.030136295 0.058542371
0.63415366 -0.029668115 0.058962122
0.63526869 -0.029202001 0.059381854
0.63638306 -0.02873797 0.059801538
0.63749677 -0.028275987 0.060221188
0.63860995 -0.027816104 0.060640834
0.63972235 -0.027358267 0.061060417
0.64083421 -0.026902499 0.061479967
0.64194536 -0.026448794 0.061899498
0.64305592 -0.025997162 0.062318999
0.64416587 -0.025547622 0.062738463
0.64527512 -0.025100116 0.063157879
0.6455425 -0.024231562 0.063171849
0.64749175 -0.024211327 0.063996628
0.64943981 -0.024195243 0.064821362
0.65054625 -0.023757068 0.065240629
0.65165198 -0.02332093 0.065659858
0.65275711 -0.022886872 0.06607908
0.6538617 -0.022454912 0.066498257
0.65496552 -0.022024987 0.066917397
0.65606874 -0.021597141 0.067336507
0.65717137 -0.021171361 0.06775558
0.65911144 -0.02118112 0.06857989
0.66021246 -0.020760512 0.068998881
0.66131282 -0.020341968 0.069417842
0.66241252 -0.019925492 0.069836758
0.66351169 -0.0195111 0.07025566
0.66461009 -0.019098768 0.070674531
0.66570795 -0.018688489 0.071093343
0.66680509 -0.018280277 0.071512133
0.66790164 -0.017874142 0.0719309
0.66899759 -0.017470092 0.07234963
0.67009288 -0.017068092 0.072768316
0.67035288 -0.016223315 0.072781906
0.67144722 -0.015824419 0.073200554
0.67254084 -0.015427588 0.073619172
0.67280024 -0.014584879 0.073632725
0.67305964 -0.01374217 0.073646277
0.67331904 -0.012899461 0.07365983
0.67441118 -0.012507834 0.074078366
0.6755026 -0.012118243 0.07449685
0.67576134 -0.011277599 0.074510373
0.67602015 -0.01043697 0.074523889
0.67711031 -0.010051494 0.074942321
0.6773687 -0.0092118904 0.074955828
0.67845792 -0.0088295499 0.075374193
0.67871606 -0.0079909721 0.075387679
0.67897415 -0.0071524093 0.075401172
0.68006212 -0.0067742001 0.07581947
0.68031991 -0.0059366627 0.075832941
0.68140697 -0.0055615474 0.076251224
0.68166441 -0.0047250497 0.076264679
0.6819219 -0.0038885523 0.076278128
0.6830076 -0.0035175665 0.076696314
0.68326479 -0.0026821091 0.076709755
0.68434954 -0.0023142293 0.077127889
0.68460637 -0.0014797975 0.077141307
0.68486321 -0.0006453658 0.077154726
0.6859467 -0.00028160241 0.077572815
0.6870296 8.0065751e-05 0.077990852
0.68728578 0.00091243169 0.078004241
0.68754196 0.0017447976 0.078017622
0.6877982 0.0025771493 0.078031011
0.68805438 0.0034095151 0.0780444
0.68831056 0.004241881 0.078057781
0.68939126 0.0045962944 0.078475721
0.68964714 0.0054276348 0.078489088
0.68990302 0.0062589603 0.078502461
0.6901589 0.0070903008 0.078515828
0.69041479 0.0079216268 0.078529201
0.69067067 0.0087529523 0.078542568
0.6917491 0.0091001755 0.078960389
0.69200468 0.0099304607 0.07897374
0.69226021 0.010760761 0.078987092
0.69251579 0.011591061 0.079000443
0.69359261 0.011933083 0.079418167
0.69384784 0.012762343 0.079431504
0.69410312 0.013591617 0.079444841
0.69435835 0.014420877 0.079458177
0.69461358 0.015250137 0.079471514
0.69568849 0.015585976 0.079889134
0.69594342 0.016414195 0.079902455
0.69619834 0.01724243 0.079915777
0.69645327 0.018070664 0.079929098
0.6967082 0.018898884 0.079942413
0.69778126 0.019228494 0.080359966
0.6980359 0.020055689 0.080373272
0.69829047 0.020882882 0.080386572
0.6985451 0.021710077 0.080399878
0.69879973 0.022537272 0.080413178
0.6990543 0.023364466 0.080426484
0.69930893 0.024191661 0.080439784
0.69956356 0.025018854 0.08045309
0.69981819 0.025846049 0.08046639
0.69992036 0.098774731 0.072157986
0.69938993 0.10020809 0.071768798
0.69886023 0.1016435 0.071379669
0.69753951 0.10366539 0.070587724
0.69701135 0.10510598 0.070198663
0.69569284 0.10713513 0.069406837
0.69516635 0.10858089 0.069017857
0.69385004 0.11061727 0.068226151
0.6933251 0.11206819 0.067837246
0.69280082 0.11352119 0.067448393
0.69227713 0.11497624 0.067059577
0.6917541 0.11643334 0.066670775
0.69123167 0.11789257 0.066282004
0.69070995 0.1193538 0.065893285
0.69018883 0.12081715 0.065504581
0.68966836 0.12228254 0.065115929
0.68914843 0.12375 0.064727299
0.68862921 0.12521955 0.064338692
0.68889755 0.12609121 0.064352714
0.68759274 0.12816481 0.063561603
0.68707544 0.12964052 0.063173115
0.68655872 0.13111833 0.062784635
0.68682832 0.13199414 0.062798724
0.68631262 0.13347507 0.062410317
0.68658251 0.13435189 0.062424418
0.6868524 0.13522871 0.062438518
0.68712229 0.13610555 0.062452622
0.68582416 0.13820083 0.061661862
0.61139464 -0.041280106 0.049617596
0.61167151 -0.04038053 0.049632065
0.61109751 -0.039089948 0.049239546
0.6164782 -0.040541597 0.051695872
0.61675352 -0.039647192 0.051710255
0.61022925 -0.035599899 0.048469126
0.6088078 -0.033906918 0.04766978
0.60229182 -0.029832738 0.044429082
0.60257286 -0.028919719 0.044443764
0.60624856 -0.029599681 0.046085939
0.61077017 -0.030687241 0.04813486
0.61104834 -0.029783525 0.048149396
0.61726052 -0.031689268 0.051011693
0.61838382 -0.031195171 0.051432911
0.61950654 -0.03070315 0.051854096
0.62316889 -0.031426564 0.053495575
0.62682873 -0.032158244 0.055136915
0.62794763 -0.031678624 0.055557918
0.62991172 -0.031608649 0.056385607
0.63102895 -0.031134201 0.056806508
0.63130045 -0.030252205 0.056820694
0.63241678 -0.029780863 0.057241548
0.63353252 -0.02931161 0.057662398
0.63464761 -0.028844399 0.058083169
0.63576198 -0.028379254 0.058503941
0.63687575 -0.027916189 0.05892466
0.63798892 -0.027455183 0.05934535
0.63910151 -0.026996259 0.059766017
0.64021337 -0.026539398 0.060186639
0.64132458 -0.026084596 0.060607228
0.64327717 -0.026051823 0.061434314
0.64438689 -0.025602218 0.061854836
0.64549589 -0.025154646 0.062275305
0.64576322 -0.024286093 0.062289275
0.64687127 -0.023841627 0.062709697
0.64881915 -0.023824386 0.06353654
0.64992559 -0.023385093 0.063956872
0.65103143 -0.022947878 0.064377196
0.65213662 -0.022512732 0.064797454
0.65408033 -0.022508925 0.065624088
0.65518391 -0.022078935 0.066044278
0.6562869 -0.021651024 0.066464432
0.65738922 -0.021225179 0.066884555
0.6584909 -0.020801399 0.067304663
0.65959197 -0.020379703 0.06772472
0.66069239 -0.019960055 0.068144754
0.66179216 -0.019542489 0.068564743
0.66289133 -0.019126972 0.068984702
0.6639899 -0.018713554 0.069404639
0.66508776 -0.018302185 0.069824524
0.66618496 -0.01789288 0.070244379
0.66728157 -0.017485643 0.070664205
0.66837752 -0.017080469 0.071084008
0.66947287 -0.016677395 0.071503766
0.66973323 -0.01583158 0.071517371
0.67082763 -0.015431578 0.071937092
0.67192131 -0.015033658 0.072356761
0.67218101 -0.014189923 0.072370335
0.6732738 -0.01379508 0.07278996
0.6735332 -0.012952371 0.072803512
0.6746251 -0.012560679 0.073223099
0.67488414 -0.011718995 0.073236637
0.67597502 -0.011330378 0.073656157
0.67623377 -0.010489749 0.073669679
0.67649251 -0.0096491054 0.073683195
0.67758209 -0.0092646042 0.07410267
0.67784053 -0.0084250011 0.07411617
0.67892915 -0.0080436217 0.074535564
0.6791873 -0.0072050588 0.074549049
0.67944539 -0.0063664955 0.074562535
0.68053275 -0.0059892461 0.074981891
0.68079054 -0.0051517086 0.074995361
0.68187702 -0.0047775693 0.075414665
0.68213451 -0.0039410717 0.075428121
0.682392 -0.0031045598 0.075441569
0.6834771 -0.0027345633 0.075860798
0.6837343 -0.0018990916 0.075874232
0.68481845 -0.0015321866 0.076293409
0.68507528 -0.00069775491 0.076306827
0.68615854 -0.00033392731 0.076725952
0.68641502 0.0004994644 0.076739356
0.68667156 0.0013328703 0.07675276
0.68692809 0.0021662621 0.076766163
0.68800974 0.0025248895 0.077185199
0.68826592 0.0033572554 0.077198587
0.6885221 0.0041896212 0.077211976
0.68877834 0.005021987 0.077225365
0.68903452 0.0058543533 0.077238746
0.68929076 0.0066867191 0.077252135
0.6903702 0.0070381062 0.077671073
0.69062608 0.0078694317 0.077684447
0.69088197 0.0087007582 0.077697814
0.69113785 0.0095320977 0.077711187
0.69139373 0.010363424 0.077724554
0.69247127 0.010708631 0.078143395
0.69272679 0.011538931 0.078156747
0.69298238 0.012369231 0.078170098
0.69323796 0.013199531 0.07818345
0.69349349 0.014029818 0.078196809
0.69456911 0.014368812 0.078615516
0.69482434 0.015198071 0.078628853
0.69507962 0.016027331 0.07864219
0.69615394 0.016362196 0.079060867
0.69640887 0.01719043 0.079074182
0.6966638 0.018018665 0.079087503
0.69691873 0.018846884 0.079100825
0.69717366 0.019675119 0.079114147
0.69742858 0.020503353 0.079127461
0.69768351 0.021331573 0.079140782
0.69793844 0.022159807 0.079154104
0.69819337 0.022988042 0.079167426
0.6984483 0.023816261 0.07918074
0.69951916 0.024139725 0.079599231
0.69977379 0.02496692 0.079612538
0.69987464 0.097870328 0.071279585
0.69934422 0.099302597 0.070889331
0.69881445 0.10073689 0.07049913
0.69828534 0.10217327 0.070108958
0.6969654 0.1041961 0.069314927
0.6964379 0.10563763 0.068924822
0.69512022 0.10766768 0.068130918
0.69459426 0.10911441 0.06774091
0.69406891 0.1105632 0.067350924
0.69354427 0.11201405 0.066960968
0.69302022 0.11346699 0.066571079
0.69249684 0.11492196 0.06618119
0.69197404 0.11637901 0.065791346
0.6906634 0.11843184 0.0649978
0.69093037 0.11929934 0.065011755
0.69040954 0.12076262 0.064622007
0.68988931 0.12222794 0.064232305
0.68936968 0.12369534 0.063842617
0.68963766 0.12456597 0.063856617
0.68911904 0.12603648 0.063466974
0.68860108 0.12750903 0.063077383
0.68808371 0.12898368 0.062687829
0.687567 0.13046037 0.062298302
0.68705088 0.13193916 0.061908796
0.68732047 0.13281496 0.061922882
0.68680531 0.13429683 0.06153344
0.68550646 0.13638787 0.060740508
0.68577701 0.13726676 0.060754642
0.68448001 0.13936405 0.059961807
0.61162323 -0.041336585 0.048703499
0.61190015 -0.040437009 0.048717968
0.6113264 -0.039146494 0.048324395
0.6107533 -0.0378539 0.04793087
0.61103082 -0.036952261 0.047945369
0.60960901 -0.035262533 0.047143891
0.60224283 -0.030803079 0.04348664
0.6016748 -0.02949393 0.043093354
0.6028049 -0.028977042 0.043516006
0.60393435 -0.028462203 0.043938614
0.6059112 -0.028348655 0.044769093
0.61043018 -0.029439995 0.046823192
0.61325103 -0.029739117 0.048061375
0.6186114 -0.03125139 0.050523017
0.61888701 -0.030355953 0.050537419
0.62339514 -0.031482458 0.052590933
0.62705392 -0.032213882 0.054236479
0.62732667 -0.031327747 0.054250732
0.63013613 -0.031664088 0.055488318
0.63125312 -0.031189576 0.055910274
0.63152462 -0.030307582 0.05592446
0.63264066 -0.029836174 0.056346368
0.63375616 -0.029366856 0.056768257
0.63487095 -0.02889958 0.057190098
0.63598508 -0.02843437 0.057611909
0.63709861 -0.02797124 0.058033682
0.63821149 -0.027510168 0.058455411
0.63932377 -0.027051181 0.058877133
0.6404354 -0.026594255 0.05929881
0.64154637 -0.026139388 0.059720449
0.64265668 -0.025686594 0.060142059
0.6437664 -0.02523586 0.060563635
0.64487553 -0.024787221 0.060985193
0.64514321 -0.023917628 0.060999177
0.64625132 -0.023472073 0.061420657
0.6481989 -0.023453644 0.06224962
0.64930546 -0.023013277 0.062671028
0.65041131 -0.022574957 0.063092403
0.65151656 -0.022138704 0.063513748
0.65346003 -0.022133712 0.064342484
0.65456372 -0.021702647 0.064763755
0.65566677 -0.021273647 0.065184966
0.65676916 -0.020846697 0.065606162
0.65787089 -0.020421812 0.066027321
0.65897197 -0.019999009 0.06644845
0.66007251 -0.019578272 0.066869557
0.66117233 -0.0191596 0.067290619
0.66227156 -0.018742993 0.067711644
0.66337007 -0.018328452 0.068132639
0.66446805 -0.017915996 0.068553612
0.66556537 -0.017505601 0.06897454
0.66666198 -0.017097272 0.069395415
0.66775805 -0.016690996 0.069816276
0.6688534 -0.016286798 0.070237108
0.66911405 -0.015439956 0.070250727
0.67020851 -0.015038868 0.070671514
0.67130232 -0.014639842 0.071092263
0.67239547 -0.014242897 0.071512975
0.67265517 -0.013399147 0.071526542
0.67374736 -0.013005279 0.071947202
0.67400676 -0.012162584 0.071960755
0.67509806 -0.011771839 0.07238137
0.6753571 -0.01093017 0.0723949
0.67644739 -0.010542527 0.072815478
0.67670614 -0.0097018834 0.072829001
0.67696488 -0.008861254 0.072842516
0.67805392 -0.0084777148 0.073263012
0.67831236 -0.0076381117 0.073276512
0.67940038 -0.0072577074 0.073696949
0.67965853 -0.0064191441 0.073710434
0.67991662 -0.0055805664 0.07372392
0.68100339 -0.0052042929 0.074144296
0.68126118 -0.0043667555 0.074157767
0.68234706 -0.0039935913 0.074578106
0.68260455 -0.0031570792 0.074591562
0.68286204 -0.0023205818 0.074605018
0.68394661 -0.0019515458 0.075025275
0.68420374 -0.001116074 0.075038716
0.68528736 -0.00075014401 0.075458921
0.68554419 8.4287691e-05 0.075472347
0.68580103 0.00091871939 0.075485766
0.68688339 0.0012805463 0.075905912
0.68713987 0.0021139381 0.075919315
0.68739641 0.002947344 0.075932719
0.68765295 0.0037807357 0.075946122
0.68790942 0.0046141418 0.075959519
0.68898988 0.0049697272 0.076379552
0.68924606 0.0058020935 0.076392941
0.6895023 0.0066344594 0.076406322
0.68975848 0.0074668252 0.076419711
0.69001466 0.0082991915 0.0764331
0.6902709 0.0091315573 0.076446488
0.69052708 0.0099639231 0.07645987
0.69160503 0.010311229 0.076879799
0.69186091 0.01114257 0.076893166
0.6921168 0.011973895 0.076906539
0.69319338 0.012317101 0.077326387
0.69344896 0.013147402 0.077339739
0.69370455 0.013977687 0.07735309
0.69396007 0.014807987 0.077366441
0.69421566 0.015638288 0.0773798
0.69529033 0.015975267 0.077799544
0.69554561 0.016804527 0.07781288
0.69580084 0.017633801 0.077826217
0.69605607 0.018463062 0.077839553
0.69712919 0.018794885 0.078259215
0.69738412 0.019623119 0.078272536
0.69763905 0.020451354 0.078285858
0.69789398 0.021279573 0.07829918
0.69814891 0.022107808 0.078312494
0.69840384 0.022936042 0.078325815
0.69865876 0.023764262 0.078339137
0.69891369 0.024592496 0.078352459
0.69998401 0.024914984 0.078771986
0.69982898 0.096965931 0.070401192
0.6992985 0.098397106 0.070009865
0.69876868 0.099830285 0.06961859
0.69823951 0.10126557 0.069227345
0.69771093 0.10270291 0.068836138
0.69639188 0.10472663 0.068040013
0.69586492 0.10616916 0.067648888
0.69454813 0.1082001 0.066852905
0.69402272 0.1096478 0.066461846
0.69349796 0.11109757 0.06607084
0.69297391 0.11254938 0.065679856
0.69245046 0.11400328 0.065288916
0.69192761 0.11545922 0.064898007
0.69140536 0.11691727 0.064507127
0.69088387 0.11837737 0.064116262
0.69115084 0.11924487 0.064130217
0.69063026 0.12070808 0.063739419
0.69011033 0.12217335 0.063348673
0.69037801 0.12304293 0.063362658
0.68985891 0.12451131 0.062971935
0.68934059 0.12598176 0.062581256
0.68960887 0.12685339 0.062595271
0.6883058 0.12892881 0.061799996
0.68778932 0.13040544 0.061409418
0.68727344 0.13188417 0.061018858
0.68754303 0.13275997 0.061032943
0.68545932 0.13545379 0.059833299
0.6857298 0.13633268 0.059847433
0.68443269 0.13842778 0.05905246
0.61185187 -0.041393064 0.047789402
0.61212873 -0.040493488 0.047803868
0.61155528 -0.039203037 0.047409244
0.6118325 -0.038302429 0.047423728
0.61125994 -0.03700887 0.047029164
0.61068809 -0.035713244 0.046634622
0.60077661 -0.030070353 0.041740842
0.6010583 -0.029155269 0.041755557
0.60049152 -0.027843105 0.04136128
0.60246974 -0.027723216 0.042193942
0.60529464 -0.028006636 0.043435536
0.60981262 -0.02909662 0.045494892
0.61348021 -0.029795727 0.047145169
0.61375773 -0.028894085 0.047159672
0.62643319 -0.031864166 0.052927181
0.62755191 -0.03138338 0.053350292
0.62951523 -0.031312104 0.054182213
0.63063234 -0.030836502 0.054605231
0.63174874 -0.030362956 0.055028226
0.63286453 -0.029891483 0.055451188
0.6339798 -0.029422102 0.055874117
0.63509429 -0.028954761 0.056297012
0.63620818 -0.028489485 0.056719862
0.63732147 -0.02802629 0.05714269
0.63843405 -0.027565155 0.057565484
0.6395461 -0.027106103 0.057988249
0.64065742 -0.026649112 0.05841098
0.64176816 -0.026194179 0.058833659
0.64287823 -0.02574132 0.059256323
0.64398766 -0.025290521 0.059678953
0.64509654 -0.024841817 0.060101565
0.64536417 -0.023972224 0.06011555
0.64647204 -0.023526603 0.06053808
0.64757925 -0.023083048 0.060960595
0.64868581 -0.022641558 0.061383076
0.64979178 -0.022202166 0.06180552
0.65089709 -0.021764807 0.062227935
0.65284032 -0.021758659 0.063058779
0.65394408 -0.021326473 0.063481107
0.65504718 -0.020896383 0.063903421
0.65614963 -0.020468343 0.064325668
0.65725142 -0.020042354 0.0647479
0.65835255 -0.019618446 0.065170087
0.65945309 -0.019196602 0.065592252
0.66055304 -0.018776856 0.066014394
0.66165227 -0.018359145 0.066436477
0.6627509 -0.017943515 0.066858545
0.66384888 -0.017529935 0.067280561
0.66494626 -0.017118452 0.067702569
0.66604298 -0.016709017 0.068124533
0.66713905 -0.016301651 0.068546452
0.66823447 -0.015896361 0.068968348
0.66932929 -0.015493125 0.069390215
0.66958994 -0.014646284 0.069403835
0.6706838 -0.014246171 0.069825649
0.67177701 -0.01384812 0.070247434
0.67203707 -0.013003345 0.070261016
0.67312932 -0.012608386 0.070682749
0.67422092 -0.012215492 0.071104445
0.67448032 -0.011372783 0.071118005
0.67473972 -0.010530074 0.071131557
0.67583007 -0.010141345 0.071553186
0.67691976 -0.0097546624 0.071974784
0.67717856 -0.008914033 0.071988307
0.67743731 -0.0080733895 0.072001822
0.67769605 -0.0072327605 0.072015345
0.67878413 -0.0068512219 0.072436862
0.67987162 -0.0064717927 0.072858326
0.68012977 -0.0056332154 0.072871812
0.68038785 -0.0047946521 0.072885297
0.68147403 -0.0044193394 0.073306717
0.68255967 -0.0040461104 0.073728099
0.68281716 -0.0032095986 0.073741548
0.68307465 -0.0023731012 0.073755004
0.68333209 -0.0015366036 0.073768459
0.68441606 -0.0011685283 0.07418976
0.68467325 -0.00033307084 0.074203193
0.68575627 3.1898566e-05 0.074624442
0.6860131 0.00086633029 0.07463786
0.68626994 0.001700762 0.074651279
0.68652678 0.0025352079 0.074664705
0.68678361 0.0033696396 0.074678123
0.68704045 0.0042040716 0.074691541
0.68729728 0.0050385031 0.07470496
0.6883778 0.0053952085 0.075126059
0.68863428 0.0062286141 0.075139463
0.68889081 0.0070620063 0.075152867
0.68914735 0.0078954119 0.07516627
0.68940389 0.0087288041 0.075179674
0.69048244 0.009079298 0.075600691
0.69073862 0.0099116638 0.07561408
0.69099486 0.01074403 0.075627461
0.69207215 0.011090375 0.076048411
0.6923281 0.011921701 0.076061785
0.69258398 0.012753027 0.076075152
0.69283986 0.013584367 0.076088525
0.69391555 0.013925558 0.076509394
0.69417113 0.014755858 0.076522745
0.69442666 0.015586158 0.076536097
0.69468224 0.016416458 0.076549448
0.69575638 0.016752463 0.07697022
0.6960116 0.017581737 0.076983556
0.69626683 0.018410997 0.076996893
0.69652212 0.019240256 0.077010229
0.69677734 0.020069517 0.077023566
0.69784957 0.020399353 0.077444248
0.6981045 0.021227574 0.07745757
0.69835943 0.022055808 0.077470891
0.69861436 0.022884041 0.077484213
0.69886929 0.023712263 0.077497534
0.69912422 0.024540497 0.077510849
0.69978333 0.096061528 0.069522783
0.69925278 0.097491585 0.069130383
0.6987229 0.098923668 0.068738051
0.69819367 0.10035787 0.068345733
0.69766504 0.10179412 0.067953467
0.69713706 0.10323244 0.067561202
0.69581884 0.10525706 0.066763021
0.69529247 0.10670055 0.066370852
0.69476676 0.10814609 0.065978736
0.6934517 0.11018109 0.065180689
0.69292754 0.1116318 0.064788654
0.69240403 0.11308458 0.064396642
0.69188118 0.11453944 0.06400466
0.69214755 0.11540488 0.064018577
0.6916256 0.11686286 0.063626647
0.69110429 0.1183229 0.063234746
0.69058365 0.119785 0.062842883
0.69085103 0.12065355 0.062856846
0.69033134 0.12211875 0.062465046
0.69059896 0.12298833 0.06247903
0.69008023 0.12445665 0.062087249
0.68956208 0.12592703 0.06169552
0.68983042 0.12679866 0.061709534
0.68774235 0.12947576 0.060506467
0.68644136 0.13155626 0.059709165
0.68671119 0.13243307 0.059723265
0.68384314 0.13572957 0.058114775
0.68411428 0.13661055 0.058128946
0.68438542 0.13749149 0.058143113
0.61178416 -0.039259583 0.046494093
0.61291116 -0.038750816 0.046918705
0.61318803 -0.03785124 0.046933174
0.61091751 -0.035769921 0.045717377
0.6103465 -0.034472302 0.045321811
0.60638201 -0.031588636 0.043286052
0.60496533 -0.029885728 0.042480573
0.60694152 -0.029770872 0.043315284
0.60722125 -0.028861992 0.043329902
0.60750103 -0.027953112 0.04334452
0.60947466 -0.02784656 0.044179086
0.60975379 -0.026939748 0.04419367
0.6277771 -0.031439018 0.052449856
0.63058496 -0.031774972 0.053693753
0.63085675 -0.030891942 0.053707954
0.63197291 -0.030418331 0.054131988
0.63308847 -0.029946795 0.054555994
0.63420337 -0.029477349 0.054979976
0.63531768 -0.029009942 0.055403925
0.63643128 -0.028544603 0.055827826
0.63754427 -0.028081341 0.056251712
0.63865662 -0.02762014 0.056675546
0.63976842 -0.027161023 0.057099365
0.64087951 -0.026703967 0.057523146
0.64198995 -0.026248971 0.057946883
0.64309973 -0.025796046 0.058370601
0.64420891 -0.025345182 0.058794271
0.64531749 -0.024896413 0.059217937
0.64558518 -0.02402682 0.059231922
0.64669275 -0.023581134 0.059655506
0.64779973 -0.023137515 0.06007906
0.64890599 -0.02269596 0.060502596
0.64917272 -0.021829473 0.060516529
0.65027815 -0.021391042 0.060940016
0.65222114 -0.021383736 0.061772984
0.65332496 -0.020950446 0.06219637
0.65442806 -0.020519234 0.062619738
0.65553063 -0.020090107 0.063043073
0.65663248 -0.019663041 0.063466363
0.65773368 -0.019238027 0.06388963
0.65883428 -0.018815078 0.06431286
0.65993422 -0.018394211 0.064736053
0.66103357 -0.017975425 0.065159217
0.6621322 -0.01755869 0.065582357
0.66323024 -0.017144019 0.066005439
0.66432768 -0.016731415 0.066428497
0.66542447 -0.016320907 0.066851549
0.6665206 -0.015912449 0.067274533
0.66761607 -0.015506041 0.067697488
0.66871095 -0.015101714 0.068120427
0.6689719 -0.014253833 0.068134062
0.67006582 -0.013852611 0.068556942
0.67115915 -0.013453458 0.0689798
0.67225176 -0.013056383 0.069402605
0.67251176 -0.012211609 0.069416188
0.67360342 -0.011817624 0.069838956
0.67386311 -0.010973889 0.069852531
0.67495388 -0.010582983 0.070275232
0.67521322 -0.0097402884 0.070288785
0.67630303 -0.0093525192 0.070711456
0.67656213 -0.0085108504 0.070724994
0.67765093 -0.0081261685 0.071147613
0.67790967 -0.00728554 0.071161129
0.67816842 -0.0064448966 0.071174651
0.67925596 -0.0060643326 0.071597204
0.68034285 -0.005685864 0.072019711
0.68060094 -0.0048473007 0.072033197
0.68168688 -0.0044719237 0.072455652
0.68194473 -0.0036343862 0.072469123
0.68302971 -0.0032621173 0.072891556
0.6832872 -0.0024256196 0.072905011
0.6835447 -0.0015891221 0.07291846
0.68380219 -0.00075261033 0.072931916
0.68488556 -0.00038552511 0.073354237
0.6851427 0.00044994664 0.07336767
0.68539989 0.0012854184 0.073381111
0.68565702 0.0021208902 0.073394544
0.68673885 0.002482818 0.073816784
0.68699569 0.0033172497 0.073830202
0.68725252 0.0041516814 0.073843621
0.68750936 0.0049861129 0.073857047
0.68776619 0.0058205449 0.073870465
0.68802303 0.0066549764 0.073883884
0.68827987 0.0074894084 0.073897302
0.68935913 0.0078430884 0.074319422
0.68961567 0.0086764796 0.074332826
0.68987221 0.0095098857 0.074346229
0.69095016 0.0098594045 0.074768268
0.6912064 0.01069177 0.074781656
0.69146258 0.011524136 0.074795045
0.69171876 0.012356502 0.074808426
0.69279522 0.012700832 0.075230397
0.6930511 0.013532172 0.075243771
0.69330698 0.014363497 0.075257137
0.69356287 0.015194824 0.075270511
0.69463766 0.015534028 0.0756924
0.69489324 0.016364329 0.075705752
0.69514883 0.017194629 0.075719103
0.69622236 0.017529672 0.07614091
0.69647759 0.018358933 0.076154247
0.69673282 0.019188192 0.076167583
0.69698811 0.020017453 0.07618092
0.69724333 0.020846726 0.076194257
0.69749862 0.021675987 0.076207593
0.69775385 0.022505248 0.07622093
0.69800907 0.023334507 0.076234266
0.69826436 0.024163781 0.076247603
0.69933468 0.024488498 0.076669261
0.69958961 0.025316732 0.076682582
0.69984454 0.026144952 0.076695897
0.69973767 0.095157132 0.068644382
0.69920707 0.096586093 0.068250917
0.69867712 0.098017089 0.067857511
0.69814783 0.099450171 0.067464143
0.69761914 0.10088529 0.06707079
0.6970911 0.10232256 0.066677466
0.69656372 0.10376184 0.066284195
0.6952464 0.10578734 0.065483905
0.69472057 0.10723182 0.065090716
0.69419539 0.10867833 0.064697549
0.69367087 0.11012694 0.064304411
0.693147 0.1115776 0.063911326
0.69262373 0.11303031 0.063518271
0.69210112 0.1144851 0.06312523
0.6915791 0.11594199 0.062732227
0.69105774 0.11740091 0.062339261
0.69132477 0.11826844 0.062353212
0.69080442 0.11973047 0.061960306
0.69028467 0.12119457 0.061567433
0.69055229 0.12206415 0.061581418
0.69081998 0.12293373 0.061595403
0.69030148 0.12440199 0.061202567
0.69056946 0.12527262 0.06121657
0.69083744 0.12614323 0.06123057
0.68796468 0.12942085 0.059617579
0.6140101 -0.042283401 0.046783663
0.61428636 -0.0413859 0.046798099
0.61456263 -0.040488388 0.046812531
0.61313975 -0.038807295 0.046004593
0.61341667 -0.03790772 0.046019062
0.61199576 -0.036220446 0.045211267
0.61142474 -0.034923919 0.044814646
0.6091578 -0.032833472 0.043595824
0.60943657 -0.031927694 0.04361039
0.60802013 -0.030225936 0.042802799
0.60829961 -0.029318091 0.042817403
0.60857904 -0.028410245 0.042832002
0.60970515 -0.027903495 0.043257624
0.61336964 -0.02860518 0.044916268
0.61872369 -0.030121457 0.047396727
0.61899966 -0.029224986 0.047411148
0.61927557 -0.02832851 0.047425564
0.62800229 -0.031494651 0.05154942
0.63165408 -0.032237705 0.053207386
0.63192558 -0.031355701 0.053221572
0.63135296 -0.030064346 0.052824866
0.63246852 -0.029591711 0.05324994
0.63358349 -0.029121144 0.053674966
0.63469785 -0.028652664 0.054099984
0.63581157 -0.028186226 0.054524973
0.63692462 -0.027721861 0.054949913
0.63803703 -0.027259568 0.055374835
0.63914877 -0.026799336 0.055799708
0.64025998 -0.026341185 0.056224562
0.64137048 -0.0258851 0.056649353
0.64248037 -0.02543107 0.057074144
0.64358956 -0.024979115 0.057498883
0.64469814 -0.024529217 0.057923589
0.64580619 -0.024081416 0.058348294
0.64607382 -0.023211839 0.058362279
0.64718086 -0.022767114 0.058786903
0.64828718 -0.022324454 0.059211493
0.6493929 -0.021883875 0.059636049
0.65049809 -0.021445379 0.060060587
0.65160251 -0.021008931 0.06048508
0.65270633 -0.020574562 0.060909551
0.65380955 -0.020142246 0.061333962
0.65491205 -0.019711995 0.061758365
0.65601403 -0.019283842 0.062182739
0.65711528 -0.018857738 0.062607065
0.65821594 -0.018433684 0.063031353
0.65931594 -0.018011712 0.063455626
0.66041529 -0.017591819 0.063879855
0.6615141 -0.017173994 0.064304061
0.66261214 -0.016758233 0.064728215
0.66370964 -0.016344538 0.06515234
0.66480643 -0.015932895 0.065576434
0.66590267 -0.015523349 0.066000506
0.66699821 -0.015115865 0.066424549
0.66809314 -0.014710418 0.066848539
0.66918737 -0.014307066 0.067272499
0.66944838 -0.013459199 0.067286134
0.6705417 -0.013058939 0.067710042
0.67163444 -0.012660762 0.068133935
0.67189479 -0.011814947 0.068147533
0.67298651 -0.011419873 0.068571359
0.67407757 -0.011026863 0.06899517
0.67433727 -0.010183114 0.069008738
0.67542738 -0.0097931968 0.069432482
0.67568678 -0.0089504877 0.069446035
0.67677605 -0.0085636936 0.069869742
0.67703509 -0.0077220243 0.069883272
0.67729414 -0.0068803551 0.06989681
0.67838204 -0.0064976756 0.070320435
0.67864084 -0.0056570321 0.070333958
0.67972779 -0.0052774432 0.070757546
0.67998618 -0.0044378396 0.070771053
0.68107218 -0.004061373 0.071194559
0.68215758 -0.0036869699 0.071618073
0.68241537 -0.0028494322 0.071631536
0.68349981 -0.002478139 0.072054997
0.68375731 -0.0016416415 0.072068453
0.68401474 -0.0008051297 0.072081901
0.68427223 3.1367821e-05 0.072095357
0.68535507 0.0003974924 0.072518714
0.6856122 0.0012329641 0.072532155
0.6858694 0.002068436 0.072545588
0.68612653 0.0029038934 0.072559021
0.68638366 0.0037393651 0.072572462
0.68664086 0.0045748367 0.072585896
0.68772143 0.0049337242 0.073009141
0.68797827 0.0057681557 0.073022559
0.6882351 0.0066025876 0.073035978
0.68849194 0.0074370191 0.073049404
0.68874878 0.0082714511 0.073062822
0.68900561 0.0091058966 0.073076241
0.69008398 0.0094575612 0.073499367
0.69034052 0.010290952 0.07351277
0.69059706 0.011124359 0.073526174
0.69167411 0.011471876 0.073949233
0.69193029 0.012304243 0.073962621
0.69300652 0.012648638 0.074385658
0.6932624 0.013479978 0.074399032
0.69351828 0.014311304 0.074412398
0.69377416 0.01514263 0.074425772
0.69403005 0.01597397 0.074439138
0.69510424 0.016312199 0.074862048
0.69535983 0.017142499 0.074875407
0.69561541 0.017972784 0.074888758
0.69668835 0.018306868 0.075311601
0.69694358 0.019136129 0.075324938
0.69719887 0.019965388 0.075338274
0.69745409 0.020794662 0.075351611
0.69770932 0.021623923 0.075364947
0.69796461 0.022453183 0.075378284
0.69821984 0.023282442 0.07539162
0.69847506 0.024111718 0.075404957
0.69954515 0.024436496 0.075827651
0.69980013 0.025264731 0.075840972
0.69969201 0.094252698 0.067765974
0.69916135 0.095680572 0.06737145
0.69863135 0.09711048 0.066976972
0.698102 0.098542467 0.066582531
0.6975733 0.099976502 0.066188119
0.69704515 0.10141264 0.06579373
0.69651771 0.10285084 0.065399393
0.69599092 0.10429107 0.065005064
0.69467443 0.10631751 0.064202711
0.69414914 0.10776294 0.063808471
0.69362456 0.10921042 0.063414268
0.69310063 0.11065999 0.063020125
0.69257736 0.11211161 0.062625982
0.69205469 0.11356532 0.062231887
0.69153261 0.11502109 0.061837815
0.69101119 0.11647891 0.061443787
0.69127822 0.11734644 0.061457738
0.69075781 0.11880738 0.061063763
0.69102514 0.11967593 0.061077733
0.69050568 0.12113998 0.060683805
0.69077331 0.12200955 0.06069779
0.69104099 0.12287913 0.060711775
0.69052273 0.12434733 0.060317885
0.69079071 0.12521796 0.060331888
0.6910587 0.12608856 0.060345888
0.6142382 -0.04233975 0.045871675
0.61451447 -0.041442249 0.045886107
0.61479068 -0.040544737 0.045900542
0.61336839 -0.038863774 0.045090497
0.61194742 -0.037178695 0.044280563
0.61222494 -0.036277056 0.044295061
0.61250246 -0.035375413 0.044309564
0.61023599 -0.033286188 0.043087572
0.60966676 -0.03198456 0.042689983
0.6090982 -0.030680861 0.042292424
0.60853034 -0.029375089 0.041894898
0.60965645 -0.028867234 0.042321593
0.60993558 -0.027960427 0.042336173
0.61359906 -0.028661855 0.043999009
0.6189515 -0.03017774 0.046485793
0.61922747 -0.029281272 0.04650021
0.61950338 -0.028384794 0.046514627
0.63187826 -0.032293081 0.052311152
0.6321497 -0.031411078 0.052325334
0.63157737 -0.030119788 0.051927578
0.63184917 -0.02923676 0.051941779
0.63296419 -0.028765092 0.052367888
0.63407856 -0.028295483 0.052793954
0.63519233 -0.02782798 0.053220011
0.63630545 -0.027362511 0.053646021
0.63741791 -0.026899114 0.054072
0.63852972 -0.026437789 0.054497942
0.63964093 -0.025978524 0.054923855
0.64075154 -0.025521349 0.055349745
0.64186144 -0.02506623 0.055775575
0.64297074 -0.02461317 0.056201387
0.64407939 -0.024162181 0.05662718
0.64518738 -0.023713259 0.057052925
0.64545536 -0.02284264 0.057066925
0.64656252 -0.022396842 0.057492636
0.6476689 -0.021953091 0.057918295
0.64877468 -0.021511408 0.05834391
0.64987987 -0.021071788 0.058769505
0.65098441 -0.020634267 0.059195083
0.65208828 -0.020198781 0.059620611
0.65319151 -0.019765373 0.060046103
0.65429413 -0.019334033 0.060471565
0.6553961 -0.018904757 0.060896996
0.65649748 -0.018477565 0.061322406
0.65759814 -0.018052436 0.061747752
0.6586982 -0.017629357 0.062173095
0.65979761 -0.01720836 0.062598392
0.66089642 -0.016789427 0.063023657
0.66199458 -0.01637258 0.063448884
0.66309214 -0.015957778 0.063874081
0.66418898 -0.015545044 0.064299241
0.66528523 -0.01513439 0.064724371
0.66638088 -0.014725804 0.065149479
0.66747582 -0.014319281 0.065574542
0.66857016 -0.01391481 0.065999575
0.66883147 -0.013065903 0.066013224
0.66992486 -0.012664552 0.066438206
0.67101759 -0.012265266 0.066863149
0.67127824 -0.011418425 0.066876769
0.67237008 -0.01102225 0.067301668
0.6734612 -0.010628135 0.067726545
0.67372119 -0.0097833602 0.067740135
0.67481142 -0.0093923518 0.068164945
0.67507112 -0.0085486174 0.068178512
0.67616034 -0.0081606861 0.068603277
0.67641973 -0.0073179775 0.06861683
0.67667913 -0.0064752824 0.068630382
0.67776716 -0.0060915155 0.06905508
0.67885447 -0.0057098111 0.069479741
0.67911321 -0.0048691817 0.069493264
0.68019956 -0.0044905543 0.06991788
0.68128532 -0.0041140215 0.070342459
0.68154341 -0.0032754582 0.070355944
0.68262821 -0.0029020167 0.070780471
0.682886 -0.0020644935 0.070793942
0.68396986 -0.0016941609 0.071218438
0.68422735 -0.00085764908 0.071231894
0.68448484 -2.1151567e-05 0.071245342
0.68474233 0.00081534596 0.071258798
0.68582451 0.0011805099 0.071683198
0.68608171 0.0020159816 0.071696632
0.68633884 0.0028514392 0.071710065
0.68659604 0.003686911 0.071723506
0.68685317 0.0045223827 0.071736939
0.6871103 0.0053578401 0.07175038
0.68819034 0.0057157665 0.072174661
0.68844718 0.0065501984 0.072188079
0.68870401 0.0073846299 0.072201498
0.68896085 0.0082190614 0.072214916
0.68921769 0.0090535078 0.072228335
