# .PCD v0.7 - Point Cloud Data file format
VERSION 0.7
FIELDS x y z
SIZE 4 4 4
TYPE F F F
COUNT 1 1 1
WIDTH 1375
HEIGHT 1
VIEWPOINT 0 0 0 1 0 0 0
POINTS 1375
DATA ascii
0.51372039 -0.17881748 0.034823738
0.51491421 -0.17808302 0.035208739
0.51520085 -0.17714354 0.035196662
0.51639372 -0.17641219 0.035581719
0.51668 -0.17547375 0.035569653
0.51696628 -0.17453532 0.03555759
0.51725256 -0.17359689 0.035545524
0.51753885 -0.17265846 0.035533462
0.51782513 -0.17172001 0.035521396
0.51811141 -0.17078158 0.035509329
0.51839763 -0.16984315 0.035497267
0.51868391 -0.16890472 0.035485201
0.51897019 -0.16796628 0.035473138
0.51925647 -0.16702785 0.035461072
0.51954275 -0.16608942 0.035449006
0.51982903 -0.16515099 0.035436943
0.52011532 -0.16421254 0.035424877
0.51949966 -0.16305153 0.035015494
0.51978624 -0.16211207 0.035003416
0.52007288 -0.1611726 0.034991339
0.52035946 -0.16023313 0.034979258
0.52064604 -0.15929367 0.03496718
0.52093261 -0.15835419 0.034955103
0.52211922 -0.1576435 0.035340425
0.52330518 -0.15693489 0.035725772
0.52359116 -0.15599748 0.035713721
0.52477622 -0.15529197 0.036099125
0.52506191 -0.15435562 0.036087088
0.52624595 -0.15365319 0.036472503
0.52653128 -0.15271786 0.036460478
0.52771443 -0.15201853 0.036845945
0.52799946 -0.15108423 0.036833934
0.5291816 -0.15038802 0.037219442
0.5303632 -0.14969386 0.037604962
0.53064758 -0.14876163 0.037592977
0.53182822 -0.1480706 0.037978567
0.5321123 -0.1471394 0.037966594
0.53239638 -0.1462082 0.037954625
0.53357571 -0.14552128 0.038340252
0.53385949 -0.14459111 0.038328294
0.53503788 -0.14390729 0.038713947
0.5353213 -0.14297816 0.038702
0.53560477 -0.14204903 0.038690057
0.5358882 -0.1411199 0.03867811
0.53617162 -0.14019077 0.038666166
0.53645509 -0.13926163 0.038654219
0.53673851 -0.1383325 0.038642276
0.53702193 -0.13740337 0.038630329
0.53730536 -0.13647424 0.038618386
0.53758883 -0.1355451 0.038606439
0.53787225 -0.13461597 0.038594496
0.53815567 -0.13368684 0.038582548
0.53843915 -0.13275771 0.038570605
0.53872257 -0.13182858 0.038558658
0.53900599 -0.13089944 0.038546715
0.53928941 -0.12997031 0.038534768
0.53957289 -0.12904118 0.038522825
0.53985631 -0.12811205 0.038510878
0.53925079 -0.12691796 0.038101085
0.53864586 -0.12572181 0.037691247
0.53892994 -0.12479061 0.037679274
0.53832591 -0.12359134 0.037269384
0.53861028 -0.1226591 0.037257399
0.53800726 -0.12145675 0.036847495
0.53740489 -0.12025233 0.036437552
0.53680313 -0.11904585 0.036027584
0.53620201 -0.11783729 0.035617601
0.53648764 -0.11690092 0.035605565
0.53677326 -0.11596455 0.035593525
0.53705895 -0.11502819 0.035581488
0.53734457 -0.11409182 0.035569448
0.5376302 -0.11315545 0.035557412
0.53791589 -0.11221909 0.035545371
0.53820151 -0.11128271 0.035533335
0.53848714 -0.11034635 0.035521299
0.53877282 -0.10940998 0.035509259
0.53905845 -0.10847361 0.035497222
0.53934407 -0.10753725 0.035485182
0.53962976 -0.10660088 0.035473146
0.53991538 -0.10566451 0.035461105
0.54020101 -0.10472815 0.035449069
0.54048663 -0.10379178 0.035437029
0.54077232 -0.10285541 0.035424992
0.54105794 -0.10191905 0.035412952
0.54134357 -0.10098268 0.035400916
0.54162925 -0.10004631 0.035388879
0.54191488 -0.09910994 0.035376839
0.54220051 -0.098173574 0.035364803
0.54160661 -0.096941233 0.034954485
0.54189253 -0.09600383 0.034942433
0.54217851 -0.095066436 0.034930382
0.54246449 -0.094129033 0.034918331
0.54275042 -0.093191631 0.034906279
0.54215842 -0.091953106 0.034495898
0.54244471 -0.091014668 0.034483831
0.54273099 -0.090076238 0.034471769
0.54301727 -0.0891378 0.034459703
0.54330355 -0.08819937 0.03444764
0.54358983 -0.087260939 0.034435574
0.54475218 -0.086629823 0.03482192
0.5450381 -0.085692428 0.034809869
0.45961291 -0.21721146 0.016961498
0.45991367 -0.21622548 0.016948823
0.48015463 -0.21661592 0.025259484
0.48228991 -0.21597259 0.026042219
0.48258343 -0.21501037 0.026029848
0.48103711 -0.21372309 0.025222294
0.48133126 -0.21275882 0.025209896
0.48162541 -0.21179456 0.0251975
0.48191959 -0.21083027 0.025185103
0.48221374 -0.209866 0.025172705
0.48250788 -0.20890173 0.025160309
0.48280203 -0.20793746 0.025147911
0.48309621 -0.20697318 0.025135515
0.48339036 -0.20600891 0.025123117
0.48460162 -0.20521648 0.025508426
0.48489544 -0.20425326 0.025496043
0.48610574 -0.20346391 0.025881404
0.48639929 -0.20250171 0.025869034
0.48760864 -0.20171548 0.026254423
0.48881742 -0.20093134 0.026639866
0.49002552 -0.20014925 0.027025307
0.49123296 -0.19936924 0.027410788
0.49152523 -0.19841115 0.027398473
0.49273175 -0.19763424 0.027783979
0.49393764 -0.19685936 0.028169513
0.49514297 -0.19608659 0.028555103
0.49543428 -0.19513161 0.028542826
0.4966386 -0.19436194 0.02892844
0.49784228 -0.19359431 0.029314067
0.49904531 -0.19282874 0.02969972
0.49933571 -0.19187687 0.029687483
0.50053787 -0.19111444 0.030073207
0.50173932 -0.19035405 0.03045894
0.50294018 -0.18959573 0.030844688
0.50414038 -0.18883947 0.031230476
0.50533998 -0.18808529 0.031616274
0.50653899 -0.18733318 0.032002117
0.50682747 -0.18638751 0.031989958
0.50711596 -0.18544184 0.031977803
0.5083136 -0.18469386 0.032363694
0.5095107 -0.18394794 0.032749616
0.50979853 -0.18300433 0.032737482
0.51008636 -0.18206073 0.032725353
0.51128221 -0.18131895 0.033111311
0.51247734 -0.18057923 0.033497296
0.51276457 -0.1796377 0.033485193
0.51395887 -0.17890109 0.033871248
0.51515245 -0.17816654 0.034257315
0.51543903 -0.17722708 0.034245238
0.51663166 -0.17649563 0.034631327
0.51691794 -0.1755572 0.034619264
0.51720423 -0.17461875 0.034607198
0.51749051 -0.17368032 0.034595136
0.51777679 -0.17274189 0.034583069
0.51806307 -0.17180346 0.034571007
0.51834935 -0.17086501 0.034558941
0.51863563 -0.16992658 0.034546874
0.51892185 -0.16898815 0.034534812
0.51920813 -0.16804972 0.034522746
0.51949441 -0.16711128 0.034510683
0.5197807 -0.16617285 0.034498617
0.52006698 -0.16523442 0.034486551
0.52035326 -0.16429599 0.034474488
0.52063954 -0.16335754 0.034462422
0.52092582 -0.16241911 0.03445036
0.5212121 -0.16148068 0.034438293
0.52149832 -0.16054225 0.034426227
0.5217846 -0.1596038 0.034414165
0.52207088 -0.15866537 0.034402099
0.5232569 -0.15795563 0.034788471
0.52354288 -0.15701823 0.034776419
0.524728 -0.1563116 0.035162859
0.52591246 -0.15560701 0.035549298
0.52619779 -0.15467168 0.035537273
0.52648312 -0.15373635 0.035525247
0.52766633 -0.15303591 0.035911754
0.5279513 -0.15210161 0.03589974
0.52823633 -0.1511673 0.035887729
0.52941829 -0.15047099 0.036274288
0.53059953 -0.14977674 0.036660857
0.53088397 -0.14884451 0.036648873
0.53206438 -0.14815339 0.037035499
0.53234839 -0.14722219 0.037023526
0.53352779 -0.14653414 0.037410192
0.53381157 -0.14560398 0.037398234
0.53499001 -0.14491904 0.037784923
0.53527349 -0.14398991 0.037772976
0.53645098 -0.14330806 0.038159721
0.5367341 -0.14237997 0.038147788
0.53701723 -0.14145187 0.038135856
0.53730035 -0.14052376 0.038123924
0.53758347 -0.13959567 0.038111996
0.53786659 -0.13866757 0.038100064
0.53814971 -0.13773946 0.038088132
0.53843284 -0.13681136 0.0380762
0.53871596 -0.13588327 0.038064267
0.53899908 -0.13495517 0.038052335
0.5392822 -0.13402706 0.038040403
0.53956532 -0.13309897 0.038028471
0.53984845 -0.13217087 0.038016539
0.53924161 -0.13098204 0.037605748
0.53952503 -0.13005291 0.037593801
0.53980845 -0.12912378 0.037581857
0.54009193 -0.12819465 0.03756991
0.53948665 -0.12700066 0.037159067
0.53888196 -0.1258046 0.036748178
0.53916603 -0.1248734 0.036736205
0.5385623 -0.12367422 0.03632528
0.53884667 -0.12274198 0.036313295
0.53824389 -0.12153973 0.035902344
0.53852862 -0.12060646 0.035890345
0.53792679 -0.1194011 0.035479337
0.53732562 -0.11819366 0.035068303
0.53761095 -0.11725833 0.035056278
0.53789628 -0.116323 0.035044253
0.5381816 -0.11538766 0.035032231
0.53846693 -0.11445233 0.035020206
0.53875226 -0.113517 0.035008181
0.53903759 -0.11258166 0.034996156
0.53932291 -0.11164633 0.03498413
0.53960824 -0.110711 0.034972105
0.53989357 -0.10977566 0.03496008
0.54017889 -0.10884033 0.034948055
0.54046422 -0.107905 0.034936029
0.54074955 -0.10696966 0.034924008
0.54103488 -0.10603433 0.034911983
0.5413202 -0.10509899 0.034899957
0.54160553 -0.10416366 0.034887932
0.54189086 -0.10322833 0.034875907
0.54129535 -0.10200229 0.03446465
0.54158103 -0.10106593 0.03445261
0.54186666 -0.10012956 0.034440573
0.54215229 -0.099193193 0.034428537
0.54243797 -0.098256826 0.034416497
0.5427236 -0.09732046 0.03440446
0.54300922 -0.096384093 0.03439242
0.54241621 -0.095149778 0.033981029
0.54270214 -0.094212376 0.033968978
0.54298812 -0.093274973 0.033956923
0.5432741 -0.092337571 0.033944871
0.54356003 -0.091400169 0.03393282
0.54384601 -0.090462774 0.033920769
0.54413193 -0.089525372 0.033908717
0.54441792 -0.08858797 0.033896666
0.5447039 -0.087650567 0.033884615
0.54498982 -0.086713165 0.033872563
0.54527581 -0.08577577 0.033860512
0.45986289 -0.21729912 0.01596296
0.46016368 -0.21631314 0.015950285
0.48286775 -0.21814087 0.025491085
0.48316097 -0.2171797 0.025478728
0.4825339 -0.21605814 0.025067747
0.48282743 -0.21509592 0.025055377
0.48220128 -0.21397127 0.024644371
0.48249513 -0.21300803 0.024631988
0.48278895 -0.21204479 0.024619604
0.4830828 -0.21108156 0.024607221
0.48337665 -0.21011832 0.024594836
0.48367047 -0.20915508 0.024582453
0.48396432 -0.20819184 0.02457007
0.48425817 -0.2072286 0.024557685
0.484552 -0.20626536 0.024545303
0.48576269 -0.20547387 0.024931673
0.48605621 -0.20451167 0.024919303
0.48726591 -0.20372328 0.025305729
0.48755914 -0.20276211 0.025293373
0.48876798 -0.20197685 0.025679838
0.48997611 -0.20119362 0.026066316
0.49118364 -0.20041248 0.026452821
0.49239051 -0.19963339 0.026839366
0.49268246 -0.19867635 0.026827062
0.49388841 -0.19790037 0.027213633
0.49509379 -0.19712646 0.027600246
0.49538511 -0.19617149 0.027587969
0.49658945 -0.19540069 0.027974606
0.4977932 -0.19463193 0.028361283
0.49899629 -0.19386525 0.028747974
0.49928668 -0.19291338 0.028735736
0.50048888 -0.19214982 0.029122481
0.50169039 -0.19138829 0.029509239
0.5028913 -0.19062884 0.029896023
0.50409156 -0.18987148 0.030282846
0.50529122 -0.18911617 0.030669684
0.50558001 -0.18816946 0.030657511
0.50677878 -0.18741725 0.031044403
0.50706726 -0.1864716 0.031032246
0.50735569 -0.18552592 0.031020088
0.50855315 -0.18477784 0.031407017
0.50974995 -0.18403183 0.031793989
0.51003778 -0.18308823 0.031781856
0.51032567 -0.18214463 0.031769726
0.51152116 -0.18140274 0.032156736
0.51271611 -0.18066294 0.032543771
0.51300329 -0.1797214 0.032531668
0.51419735 -0.1789847 0.03291877
0.51539063 -0.17825007 0.033305872
0.51567721 -0.1773106 0.033293795
0.5168696 -0.17657906 0.033680938
0.51715589 -0.17564063 0.033668872
0.51744217 -0.1747022 0.033656809
0.51772845 -0.17376375 0.033644743
0.51801473 -0.17282532 0.033632681
0.51830101 -0.17188689 0.033620615
0.51858729 -0.17094846 0.033608548
0.51887357 -0.17001002 0.033596486
0.51915985 -0.16907158 0.03358442
0.51944607 -0.16813315 0.033572357
0.51973236 -0.16719472 0.033560291
0.52001864 -0.16625628 0.033548225
0.52030492 -0.16531785 0.033536162
0.5205912 -0.16437942 0.033524096
0.52087748 -0.16344097 0.033512034
0.52116376 -0.16250254 0.033499967
0.52145004 -0.16156411 0.033487905
0.52173632 -0.16062568 0.033475839
0.52292269 -0.15991376 0.033863232
0.52320868 -0.15897636 0.03385118
0.5234946 -0.15803897 0.033839129
0.52467978 -0.15733121 0.034226608
0.52496547 -0.15639484 0.034214571
0.52614963 -0.15569018 0.034602057
0.52643496 -0.15475483 0.034590032
0.52761817 -0.15405327 0.034977559
0.5279032 -0.15311897 0.034965549
0.52908552 -0.15242051 0.035353117
0.52937019 -0.15148723 0.035341118
0.53055155 -0.15079187 0.035728723
0.53083593 -0.14985964 0.035716739
0.5320164 -0.14916737 0.036104415
0.53230047 -0.14823619 0.036092445
0.53347993 -0.14754701 0.036480132
0.53376365 -0.14661685 0.036468174
0.53494221 -0.14593078 0.036855899
0.53522563 -0.14500165 0.036843956
0.53550905 -0.14407252 0.036832009
0.5366863 -0.14339058 0.037219789
0.53696942 -0.14246248 0.037207857
0.53725255 -0.14153437 0.037195925
0.53753567 -0.14060628 0.037183993
0.53781879 -0.13967818 0.03717206
0.53810191 -0.13875008 0.037160128
0.53838503 -0.13782199 0.0371482
0.53866816 -0.13689388 0.037136268
0.53895128 -0.13596578 0.037124336
0.5392344 -0.13503769 0.037112404
0.53951752 -0.13410959 0.037100472
0.53980064 -0.13318148 0.037088539
0.54008377 -0.13225339 0.037076607
0.54036689 -0.13132529 0.037064675
0.54065001 -0.13039719 0.037052743
0.54093313 -0.1294691 0.037040811
0.54121625 -0.12854099 0.037028879
0.54061091 -0.12734812 0.036616996
0.54000622 -0.12615319 0.036205087
0.54029 -0.12522303 0.036193129
0.5396862 -0.12402499 0.035781182
0.53997028 -0.12309378 0.035769209
0.53936744 -0.12189264 0.035357192
0.53876525 -0.12068943 0.034945175
0.53816372 -0.11948416 0.034533132
0.53844869 -0.11854986 0.034521122
0.53873372 -0.11761556 0.034509111
0.53901875 -0.11668126 0.034497097
0.53930378 -0.11574696 0.034485087
0.53958875 -0.11481266 0.034473076
0.53987378 -0.11387836 0.034461062
0.53927475 -0.11266482 0.034048915
0.53956008 -0.11172949 0.03403689
0.53984541 -0.11079416 0.034024864
0.54013073 -0.10985882 0.034012839
0.54041606 -0.10892349 0.034000818
0.54070139 -0.10798816 0.033988792
0.54098672 -0.10705282 0.033976767
0.54127204 -0.10611749 0.033964742
0.54155737 -0.10518215 0.033952717
0.5418427 -0.10424682 0.033940692
0.54212803 -0.10331149 0.033928666
0.54241335 -0.10237615 0.033916641
0.54269868 -0.10144082 0.033904616
0.54298401 -0.10050549 0.033892594
0.54326934 -0.099570148 0.033880569
0.54355466 -0.098634817 0.033868544
0.542961 -0.097403705 0.033456169
0.54324669 -0.096467339 0.033444129
0.54353231 -0.095530972 0.033432093
0.54381794 -0.094594605 0.033420056
0.54410362 -0.093658239 0.033408016
0.54438925 -0.092721872 0.03339598
0.54467487 -0.091785505 0.033383939
0.5449605 -0.090849139 0.033371903
0.54524618 -0.089912772 0.033359863
0.54553181 -0.088976398 0.033347826
0.54581743 -0.088040039 0.033335786
0.54610312 -0.087103665 0.03332375
0.54638875 -0.086167298 0.03331171
0.48281828 -0.2191875 0.02453002
0.48311147 -0.21822633 0.024517663
0.4834047 -0.21726514 0.024505306
0.48277786 -0.21614368 0.024093289
0.48307139 -0.21518147 0.024080919
0.48336491 -0.21421927 0.024068549
0.48365843 -0.21325706 0.024056179
0.48395196 -0.21229486 0.024043808
0.48424548 -0.21133265 0.024031438
0.48453903 -0.21037045 0.024019068
0.48483256 -0.20940824 0.024006698
0.48512608 -0.20844604 0.023994327
0.4854196 -0.20748383 0.023981957
0.48571312 -0.20652163 0.023969587
0.48692322 -0.20573108 0.024357021
0.48721644 -0.20476991 0.024344664
0.48842564 -0.20398249 0.024732154
0.48871854 -0.20302235 0.02471981
0.48992673 -0.20223801 0.025107326
0.49113429 -0.20145573 0.025494866
0.49234125 -0.20067552 0.025882434
0.49354756 -0.19989736 0.026270028
0.49383917 -0.19894136 0.026257738
0.49504459 -0.19816634 0.026645387
0.49624932 -0.19739337 0.027033048
0.49654034 -0.19643943 0.027020784
0.49774411 -0.19566955 0.027408484
0.49894729 -0.19490175 0.027796213
0.50014985 -0.19413602 0.028183982
0.50043994 -0.1931852 0.028171757
0.50164151 -0.19242255 0.028559551
0.50284243 -0.19166197 0.02894737
0.50313187 -0.1907132 0.028935174
0.50433189 -0.18995573 0.029323034
0.50553125 -0.18920033 0.029710921
0.50582004 -0.18825363 0.02969875
0.50701851 -0.18750134 0.030086691
0.50730699 -0.18655567 0.030074533
0.50759548 -0.18561 0.030062376
0.50879264 -0.18486182 0.030450355
0.5099892 -0.18411572 0.030838361
0.51027703 -0.18317212 0.03082623
0.51056492 -0.18222852 0.030814098
0.51176018 -0.18148655 0.031202158
0.51295483 -0.18074664 0.031590246
0.51324207 -0.17980511 0.031578138
0.51443577 -0.17906833 0.03196628
0.51562887 -0.1783336 0.032354433
0.51591545 -0.17739412 0.032342356
0.51710755 -0.17666249 0.032730546
0.51739383 -0.17572406 0.032718483
0.51768011 -0.17478563 0.032706417
0.51796639 -0.17384718 0.032694355
0.51825267 -0.17290875 0.032682288
0.51853895 -0.17197032 0.032670226
0.51882523 -0.17103189 0.03265816
0.51911151 -0.17009345 0.032646094
0.5193978 -0.16915502 0.032634031
0.51968408 -0.16821659 0.032621965
0.5199703 -0.16727816 0.032609902
0.52025658 -0.16633971 0.032597836
0.52054286 -0.16540128 0.03258577
0.52082914 -0.16446285 0.032573707
0.52111542 -0.1635244 0.032561641
0.5214017 -0.16258597 0.032549579
0.52168798 -0.16164754 0.032537512
0.52197427 -0.16070911 0.032525446
0.5231604 -0.15999711 0.032913893
0.52344632 -0.1590597 0.032901842
0.5237323 -0.15812232 0.032889791
0.52491724 -0.15741447 0.033278301
0.52520287 -0.15647809 0.033266265
0.5263868 -0.15577333 0.033654802
0.52667212 -0.154838 0.033642776
0.5278551 -0.15413633 0.034031354
0.52814013 -0.15320204 0.034019344
0.52932215 -0.15250348 0.034407962
0.52960682 -0.1515702 0.034395963
0.53078794 -0.15087475 0.034784619
0.53107232 -0.14994252 0.034772635
0.53225249 -0.14925016 0.035161346
0.53253657 -0.14831898 0.035149377
0.53371578 -0.14762971 0.035538115
0.5339995 -0.14669955 0.035526156
0.53517777 -0.14601338 0.035914931
0.53546119 -0.14508425 0.035902988
0.53574467 -0.14415511 0.035891041
0.53692162 -0.14347309 0.036279872
0.53720474 -0.142545 0.03626794
0.53838086 -0.14186609 0.036656823
0.53866369 -0.14093901 0.036644906
0.53894645 -0.14001195 0.036632989
0.53922927 -0.13908489 0.036621068
0.5395121 -0.13815781 0.03660915
0.53979486 -0.13723075 0.036597233
0.54007769 -0.13630369 0.036585312
0.54036051 -0.13537662 0.036573395
0.54064333 -0.13444956 0.036561478
0.5409261 -0.1335225 0.036549557
0.54120892 -0.13259543 0.03653764
0.54149175 -0.13166836 0.036525723
0.54177451 -0.1307413 0.036513802
0.54205734 -0.12981424 0.036501884
0.54234016 -0.12888716 0.036489964
0.5417347 -0.12769541 0.03607703
0.54112995 -0.12650159 0.035664085
0.54141337 -0.12557246 0.035652138
0.54080957 -0.12437555 0.035239153
0.54020643 -0.12317657 0.034826141
0.53960383 -0.12197552 0.034413088
0.5398882 -0.12104329 0.0344011
0.53928661 -0.11983914 0.033988021
0.53957129 -0.11890587 0.033976026
0.53897065 -0.11769862 0.033562906
0.53925562 -0.11676433 0.033550896
0.53954065 -0.11583003 0.033538882
0.53982568 -0.11489572 0.033526871
0.54011071 -0.11396143 0.033514861
0.54039568 -0.11302713 0.033502847
0.53979725 -0.11181264 0.033089638
0.54008257 -0.11087731 0.033077613
0.5403679 -0.10994198 0.033065587
0.54065323 -0.10900664 0.033053562
0.54093856 -0.10807131 0.033041537
0.54122388 -0.10713598 0.033029512
0.54150921 -0.10620064 0.033017486
0.54179454 -0.10526531 0.033005461
0.54207987 -0.10432998 0.032993436
0.54236519 -0.10339464 0.032981414
0.54265052 -0.10245931 0.032969389
0.54293585 -0.10152397 0.032957364
0.54322118 -0.10058864 0.032945339
0.5435065 -0.099653311 0.032933313
0.54379183 -0.098717973 0.032921288
0.54407716 -0.097782642 0.032909263
0.54436249 -0.096847303 0.032897238
0.54464781 -0.095911972 0.032885212
0.54493314 -0.094976641 0.032873191
0.54521847 -0.09404131 0.032861166
0.5455038 -0.093105972 0.03284914
0.54578912 -0.092170641 0.032837115
0.54607451 -0.09123531 0.03282509
0.54548359 -0.089996018 0.03241156
0.54576921 -0.089059651 0.03239952
0.5460549 -0.088123284 0.032387484
0.54634053 -0.087186918 0.032375444
0.54662615 -0.086250551 0.032363407
0.45791739 -0.21914046 0.013190031
0.45821878 -0.21815242 0.013177329
0.48306197 -0.21927296 0.023556598
0.48335519 -0.21831177 0.023544241
0.4827283 -0.21719143 0.023131188
0.48302186 -0.21622923 0.023118818
0.48331538 -0.21526702 0.023106446
0.4836089 -0.21430482 0.023094077
0.48482123 -0.21350592 0.023482457
0.48511446 -0.21254475 0.023470098
0.48540765 -0.21158357 0.023457741
0.48570088 -0.2106224 0.023445385
0.4859941 -0.20966123 0.023433028
0.4862873 -0.20870006 0.023420671
0.48658052 -0.20773889 0.023408314
0.48687372 -0.20677772 0.023395957
0.4880833 -0.20598812 0.02378447
0.4883762 -0.20502798 0.023772126
0.48958477 -0.20424148 0.02416065
0.49079269 -0.20345706 0.024549216
0.49200001 -0.20267469 0.024937807
0.49229196 -0.20171764 0.024925502
0.49349833 -0.20093837 0.025314134
0.4947041 -0.20016119 0.025702806
0.49499542 -0.19920622 0.025690529
0.4962002 -0.19843212 0.026079228
0.49740437 -0.19766009 0.026467951
0.49769506 -0.19670717 0.0264557
0.49889827 -0.19593824 0.026844451
0.50010091 -0.1951714 0.027233256
0.50039095 -0.19422057 0.027221031
0.50068098 -0.19326973 0.027208809
0.50188231 -0.192507 0.027597651
0.50308305 -0.19174632 0.027986508
0.50428307 -0.19098774 0.028375404
0.50548249 -0.19023119 0.028764328
0.50577128 -0.1892845 0.028752157
0.50606012 -0.1883378 0.028739987
0.5072583 -0.18758541 0.029128963
0.50754678 -0.18663974 0.029116806
0.50783527 -0.18569407 0.029104648
0.50903219 -0.18494582 0.029493678
0.51022846 -0.18419962 0.029882735
0.51051629 -0.18325602 0.029870603
0.51080418 -0.18231241 0.029858472
0.51199919 -0.18157035 0.030247582
0.51319355 -0.18083036 0.030636718
0.51348078 -0.17988883 0.030624613
0.51467425 -0.17915194 0.031013804
0.51586705 -0.17841712 0.031403009
0.51615363 -0.17747764 0.031390928
0.51644027 -0.17653818 0.03137885
0.51763177 -0.17580749 0.031768091
0.51791805 -0.17486906 0.031756029
0.51820433 -0.17393063 0.031743962
0.51849061 -0.17299218 0.0317319
0.51877689 -0.17205375 0.031719834
0.51906317 -0.17111532 0.031707767
0.51934946 -0.17017689 0.031695705
0.51963574 -0.16923845 0.031683639
0.51992202 -0.16830002 0.031671576
0.5202083 -0.16736159 0.03165951
0.52049452 -0.16642314 0.031647444
0.5207808 -0.16548471 0.031635381
0.52106708 -0.16454628 0.031623315
0.52135336 -0.16360785 0.031611253
0.52163965 -0.16266941 0.031599186
0.52192593 -0.16173097 0.031587124
0.52221221 -0.16079254 0.031575058
0.52339804 -0.16008045 0.031964552
0.52368402 -0.15914305 0.0319525
0.52397001 -0.15820564 0.031940449
0.52515465 -0.1574977 0.032330014
0.52544028 -0.15656134 0.032317974
0.52662396 -0.15585649 0.03270755
0.52690929 -0.15492116 0.032695524
0.52809203 -0.1542194 0.033085153
0.528377 -0.1532851 0.033073138
0.52955878 -0.15258645 0.033462808
0.52984351 -0.15165319 0.033450808
0.53102428 -0.15095763 0.033840504
0.53130871 -0.1500254 0.033828516
0.53248864 -0.14933296 0.034218278
0.53277272 -0.14840177 0.034206308
0.53395164 -0.14771241 0.034596093
0.5351299 -0.14702512 0.034985907
0.53541338 -0.14609599 0.034973964
0.5356968 -0.14516686 0.034962017
0.53687382 -0.1444837 0.035351884
0.53715694 -0.14355561 0.035339955
0.53833312 -0.14287557 0.035729874
0.53861594 -0.14194851 0.035717957
0.53979105 -0.14127156 0.03610789
0.54007357 -0.14034553 0.036095984
0.54035604 -0.1394195 0.036084078
0.54063857 -0.13849346 0.036072172
0.54092103 -0.13756743 0.03606027
0.54120356 -0.1366414 0.036048364
0.54148602 -0.13571537 0.036036458
0.54176849 -0.13478933 0.036024552
0.54205102 -0.1338633 0.036012646
0.54233348 -0.13293727 0.036000744
0.54261601 -0.13201123 0.035988837
0.54289848 -0.1310852 0.035976931
0.54318094 -0.13015917 0.035965025
0.54257524 -0.12896959 0.035551097
0.542858 -0.12804252 0.03553918
0.54225314 -0.12684982 0.035125181
0.54164898 -0.12565507 0.034711171
0.5419324 -0.12472594 0.034699228
0.54132921 -0.12352809 0.034285177
0.5407266 -0.12232817 0.033871099
0.54101068 -0.12139697 0.03385913
0.54040897 -0.12019394 0.033444997
0.53980792 -0.11898885 0.033030871
0.54009265 -0.11805558 0.033018872
0.54037732 -0.11712231 0.033006873
0.54066199 -0.11618905 0.032994874
0.54094672 -0.11525578 0.032982878
0.54123139 -0.11432251 0.032970879
0.54063261 -0.11311019 0.032556642
0.54091763 -0.11217589 0.032544632
0.5412026 -0.11124159 0.032532621
0.54148763 -0.11030729 0.032520607
0.54177266 -0.10937299 0.032508597
0.54205763 -0.10843869 0.032496586
0.54234266 -0.10750439 0.032484576
0.54262769 -0.10657009 0.032472562
0.54291272 -0.10563579 0.032460552
0.54319769 -0.10470149 0.032448541
0.54348272 -0.10376719 0.032436527
0.54376775 -0.10283289 0.032424517
0.54405278 -0.10189859 0.032412507
0.54433775 -0.10096429 0.032400493
0.54462278 -0.10002999 0.032388482
0.54490781 -0.099095687 0.032376472
0.54519284 -0.098161384 0.032364458
0.54547781 -0.097227089 0.032352448
0.54576284 -0.096292786 0.032340437
0.54604787 -0.095358483 0.032328423
0.5463329 -0.094424188 0.032316413
0.54661787 -0.093489885 0.032304402
0.54602629 -0.092253797 0.03188986
0.54631162 -0.091318466 0.031877834
0.54659694 -0.090383135 0.031865809
0.54688227 -0.089447796 0.031853788
0.54716766 -0.088512465 0.031841762
0.54745299 -0.087577134 0.031829737
0.54686362 -0.086333796 0.031415116
0.44311377 -0.21778685 0.0057756864
0.45816791 -0.2192283 0.012189392
0.45846933 -0.21824026 0.01217669
0.4839333 -0.22047555 0.022997255
0.4842262 -0.21951543 0.022984911
0.48359892 -0.21839723 0.022570819
0.48389211 -0.21743606 0.022558462
0.48418534 -0.21647489 0.022546105
0.48447853 -0.21551372 0.022533748
0.48477176 -0.21455255 0.022521392
0.48598358 -0.21375459 0.022910848
0.48627648 -0.21279445 0.022898505
0.48656937 -0.21183431 0.022886161
0.48686227 -0.21087417 0.022873817
0.48715517 -0.20991404 0.022861473
0.48744807 -0.2089539 0.02284913
0.48774096 -0.20799376 0.022836786
0.48803386 -0.20703362 0.022824442
0.48924279 -0.20624496 0.02321399
0.48953536 -0.20528586 0.023201659
0.49074337 -0.2045003 0.023591261
0.49195072 -0.2037168 0.023980889
0.49315745 -0.20293538 0.024370531
0.49344909 -0.20197937 0.024358239
0.49465492 -0.20120107 0.024747949
0.49586007 -0.20042481 0.025137655
0.49615109 -0.19947086 0.025125392
0.49735528 -0.1986977 0.025515152
0.49855888 -0.19792661 0.025904926
0.49884924 -0.19697474 0.025892688
0.50005192 -0.19620678 0.026282532
0.50034201 -0.19525594 0.026270308
0.5015437 -0.19449104 0.026660159
0.50183344 -0.19354124 0.02664795
0.50303417 -0.19277945 0.027037857
0.50332361 -0.19183068 0.027025659
0.5045234 -0.19107199 0.027415592
0.50572252 -0.19031537 0.027805565
0.50601137 -0.18936867 0.027793394
0.50630015 -0.18842196 0.027781224
0.50749809 -0.18766949 0.028171251
0.50778657 -0.18672381 0.028159093
0.50807506 -0.18577816 0.028146936
0.50927168 -0.1850298 0.028537016
0.51046771 -0.18428351 0.028927121
0.51075554 -0.18333991 0.028914992
0.51104343 -0.18239631 0.02890286
0.51223814 -0.18165416 0.029293004
0.51343226 -0.18091407 0.029683176
0.5137195 -0.17997253 0.029671073
0.51491272 -0.17923556 0.030061314
0.51610529 -0.17850064 0.030451566
0.51639187 -0.17756118 0.030439489
0.51667845 -0.17662171 0.030427411
0.51696503 -0.17568225 0.030415332
0.51815599 -0.17495249 0.030805638
0.51844227 -0.17401406 0.030793572
0.51872855 -0.17307562 0.030781507
0.51901484 -0.17213719 0.030769443
0.51930112 -0.17119876 0.030757379
0.5195874 -0.17026033 0.030745314
0.51987368 -0.16932188 0.030733248
0.52015996 -0.16838345 0.030721184
0.52044624 -0.16744502 0.03070912
0.52073252 -0.16650659 0.030697055
0.52101874 -0.16556814 0.030684991
0.52130502 -0.16462971 0.030672926
0.52159131 -0.16369128 0.03066086
0.52187759 -0.16275285 0.030648796
0.52216387 -0.16181441 0.030636732
0.52245015 -0.16087598 0.030624667
0.52363575 -0.16016379 0.031015212
0.52392173 -0.15922639 0.03100316
0.52420765 -0.15828899 0.030991109
0.52539206 -0.15758096 0.031381708
0.52567774 -0.1566446 0.031369671
0.52686113 -0.15593965 0.031760294
0.52714646 -0.15500431 0.031748269
0.5283289 -0.15430246 0.032138947
0.52861392 -0.15336818 0.032126933
0.52979541 -0.15266941 0.032517653
0.53008014 -0.15173616 0.032505654
0.53126067 -0.15104051 0.032896399
0.53154504 -0.15010828 0.032884412
0.53272474 -0.14941575 0.033275224
0.53300881 -0.14848454 0.033263255
0.5341875 -0.14779511 0.033654075
0.53536552 -0.14710772 0.03404494
0.53564894 -0.14617859 0.034032997
0.53682607 -0.14549433 0.034423884
0.53800255 -0.14481212 0.034814831
0.53828537 -0.14388506 0.034802914
0.5385682 -0.142958 0.034790993
0.53974336 -0.14227992 0.035181962
0.54002589 -0.14135389 0.035170056
0.54030836 -0.14042786 0.035158154
0.54059088 -0.13950182 0.035146248
0.54087335 -0.13857579 0.035134342
0.54115582 -0.13764976 0.035122436
0.54143834 -0.13672373 0.03511053
0.54172081 -0.13579769 0.035098627
0.54200333 -0.13487166 0.035086721
0.5422858 -0.13394563 0.035074815
0.54256833 -0.1330196 0.035062909
0.54285079 -0.13209356 0.035051003
0.54313326 -0.13116753 0.035039101
0.54341578 -0.1302415 0.035027195
0.54369825 -0.12931547 0.035015289
0.54309309 -0.12812495 0.034600295
0.54337591 -0.12719788 0.034588378
0.54277164 -0.12600423 0.034173317
0.54216802 -0.12480854 0.033758257
0.54245144 -0.12387941 0.033746313
0.54184878 -0.12268062 0.0333312
0.54124677 -0.12147976 0.032916076
0.54153085 -0.12054856 0.032904103
0.54092968 -0.11934458 0.032488909
0.54121411 -0.11841235 0.032476924
0.54149848 -0.11748011 0.03246494
0.54178286 -0.11654788 0.032452956
0.54206723 -0.11561565 0.032440968
0.54146802 -0.11440549 0.032025725
0.54175276 -0.11347222 0.032013725
0.54203743 -0.11253896 0.03200173
0.54232216 -0.11160569 0.031989731
0.54260683 -0.11067242 0.031977732
0.54289156 -0.10973915 0.031965733
0.54317623 -0.10880589 0.031953737
0.54346097 -0.10787262 0.031941738
0.54374564 -0.10693935 0.031929739
0.54403031 -0.10600609 0.03191774
0.54431504 -0.10507282 0.03190574
0.54459971 -0.10413955 0.031893745
0.54488444 -0.10320628 0.031881746
0.54516912 -0.10227302 0.031869747
0.54545385 -0.10133975 0.031857748
0.54573852 -0.10040648 0.031845752
0.54602325 -0.099473216 0.031833753
0.54630792 -0.098539948 0.031821754
0.54659259 -0.097606689 0.031809755
0.54687732 -0.096673422 0.031797759
0.547162 -0.095740154 0.03178576
0.54744673 -0.094806887 0.031773761
0.5477314 -0.09387362 0.031761762
0.54713976 -0.092638649 0.031346187
0.5483008 -0.092007086 0.031737767
0.54858553 -0.091073819 0.031725768
0.54799485 -0.089835756 0.031310152
0.54740477 -0.088595621 0.030894507
0.54769009 -0.08766029 0.030882481
0.54710102 -0.086417049 0.030466812
0.48204216 -0.22121134 0.021231754
0.48417675 -0.22056092 0.022024883
0.48446965 -0.21960078 0.022012539
0.48476255 -0.21864064 0.022000195
0.48505545 -0.21768051 0.021987852
0.48534834 -0.21672037 0.021975508
0.48564124 -0.21576023 0.021963164
0.48593414 -0.21480009 0.02195082
0.48714533 -0.21400307 0.022341313
0.4874379 -0.21304397 0.022328982
0.4877305 -0.21208486 0.022316651
0.48802307 -0.21112576 0.022304321
0.48831564 -0.21016665 0.02229199
0.48860824 -0.20920755 0.022279659
0.48890081 -0.20824844 0.022267329
0.48919341 -0.20728934 0.022255
0.49040174 -0.20650163 0.022645624
0.49160948 -0.20571597 0.023036262
0.49190143 -0.20475893 0.023023957
0.49310821 -0.20397638 0.023414649
0.49431443 -0.2031959 0.023805369
0.49551997 -0.20241749 0.024196085
0.49581096 -0.20146357 0.024183821
0.49701554 -0.20068823 0.024574606
0.49730623 -0.19973533 0.024562355
0.49850985 -0.19896311 0.024953164
0.49971291 -0.19819298 0.025344031
0.50000298 -0.19724214 0.025331806
0.50029302 -0.19629131 0.025319582
0.50149477 -0.19552529 0.025710473
0.5017845 -0.19457549 0.025698261
0.5029853 -0.19381256 0.026089191
0.50327474 -0.19286381 0.026076993
0.50447458 -0.192104 0.026467977
0.50476366 -0.19115625 0.026455794
0.50596261 -0.19039953 0.026846802
0.50625139 -0.18945284 0.026834631
0.50654018 -0.18850614 0.026822461
0.50773787 -0.18775357 0.027213538
0.50802636 -0.1868079 0.027201381
0.50831485 -0.18586223 0.027189223
0.50951123 -0.18511379 0.027580339
0.51070696 -0.1843674 0.027971495
0.51099485 -0.1834238 0.027959364
0.51218963 -0.18268052 0.028350547
0.51247716 -0.18173796 0.028338429
0.51367104 -0.18099777 0.028729651
0.51486433 -0.18025967 0.029120928
0.5151512 -0.17931917 0.029108837
0.51634347 -0.17858417 0.029500125
0.51663005 -0.1776447 0.029488048
0.51691669 -0.17670523 0.02947597
0.51720327 -0.17576577 0.029463891
0.51839399 -0.17503592 0.029855248
0.51868021 -0.17409749 0.029843181
0.5189665 -0.17315905 0.029831117
0.51925278 -0.17222062 0.029819053
0.51953906 -0.17128219 0.029806988
0.51982534 -0.17034376 0.029794924
0.52011162 -0.16940531 0.029782858
0.5203979 -0.16846688 0.029770793
0.52068418 -0.16752845 0.029758729
0.52097046 -0.16659002 0.029746665
0.52125674 -0.16565157 0.0297346
0.52154297 -0.16471314 0.029722536
0.52182925 -0.16377471 0.02971047
0.52211553 -0.16283628 0.029698405
0.52240181 -0.16189784 0.029686341
0.52268809 -0.16095941 0.029674277
0.52387345 -0.16024713 0.030065857
0.52415937 -0.15930973 0.030053806
0.52444535 -0.15837233 0.030041754
0.52562952 -0.15766421 0.030433418
0.52591515 -0.15672785 0.03042138
0.5270983 -0.1560228 0.030813053
0.52738363 -0.15508747 0.030801028
0.52856582 -0.15438554 0.031192742
0.52885079 -0.15345123 0.03118073
0.53003204 -0.1527524 0.031572498
0.53031677 -0.15181912 0.031560499
0.53149706 -0.15112339 0.031952295
0.53178144 -0.15019116 0.031940307
0.53296083 -0.14949854 0.032332156
0.53324491 -0.14856733 0.032320186
0.53442335 -0.1478778 0.032712072
0.53560108 -0.14719033 0.033103958
0.53588456 -0.1462612 0.033092014
0.53706139 -0.14557683 0.033483967
0.53823763 -0.14489456 0.03387595
0.53852046 -0.14396748 0.033864029
0.53969568 -0.14328828 0.034256037
0.53997821 -0.14236225 0.034244131
0.54115248 -0.14168616 0.034636192
0.54143465 -0.14076115 0.034624297
0.54171687 -0.13983615 0.034612406
0.54199904 -0.13891116 0.034600515
0.54228121 -0.13798615 0.034588624
0.54256338 -0.13706116 0.034576733
0.54284555 -0.13613616 0.034564838
0.54312772 -0.13521115 0.034552947
0.54340988 -0.13428617 0.034541056
0.54369205 -0.13336116 0.034529164
0.54397428 -0.13243617 0.03451727
0.54425645 -0.13151117 0.034505378
0.54453862 -0.13058616 0.034493487
0.54393309 -0.12939781 0.034077458
0.54421556 -0.12847178 0.034065552
0.54361093 -0.12728031 0.033649497
0.54300696 -0.12608676 0.0332334
0.54240358 -0.12489115 0.032817274
0.54268706 -0.12396202 0.032805331
0.54297048 -0.12303289 0.032793384
0.54236841 -0.12183315 0.032377239
0.54176694 -0.12063135 0.031961035
0.54205102 -0.11970015 0.031949062
0.54145044 -0.11849523 0.03153282
0.54173481 -0.11756299 0.031520836
0.54201925 -0.11663076 0.031508852
0.54230362 -0.11569853 0.031496864
0.542588 -0.1147663 0.03148488
0.54287237 -0.11383406 0.031472895
0.54227406 -0.11262193 0.031056574
0.54255879 -0.11168866 0.031044576
0.54284346 -0.11075539 0.031032577
0.54312819 -0.10982212 0.03102058
0.54341286 -0.10888886 0.031008581
0.5436976 -0.1079556 0.030996583
0.54398227 -0.10702232 0.030984584
0.544267 -0.10608906 0.030972587
0.54455167 -0.1051558 0.030960588
0.54483634 -0.10422253 0.03094859
0.54512107 -0.10328926 0.030936591
0.54540575 -0.10235599 0.030924594
0.54569048 -0.10142273 0.030912595
0.54597515 -0.10048946 0.030900598
0.54625988 -0.099556193 0.030888598
0.54654455 -0.098622926 0.030876601
0.54682928 -0.097689658 0.030864602
0.54711396 -0.096756391 0.030852605
0.54739863 -0.095823124 0.030840605
0.54768336 -0.094889857 0.030828608
0.54796803 -0.09395659 0.030816609
0.54825276 -0.09302333 0.030804612
0.54853743 -0.092090063 0.030792613
0.54882216 -0.091156796 0.030780615
0.54910684 -0.090223528 0.030768616
0.54851675 -0.088984519 0.030351935
0.54792726 -0.087743446 0.029935243
0.54733843 -0.086500302 0.029518522
0.48320669 -0.22145166 0.020661062
0.48442021 -0.22064629 0.021052511
0.48471311 -0.21968615 0.021040168
0.485006 -0.21872601 0.021027824
0.4852989 -0.21776587 0.02101548
0.48651078 -0.21696565 0.021406982
0.48680335 -0.21600655 0.021394651
0.48709595 -0.21504745 0.021382321
0.48830655 -0.21425137 0.021773877
0.48859882 -0.2132933 0.021761559
0.48889109 -0.21233523 0.021749241
0.48918337 -0.21137716 0.021736924
0.48947561 -0.21041909 0.021724608
0.48976788 -0.20946102 0.02171229
0.49006015 -0.20850295 0.021699972
0.49035242 -0.20754488 0.021687657
0.49156019 -0.2067581 0.02207933
0.49276736 -0.20597339 0.022471046
0.49397394 -0.20519075 0.022862788
0.49517983 -0.20441018 0.023254527
0.4963851 -0.20363167 0.023646308
0.49667576 -0.20267875 0.023634057
0.4978801 -0.20190336 0.024025878
0.49817047 -0.20095147 0.02401364
0.49846083 -0.1999996 0.024001403
0.49966395 -0.19922836 0.024393305
0.50086635 -0.19845915 0.024785206
0.50115609 -0.19750933 0.024772994
0.50144583 -0.19655953 0.024760785
0.50264704 -0.19579446 0.025152737
0.50293642 -0.19484569 0.025140541
0.50413668 -0.19408372 0.025532519
0.50442576 -0.19313599 0.025520334
0.50471491 -0.19218825 0.02550815
0.50500399 -0.19124052 0.025495965
0.50620264 -0.1904837 0.025888026
0.50649142 -0.189537 0.025875855
0.50678021 -0.1885903 0.025863683
0.50797766 -0.18783765 0.026255826
0.50826615 -0.18689197 0.026243668
0.50855464 -0.1859463 0.026231511
0.50975072 -0.18519777 0.026623676
0.51094621 -0.1844513 0.027015869
0.5112341 -0.1835077 0.027003737
0.51242864 -0.18276432 0.027395969
0.51271617 -0.18182175 0.027383851
0.51390976 -0.18108149 0.027776124
0.5151028 -0.1803433 0.028168438
0.51538968 -0.1794028 0.028156346
0.51658171 -0.17866769 0.028548686
0.51686829 -0.17772822 0.028536607
0.51715487 -0.17678876 0.028524529
0.51744145 -0.17584929 0.028512452
0.51863194 -0.17511936 0.028904857
0.51891822 -0.17418092 0.028892791
0.51920444 -0.17324249 0.028880727
0.51949072 -0.17230405 0.028868662
0.519777 -0.17136562 0.028856598
0.52006328 -0.17042719 0.028844533
0.52034956 -0.16948876 0.028832467
0.52063584 -0.16855031 0.028820403
0.52092212 -0.16761188 0.028808339
0.52120841 -0.16667345 0.028796274
0.52149469 -0.16573502 0.02878421
0.52178097 -0.16479658 0.028772146
0.52206719 -0.16385815 0.028760079
0.52235347 -0.16291972 0.028748015
0.52263975 -0.16198128 0.028735951
0.52292603 -0.16104284 0.028723886
0.52411109 -0.16033047 0.029116517
0.52439708 -0.15939307 0.029104466
0.52468306 -0.15845567 0.029092414
0.52586693 -0.15774746 0.029485114
0.52615255 -0.1568111 0.029473076
0.52733546 -0.15610597 0.029865799
0.52762079 -0.15517063 0.029853774
0.52880269 -0.1544686 0.030246537
0.52908772 -0.15353429 0.030234527
0.53026867 -0.15283537 0.030627344
0.5305534 -0.15190211 0.030615347
0.53173345 -0.15120627 0.031008175
0.53201783 -0.15027404 0.03099619
0.53319699 -0.14958133 0.031389087
0.53348106 -0.14865012 0.031377118
0.53465915 -0.1479605 0.031770054
0.5358367 -0.14727294 0.03216299
0.53612012 -0.14634381 0.032151043
0.53729671 -0.14565934 0.03254405
0.53847271 -0.14497697 0.03293708
0.539648 -0.14429665 0.033330109
0.53993052 -0.14337061 0.033318203
0.54110485 -0.14269339 0.033711299
0.54138702 -0.1417684 0.033699408
0.54166919 -0.14084339 0.033687517
0.54195142 -0.13991839 0.033675626
0.54223359 -0.1389934 0.033663731
0.54251575 -0.13806839 0.03365184
0.54279792 -0.13714339 0.033639949
0.54308009 -0.1362184 0.033628058
0.54336226 -0.13529339 0.033616167
0.54364443 -0.1343684 0.033604272
0.5439266 -0.1334434 0.033592381
0.54420882 -0.13251841 0.033580489
0.54449099 -0.13159341 0.033568598
0.54477316 -0.1306684 0.033556707
0.54505533 -0.12974341 0.033544812
0.54445034 -0.12855411 0.033127721
0.54384601 -0.12736273 0.032710627
0.54412884 -0.12643565 0.03269871
0.5435254 -0.12524116 0.032281548
0.54380852 -0.12431307 0.032269616
0.54320604 -0.12311549 0.031852417
0.54260427 -0.12191585 0.031435221
0.54288799 -0.12098569 0.031423263
0.54228711 -0.11978294 0.031005995
0.54257119 -0.11885174 0.030994024
0.54197121 -0.11764588 0.030576717
0.54225558 -0.11671365 0.030564731
0.54254001 -0.11578141 0.030552747
0.54282439 -0.11484918 0.030540762
0.54310876 -0.11391695 0.030528776
0.54339314 -0.11298472 0.030516792
0.54367751 -0.11205248 0.030504808
0.54396188 -0.11112025 0.030492822
0.54424626 -0.11018801 0.030480837
0.54453069 -0.10925578 0.030468851
0.54481506 -0.10832355 0.030456867
0.54509944 -0.10739132 0.030444883
0.54538381 -0.10645908 0.030432897
0.54566818 -0.10552685 0.030420912
0.54595256 -0.10459462 0.030408928
0.54623699 -0.10366239 0.030396942
0.54652137 -0.10273015 0.030384958
0.54680574 -0.10179792 0.030372972
0.54621178 -0.10057243 0.029955443
0.54649651 -0.09963917 0.029943444
0.54678118 -0.098705903 0.029931447
0.54706591 -0.097772636 0.029919447
0.54735059 -0.096839368 0.02990745
0.54763532 -0.095906101 0.029895451
0.54791999 -0.094972834 0.029883454
0.54820466 -0.094039567 0.029871454
0.54848939 -0.0931063 0.029859457
0.54877406 -0.092173032 0.029847458
0.54905879 -0.091239773 0.029835461
0.54934347 -0.090306506 0.029823462
0.54875362 -0.089067586 0.02940573
0.54903865 -0.088133283 0.02939372
0.54844975 -0.086891271 0.028975962
0.48407787 -0.22265193 0.020104827
0.48437077 -0.22169179 0.020092484
0.48466367 -0.22073165 0.02008014
0.48587623 -0.21992825 0.020472651
0.4861688 -0.21896914 0.020460321
0.4864614 -0.21801002 0.020447992
0.48767269 -0.21721077 0.020840555
0.48796496 -0.2162527 0.02082824
0.48825723 -0.21529461 0.020815922
0.48946726 -0.21449947 0.02120854
0.48975921 -0.21354245 0.021196235
0.49005115 -0.2125854 0.021183932
0.49034312 -0.21162836 0.021171628
0.49063507 -0.21067134 0.021159325
0.49092701 -0.20971429 0.02114702
0.49121895 -0.20875725 0.021134717
0.49242648 -0.20797038 0.021527441
0.49363342 -0.2071856 0.021920208
0.4948397 -0.20640287 0.022312971
0.49604532 -0.2056222 0.022705775
0.49725032 -0.2048436 0.023098605
0.49754068 -0.20389171 0.023086367
0.49874482 -0.20311624 0.023479253
0.49903485 -0.2021654 0.023467029
0.49932492 -0.20121457 0.023454806
0.49961498 -0.20026372 0.023442581
0.50081748 -0.19949339 0.023835517
0.50201929 -0.19872512 0.024228467
0.50230873 -0.19777635 0.02421627
0.50259817 -0.19682758 0.024204072
0.50379872 -0.19606346 0.024597075
0.50408787 -0.19511572 0.024584889
0.50437695 -0.19416799 0.024572706
0.50557631 -0.19340798 0.024965776
0.5058651 -0.19246128 0.024953604
0.50524431 -0.19132477 0.024536153
0.50644267 -0.19056787 0.024929263
0.50673145 -0.18962118 0.024917092
0.50702029 -0.18867448 0.02490492
0.50821745 -0.18792172 0.025298098
0.50850594 -0.18697605 0.025285941
0.50879443 -0.18603037 0.025273783
0.50999027 -0.18528175 0.025666999
0.51118547 -0.18453519 0.026060242
0.51147336 -0.18359159 0.026048111
0.5126676 -0.18284813 0.026441393
0.5138613 -0.18210673 0.026834702
0.51505435 -0.18136741 0.027228039
0.51534128 -0.18042691 0.027215946
0.51653332 -0.17969069 0.027609322
0.51681989 -0.17875122 0.027597245
0.51710653 -0.17781176 0.027585166
0.51739311 -0.17687228 0.027573088
0.51767969 -0.17593282 0.027561011
0.51886988 -0.17520279 0.027954465
0.51915616 -0.17426436 0.0279424
0.51944244 -0.17332593 0.027930336
0.51972866 -0.1723875 0.027918272
0.52001494 -0.17144905 0.027906207
0.52030122 -0.17051062 0.027894143
0.5205875 -0.16957219 0.027882077
0.52087379 -0.16863376 0.027870012
0.52116007 -0.16769531 0.027857948
0.52144635 -0.16675688 0.027845884
0.52173263 -0.16581845 0.027833819
0.52201891 -0.16488002 0.027821755
0.52230519 -0.16394158 0.027809689
0.52259141 -0.16300315 0.027797624
0.52287769 -0.16206472 0.02778556
0.52316397 -0.16112629 0.027773496
0.5243488 -0.16041382 0.028167177
0.52463478 -0.15947641 0.028155126
0.5249207 -0.15853901 0.028143074
0.52610433 -0.15783072 0.028536823
0.52638996 -0.15689434 0.028524784
0.52757257 -0.15618913 0.028918544
0.52785796 -0.15525378 0.02890652
0.52903962 -0.15455167 0.029300334
0.52932459 -0.15361737 0.029288322
0.53050536 -0.15291834 0.029682176
0.53079003 -0.15198508 0.029670177
0.53196979 -0.15128915 0.030064071
0.53225422 -0.15035692 0.030052086
0.53343308 -0.14966412 0.030446036
0.53371716 -0.14873292 0.030434063
0.534895 -0.1480432 0.030828036
0.53607231 -0.14735554 0.031222023
0.53635573 -0.14642641 0.031210078
0.53753203 -0.14574187 0.031604119
0.53870773 -0.14505939 0.031998198
0.53988284 -0.14437898 0.032392289
0.54105723 -0.14370063 0.03278641
0.5413394 -0.14277562 0.032774519
0.54162157 -0.14185062 0.032762628
0.54190373 -0.14092563 0.032750733
0.5421859 -0.14000063 0.032738842
0.54246813 -0.13907564 0.032726951
0.5427503 -0.13815063 0.03271506
0.54303247 -0.13722563 0.032703169
0.54331464 -0.13630064 0.032691274
0.5435968 -0.13537563 0.032679383
0.54476774 -0.13470866 0.033073634
0.54504961 -0.1337847 0.033061758
0.54533148 -0.13286072 0.033049878
0.54561335 -0.13193676 0.033037998
0.54589522 -0.1310128 0.033026122
0.54528987 -0.12982565 0.032608032
0.54468518 -0.12863643 0.032189902
0.54496765 -0.1277104 0.032177996
0.54436392 -0.12651809 0.031759828
0.54376072 -0.12532368 0.031341616
0.54404384 -0.12439559 0.031329684
0.54344165 -0.1231981 0.030911449
0.54372507 -0.12226897 0.030899504
0.54312384 -0.12106838 0.030481244
0.54340762 -0.12013821 0.030469285
0.54369134 -0.11920805 0.030457327
0.54309136 -0.11800333 0.030038998
0.54337543 -0.11707213 0.030027026
0.54365951 -0.11614093 0.030015055
0.54394358 -0.11520973 0.030003084
0.54334515 -0.11399983 0.029584672
0.54362953 -0.1130676 0.029572688
0.5439139 -0.11213537 0.029560704
0.54419827 -0.11120313 0.029548718
0.54448265 -0.1102709 0.029536733
0.54476702 -0.10933866 0.029524747
0.5450514 -0.10840643 0.029512763
0.54533583 -0.1074742 0.029500779
0.5456202 -0.10654197 0.029488793
0.54590458 -0.10560973 0.029476808
0.54618895 -0.1046775 0.029464824
0.54647332 -0.10374527 0.029452838
0.5467577 -0.10281304 0.029440854
0.54704213 -0.1018808 0.029428868
0.54732651 -0.10094856 0.029416883
0.54761088 -0.10001633 0.029404899
0.54789525 -0.099084102 0.029392913
0.54817963 -0.098151863 0.029380929
0.548464 -0.097219631 0.029368944
0.54874843 -0.0962874 0.029356958
0.54903281 -0.095355168 0.029344974
0.54931718 -0.094422936 0.029332988
0.54872602 -0.093189277 0.028914288
0.54901069 -0.09225601 0.02890229
0.54929543 -0.091322742 0.028890291
0.5495801 -0.090389475 0.028878294
0.54899055 -0.089150652 0.028459527
0.54927558 -0.088216349 0.028447514
0.54868692 -0.086974427 0.028028708
0.48373553 -0.22465757 0.019157143
0.48402843 -0.22369742 0.0191448
0.48432133 -0.2227373 0.019132456
0.48553425 -0.22193173 0.019525992
0.48582685 -0.22097261 0.019513661
0.48703882 -0.22017016 0.019907221
0.48733109 -0.21921209 0.019894905
0.48762336 -0.21825401 0.019882588
0.48883408 -0.21745569 0.020276217
0.48912603 -0.21649864 0.020263912
0.48941797 -0.2155416 0.020251608
0.49062744 -0.21474741 0.020645289
0.49091908 -0.2137914 0.020632999
0.49121073 -0.2128354 0.020620709
0.49150234 -0.21187939 0.020608418
0.49179399 -0.21092339 0.020596128
0.49208561 -0.20996739 0.020583836
0.49329293 -0.20918044 0.020977626
0.49449956 -0.20839556 0.021371398
0.49570557 -0.20761272 0.021765226
0.49691093 -0.20683196 0.022159081
0.49720129 -0.20588008 0.022146843
0.49840578 -0.20510244 0.022540739
0.49869585 -0.2041516 0.022528514
0.49989933 -0.20337704 0.022922447
0.50018907 -0.20242724 0.022910237
0.5004788 -0.20147744 0.022898026
0.49985608 -0.20034826 0.022479618
0.50105828 -0.19957784 0.022873605
0.50225985 -0.19880947 0.023267617
0.50254929 -0.1978607 0.023255421
0.50283873 -0.19691193 0.023243222
0.50403905 -0.19614771 0.023637276
0.50432813 -0.19519998 0.023625091
0.50461727 -0.19425224 0.023612907
0.50581634 -0.19349214 0.024007013
0.50610512 -0.19254544 0.023994841
0.50639391 -0.19159874 0.02398267
0.50668275 -0.19065204 0.0239705
0.50697154 -0.18970534 0.023958329
0.50726032 -0.18875864 0.023946159
0.50845724 -0.18800579 0.024340386
0.50874573 -0.18706013 0.024328228
0.50903422 -0.18611446 0.024316071
0.51022977 -0.18536574 0.024710337
0.51142478 -0.18461908 0.025104614
0.51171261 -0.18367548 0.025092484
0.51290661 -0.18293193 0.025486816
0.51410002 -0.18219043 0.025881175
0.51529282 -0.18145104 0.026275562
0.5155797 -0.18051054 0.02626347
0.51677155 -0.17977421 0.026657881
0.51705813 -0.17883475 0.026645804
0.51734471 -0.17789528 0.026633726
0.51763129 -0.1769558 0.026621647
0.51791787 -0.17601635 0.02660957
0.51910782 -0.17528622 0.027004074
0.5193941 -0.17434779 0.02699201
0.51968038 -0.17340936 0.026979946
0.51996666 -0.17247093 0.026967881
0.52025288 -0.17153248 0.026955817
0.52053916 -0.17059405 0.026943753
0.52082545 -0.16965562 0.026931686
0.52111173 -0.16871719 0.026919622
0.52139801 -0.16777875 0.026907558
0.52168429 -0.16684031 0.026895493
0.52197057 -0.16590188 0.026883429
0.52225685 -0.16496345 0.026871365
0.52254313 -0.16402501 0.026859298
0.52282941 -0.16308658 0.026847234
0.52311563 -0.16214815 0.02683517
0.52340192 -0.16120972 0.026823105
0.5245865 -0.16049716 0.027217837
0.52487242 -0.15955976 0.027205784
0.52515841 -0.15862235 0.027193733
0.52634174 -0.15791395 0.027588533
0.52662742 -0.15697759 0.027576495
0.52780974 -0.15627228 0.027971305
0.52809507 -0.15533695 0.02795928
0.52927649 -0.15463473 0.028354129
0.52956152 -0.15370043 0.028342118
0.53074199 -0.15300132 0.028737022
0.53102666 -0.15206805 0.028725024
0.53220618 -0.15137205 0.029119954
