# .PCD v0.7 - Point Cloud Data file format
VERSION 0.7
FIELDS x y z
SIZE 4 4 4
TYPE F F F
COUNT 1 1 1
WIDTH 1372
HEIGHT 1
VIEWPOINT 0 0 0 1 0 0 0
POINTS 1372
DATA ascii
0.43336657 0.040844169 0.038987186
0.43356779 0.039691489 0.03846826
0.43320721 0.03923431 0.038449954
0.43284664 0.038777135 0.038431644
0.43304518 0.037621066 0.037912581
0.43268394 0.037163049 0.037894238
0.43288052 0.036004405 0.037375048
0.43307576 0.034844104 0.036855817
0.43271315 0.034384385 0.03683741
0.43290639 0.033221554 0.036318079
0.43254313 0.032760989 0.036299635
0.43217987 0.032300428 0.036281191
0.43237042 0.031134205 0.035761721
0.43200651 0.030672798 0.035743244
0.43219504 0.029504029 0.035223674
0.43183047 0.029041769 0.035205163
0.43146586 0.028579514 0.035186652
0.43110126 0.02811726 0.035168141
0.43128651 0.026944228 0.034648374
0.43092126 0.026481131 0.034629829
0.430556 0.026018023 0.034611285
0.43019074 0.025554929 0.03459274
0.42982548 0.025091821 0.034574192
0.43000668 0.023913739 0.034054246
0.42964074 0.02344979 0.034035668
0.42927483 0.022985851 0.03401709
0.42945337 0.021804379 0.033497009
0.42908677 0.021339588 0.033478398
0.42872018 0.020874785 0.033459786
0.42889604 0.019689934 0.032939572
0.42852876 0.019224292 0.032920923
0.4281615 0.018758658 0.032902278
0.42833468 0.017570419 0.032381922
0.42796674 0.017103923 0.032363243
0.42759883 0.016637437 0.032344561
0.42776939 0.015445775 0.031824052
0.4274008 0.014978448 0.031805336
0.4270322 0.014511109 0.031786621
0.42720005 0.013316101 0.031266
0.42683077 0.012847922 0.031247253
0.42699662 0.011650365 0.030726533
0.42662668 0.011181332 0.03070775
0.42625675 0.010712311 0.030688968
0.42588681 0.010243277 0.030670185
0.42604932 0.0090414919 0.030149288
0.4256787 0.0085716164 0.030130472
0.42583925 0.0073672612 0.029609453
0.42652884 0.0054259431 0.028586177
0.42615625 0.004953532 0.028567258
0.42684183 0.0030071286 0.027543781
0.42699638 0.0017951535 0.027022453
0.42820504 -0.00089585601 0.025496395
0.42993686 -0.0043315114 0.023467716
0.4316633 -0.0077739367 0.021438774
0.43338445 -0.011223128 0.019409556
0.4361504 -0.016163247 0.0163751
0.43733507 -0.018884769 0.01484779
0.43851572 -0.021611331 0.013320301
0.4386462 -0.022853788 0.012797756
0.43877533 -0.02409791 0.012275171
0.43890309 -0.025343725 0.011752516
0.43850848 -0.025844069 0.01173248
0.43863425 -0.02709242 0.011209719
0.43875873 -0.028342498 0.010686868
0.43888181 -0.029594239 0.010163975
0.43900359 -0.030847672 0.0096410112
0.43912402 -0.03210279 0.0091179833
0.43872604 -0.03260738 0.0090977764
0.43884447 -0.033865046 0.0085746469
0.43896163 -0.035124429 0.0080514234
0.43959245 -0.037140258 0.0070251659
0.43919182 -0.037648223 0.0070048245
0.43879116 -0.0381562 0.0069844821
0.43890357 -0.039421473 0.0064610471
0.4390147 -0.040688489 0.0059375153
0.43912446 -0.041957151 0.0054139448
0.43872181 -0.042467665 0.0053935009
0.45520532 0.057679042 0.035339266
0.45484006 0.05721594 0.035320722
0.45447481 0.056752846 0.035302177
0.45351797 0.056946874 0.035783723
0.45315337 0.056484621 0.035765212
0.4527888 0.056022365 0.035746701
0.45183468 0.056219749 0.036228359
0.45147076 0.055758342 0.036209885
0.45051864 0.055958264 0.036691643
0.45015541 0.055497702 0.036673199
0.44920528 0.055700161 0.037155058
0.44825652 0.055904318 0.037636988
0.44730905 0.056110203 0.038119011
0.44636294 0.056317743 0.038601078
0.44600236 0.055860568 0.038582772
0.44505829 0.056070652 0.039064936
0.44469836 0.055614322 0.039046664
0.44375628 0.055826947 0.039528932
0.44339702 0.055371467 0.039510693
0.44303778 0.054915987 0.039492454
0.44209832 0.055132028 0.039974883
0.44173974 0.054677393 0.039956678
0.44138116 0.054222759 0.039938468
0.44102257 0.053768124 0.039920263
0.44066399 0.053313486 0.039902057
0.44030541 0.052858852 0.039883852
0.43994683 0.052404217 0.039865647
0.43958825 0.051949587 0.039847441
0.43922967 0.051494952 0.039829236
0.43887109 0.05104031 0.039811026
0.43908602 0.049905688 0.039291814
0.43815392 0.050131045 0.039774615
0.43779534 0.049676411 0.03975641
0.43800828 0.048539244 0.039237093
0.43764904 0.048083764 0.039218854
0.43728977 0.04762828 0.039200611
0.43693054 0.0471728 0.039182372
0.4365713 0.04671732 0.039164133
0.43621203 0.04626184 0.039145894
0.4358528 0.045806356 0.039127652
0.43549353 0.045350876 0.039109413
0.43513429 0.044895388 0.039091174
0.43477502 0.044439908 0.039072935
0.43441579 0.043984428 0.039054692
0.43405655 0.043528944 0.039036453
0.43369728 0.043073464 0.039018214
0.43333805 0.042617984 0.038999975
0.43297878 0.0421625 0.038981732
0.43261954 0.04170702 0.038963493
0.43282109 0.040555492 0.038443625
0.43246117 0.040099166 0.038425352
0.43210128 0.039642841 0.03840708
0.43230015 0.03848793 0.037887074
0.43193957 0.038030755 0.037868768
0.43213645 0.036873303 0.037348658
0.43233204 0.035714127 0.036828462
0.43197012 0.035255257 0.036810085
0.4316082 0.034796387 0.036791708
0.43124628 0.034337521 0.036773335
0.43088436 0.033878651 0.036754958
0.43052244 0.033419788 0.036736585
0.4307133 0.032254715 0.036216173
0.43090284 0.031087955 0.035695698
0.43053958 0.030627396 0.035677258
0.43017635 0.030166836 0.035658814
0.42981309 0.029706277 0.03564037
0.42999926 0.028535271 0.035119724
0.43018413 0.027362583 0.034599006
0.42981955 0.026900329 0.034580495
0.42945495 0.026438074 0.034561984
0.42909035 0.02597582 0.034543473
0.42872578 0.025513565 0.034524962
0.42890668 0.024335761 0.034004018
0.42854142 0.023872664 0.033985473
0.42872027 0.022692356 0.033464454
0.42835432 0.022228407 0.033445876
0.42798841 0.021764457 0.033427294
0.4281646 0.020580759 0.032906141
0.427798 0.02011597 0.032887526
0.4274314 0.019651167 0.032868914
0.42760491 0.01846409 0.032347623
0.42723766 0.017998448 0.032328974
0.42687038 0.017532803 0.032310329
0.42704123 0.016342338 0.0317889
0.42667329 0.015875854 0.031770218
0.42630535 0.015409368 0.031751536
0.42647356 0.014215469 0.031229949
0.42610496 0.013748142 0.031211235
0.42573637 0.013280803 0.031192521
0.42590186 0.012083559 0.030670822
0.42553261 0.011615379 0.030652072
0.42516333 0.011147199 0.030633325
0.42532617 0.0099465763 0.030111495
0.42495623 0.0094775427 0.030092712
0.42511705 0.0082743727 0.029570777
0.42527658 0.0070694867 0.029048748
0.42543474 0.0058629271 0.028526677
0.42612031 0.0039179991 0.027501283
0.42627513 0.0027072085 0.026979042
0.42695606 0.00075632345 0.025953382
0.42921457 -0.0034156167 0.023417525
0.4314664 -0.0075960178 0.020881325
0.43318617 -0.011043965 0.018848211
0.4364748 -0.016723976 0.015304449
0.43765777 -0.019445417 0.013774182
0.43883675 -0.022171933 0.01224371
0.43896618 -0.023414889 0.011720185
0.43909431 -0.024659539 0.011196585
0.43922105 -0.025905883 0.010672921
0.43882576 -0.026407082 0.01065285
0.43895057 -0.027656008 0.010129059
0.43907398 -0.028906584 0.0096052242
0.43919608 -0.030158855 0.0090813227
0.43931684 -0.031412821 0.0085573532
0.43943626 -0.032668479 0.0080333157
0.43903762 -0.033173911 0.0080130752
0.43915507 -0.03443215 0.0074889106
0.43927115 -0.035692044 0.0069647068
0.43938589 -0.036953628 0.0064404318
0.43898526 -0.037461594 0.0064200903
0.439098 -0.038725715 0.0058957106
0.43920946 -0.039991576 0.0053712404
0.45538226 0.058312289 0.034824725
0.455017 0.057849187 0.034806181
0.45465174 0.057386085 0.034787636
0.45428649 0.056922987 0.034769092
0.45392123 0.056459885 0.034750547
0.45355597 0.055996787 0.034732003
0.45260084 0.056192197 0.035214592
0.45164707 0.056389268 0.035697225
0.45128316 0.055927861 0.035678748
0.45033139 0.056127474 0.036161482
0.44996813 0.055666912 0.036143042
0.44901836 0.055869058 0.036625873
0.44865578 0.055409346 0.036607463
0.44770801 0.055614036 0.037090402
0.44676155 0.055820458 0.037573434
0.44581649 0.056028534 0.038056508
0.44487274 0.056238305 0.038539648
0.44451281 0.055781979 0.038521376
0.44357106 0.055994291 0.039004616
0.44321182 0.055538811 0.038986377
0.44285256 0.055083331 0.038968138
0.44191346 0.055299059 0.039451543
0.44155487 0.054844428 0.039433338
0.4406178 0.055062667 0.039916817
0.44025987 0.054608874 0.039898645
0.43990198 0.054155089 0.039880473
0.43954405 0.0537013 0.039862301
0.43918616 0.053247508 0.039844129
0.43882823 0.052793723 0.039825957
0.4384703 0.052339934 0.039807785
0.43811241 0.051886145 0.039789613
0.43832764 0.050752711 0.039269481
0.43739659 0.050978571 0.039753269
0.43703866 0.050524779 0.039735097
0.4372519 0.049388807 0.039214864
0.43689331 0.048934169 0.039196659
0.43653473 0.048479535 0.03917845
0.43617615 0.0480249 0.039160244
0.43581757 0.04757027 0.039142039
0.43545899 0.047115635 0.039123833
0.43510041 0.046660993 0.039105628
0.43474182 0.046206359 0.039087422
0.43438324 0.045751728 0.039069217
0.43402466 0.045297094 0.039051007
0.43366608 0.044842459 0.039032802
0.4333075 0.044387821 0.039014596
0.43294892 0.043933187 0.038996391
0.43259034 0.043478552 0.038978186
0.43223175 0.043023918 0.03895998
0.43187317 0.042569283 0.038941771
0.43207508 0.041418884 0.038420938
0.43171585 0.0409634 0.038402699
0.43135658 0.04050792 0.03838446
0.43155581 0.039354168 0.037863515
0.43119588 0.038897838 0.037845239
0.43083596 0.038441513 0.037826966
0.43103251 0.037284367 0.037305892
0.43067193 0.036827192 0.037287582
0.43031132 0.036370017 0.037269276
0.42995074 0.035912845 0.037250966
0.42959017 0.03545567 0.03723266
0.42978269 0.03429345 0.036711376
0.42942145 0.033835426 0.036693033
0.42906019 0.033377409 0.036674693
0.42869893 0.032919385 0.03665635
0.42888817 0.031752903 0.036134873
0.42907602 0.030584756 0.035613351
0.42926255 0.029414915 0.035091765
0.42944774 0.028243391 0.034570109
0.42908382 0.027781978 0.034551632
0.42871991 0.027320577 0.034533154
0.42835596 0.026859164 0.034514677
0.42799205 0.026397752 0.034496199
0.42817321 0.025221143 0.033974342
0.42780864 0.024758888 0.033955831
0.42744404 0.024296634 0.03393732
0.42762259 0.023116603 0.033415299
0.42725733 0.022653496 0.033396754
0.42743382 0.021470962 0.032874655
0.42706791 0.021007014 0.032856077
0.42670199 0.020543065 0.032837499
0.4268758 0.019357141 0.032315265
0.42650923 0.018892352 0.032296654
0.42614263 0.018427549 0.032278039
0.42631379 0.017238248 0.031755671
0.42594653 0.016772604 0.031737026
0.42557925 0.016306961 0.031718377
0.42574775 0.015114258 0.031195873
0.42537981 0.014647773 0.031177193
0.4250119 0.014181287 0.031158512
0.42517775 0.012985174 0.030635851
0.42480916 0.012517835 0.030617137
0.42444056 0.012050496 0.030598423
0.4246037 0.010851027 0.030075647
0.42423445 0.010382847 0.030056898
0.42439559 0.0091808401 0.029534025
0.42455539 0.007977128 0.02901108
0.4241848 0.0075072534 0.028992264
0.42434266 0.006300984 0.028469192
0.42502686 0.0043558255 0.027441815
0.42570841 0.0024072896 0.026414301
0.42849299 -0.0025003434 0.023369281
0.4312695 -0.0074180993 0.020323876
0.43351296 -0.011605407 0.017782465
0.43679854 -0.017284127 0.014231824
0.43850353 -0.020747732 0.012194156
0.43915707 -0.022731869 0.011165196
0.43876308 -0.023231372 0.011145193
0.43889084 -0.02447571 0.010620622
0.43901727 -0.025721744 0.010095982
0.43914241 -0.026969505 0.0095712487
0.43926615 -0.028218929 0.0090464735
0.43938857 -0.029470047 0.0085216304
0.43950966 -0.030722849 0.0079967231
0.43962941 -0.031977355 0.007471744
0.43923074 -0.032482784 0.007451504
0.43934852 -0.033739861 0.0069263978
0.43894923 -0.034246147 0.0069061234
0.43906495 -0.035505727 0.0063809445
0.43866497 -0.036012851 0.0063606366
0.43929243 -0.038029958 0.0053303773
0.45555922 0.058945533 0.034310188
0.45519397 0.058482431 0.03429164
0.45482871 0.058019329 0.034273095
0.45446345 0.057556227 0.034254551
0.45409819 0.057093132 0.034236006
0.45314205 0.057286538 0.034719504
0.45336768 0.056166928 0.034198917
0.45241287 0.056362029 0.034682482
0.45145947 0.056558792 0.035166092
0.45109552 0.056097385 0.035147615
0.45014411 0.05629668 0.035631325
0.44978085 0.055836122 0.035612881
0.44883144 0.056037959 0.036096685
0.44846886 0.055578247 0.036078278
0.44752145 0.055782624 0.036562189
0.44657531 0.055988733 0.037046198
0.44563058 0.0561965 0.037530243
0.44468719 0.056405962 0.03801436
0.44432727 0.055949632 0.037996087
0.44338587 0.056161635 0.038480308
0.4430266 0.055706155 0.038462065
0.44266737 0.055250671 0.038443826
0.44172859 0.055466089 0.038928207
0.44079119 0.055683173 0.039412625
0.44043329 0.055229388 0.039394453
0.44007537 0.054775596 0.039376281
0.43914065 0.054996066 0.039860837
0.43878341 0.054543119 0.039842702
0.43842617 0.05409018 0.039824564
0.4380689 0.053637236 0.039806426
0.43771166 0.053184297 0.039788287
0.43735442 0.052731354 0.039770149
0.43756998 0.051599078 0.039249077
0.43663993 0.051825475 0.039733872
0.43628266 0.051372528 0.039715733
0.43649623 0.050237712 0.039194558
0.43613833 0.049783926 0.039176386
0.43578041 0.049330134 0.039158214
0.43542248 0.048876349 0.039140042
0.43506458 0.04842256 0.03912187
0.43470666 0.047968775 0.039103698
0.43434876 0.047514983 0.039085526
0.43399084 0.047061197 0.039067354
0.43363291 0.046607409 0.039049182
0.43327501 0.046153616 0.03903101
0.43291709 0.045699831 0.039012838
0.43255919 0.045246046 0.038994666
0.43220127 0.044792254 0.038976494
0.43184334 0.044338465 0.038958322
0.43148544 0.04388468 0.03894015
0.43112752 0.043430887 0.038921978
0.43132973 0.042281676 0.038400229
0.43097115 0.041827042 0.038382024
0.43061256 0.041372407 0.038363818
0.43081215 0.04021978 0.037841909
0.43045288 0.0397643 0.037823666
0.43009365 0.03930882 0.037805427
0.42973438 0.03885334 0.037787188
0.42937514 0.038397852 0.037768945
0.42957067 0.037240177 0.037246857
0.42921075 0.036783852 0.037228584
0.4282974 0.037031408 0.037714228
0.42793813 0.036575928 0.037695985
0.42813098 0.035414863 0.037173763
0.42777109 0.034958538 0.037155487
0.42686039 0.035209484 0.037641268
0.42760134 0.033337761 0.036614854
0.42724076 0.032880586 0.036596548
0.42688018 0.032423418 0.036578238
0.42761582 0.030544883 0.035551533
0.42780134 0.029374512 0.035028934
0.42743874 0.028914794 0.035010524
0.42762226 0.027741885 0.034487832
0.42671359 0.02799537 0.034973707
0.42689577 0.026820766 0.034450948
0.42653248 0.026360195 0.034432504
0.42671266 0.025183056 0.033909634
0.42689148 0.024004212 0.033386696
0.4265269 0.023541957 0.033368185
0.4261623 0.023079703 0.033349674
0.42633852 0.021897448 0.032826576
0.42597324 0.021434341 0.032808032
0.4261474 0.020249568 0.032284863
0.42578149 0.01978562 0.032266282
0.42541555 0.019321682 0.032247704
0.42558703 0.018133523 0.031724393
0.42522046 0.017668732 0.031705782
0.42485386 0.017203929 0.03168717
0.42502266 0.016012391 0.031163724
0.42465541 0.015546748 0.031145077
0.42428815 0.015081116 0.03112643
0.4244543 0.013886188 0.030602852
0.42408636 0.013419703 0.030584171
0.42371842 0.012953205 0.030565491
0.42388195 0.011754868 0.030041749
0.42351335 0.011287529 0.030023035
0.42367482 0.010086676 0.029499216
0.42383495 0.0088841273 0.028975334
0.42346501 0.0084151058 0.028956551
0.42362314 0.0072100093 0.028432567
0.42377996 0.0060031977 0.027908487
0.42446217 0.004056978 0.026879095
0.42514169 0.0021073695 0.025849562
0.43054721 -0.0065007396 0.020271765
0.43383905 -0.012166227 0.016714768
0.4365975 -0.017102476 0.01366268
0.43882453 -0.021306857 0.011115646
0.43947667 -0.023291182 0.010084732
0.43908203 -0.023791537 0.010064694
0.43920878 -0.025036408 0.0095391134
0.43933424 -0.026283015 0.0090134386
0.43945831 -0.027531276 0.0084877256
0.43958107 -0.02878123 0.0079619419
0.43970245 -0.03003289 0.0074360892
0.43982252 -0.031286232 0.0069101723
0.43942389 -0.031791661 0.0068899323
0.439542 -0.033047576 0.006363885
0.43914267 -0.033553857 0.0063436106
0.43925872 -0.034812286 0.0058174906
0.43937346 -0.036072396 0.0052912994
0.45573619 0.059578776 0.033795651
0.45537093 0.059115674 0.033777107
0.45500568 0.058652572 0.033758558
0.45464042 0.05818947 0.033740014
0.45427516 0.057726368 0.033721469
0.4539099 0.057263274 0.033702925
0.45295411 0.057456367 0.034187395
0.45258951 0.056994114 0.034168884
0.45222491 0.056531858 0.034150373
0.45186034 0.056069605 0.034131862
0.45090792 0.056266904 0.034616478
0.44995683 0.05646589 0.03510116
0.4495936 0.056005333 0.035082716
0.44864452 0.056206856 0.035567503
0.44828194 0.055747144 0.035549093
0.44733486 0.055951212 0.036033977
0.44638908 0.056157008 0.036518961
0.4454447 0.056364466 0.037003983
0.44450164 0.056573614 0.037489075
0.44414172 0.056117285 0.037470799
0.44320065 0.056328978 0.037955992
0.44284141 0.055873498 0.037937753
0.44248217 0.055418015 0.03791951
0.44154373 0.055633124 0.038404867
0.44060668 0.055849895 0.038890265
0.44024876 0.055396106 0.038872093
0.43989086 0.054942314 0.038853921
0.43895647 0.055162475 0.039339449
0.43802342 0.055384323 0.039825048
0.43766686 0.054932225 0.039806943
0.43731028 0.054480135 0.039788838
0.43695369 0.054028038 0.039770734
0.43659711 0.053575948 0.039752629
0.436813 0.052444823 0.039230619
0.43588397 0.052671749 0.039716423
0.43552738 0.052219659 0.039698318
0.43574128 0.051086001 0.039176207
0.43538401 0.050633054 0.039158069
0.43502676 0.050180115 0.03913993
0.43466952 0.049727172 0.039121792
0.43431228 0.049274232 0.039103653
0.43395504 0.048821289 0.039085515
0.43359777 0.04836835 0.039067376
0.43324053 0.04791541 0.039049238
0.43288329 0.047462463 0.0390311
0.43252605 0.047009524 0.039012961
0.43216881 0.046556581 0.038994823
0.43181157 0.046103641 0.038976684
0.4314543 0.045650698 0.038958546
0.43109706 0.045197759 0.038940407
0.43073982 0.044744812 0.038922269
0.43038258 0.044291873 0.03890413
0.43002531 0.043838929 0.038885992
0.42966807 0.04338599 0.038867854
0.42986926 0.042236242 0.038345098
0.42951137 0.041782457 0.038326927
0.42915344 0.041328669 0.038308755
0.42935196 0.040175535 0.037785858
0.42843762 0.040421091 0.038272411
0.42807969 0.039967302 0.038254239
0.42827621 0.038811632 0.037731241
0.42791763 0.038356997 0.037713036
0.42700598 0.03860594 0.038199723
0.42720047 0.037447724 0.037676625
0.42684188 0.03699309 0.037658416
0.4264833 0.036538456 0.03764021
0.42612472 0.036083825 0.037622005
0.42631593 0.034921344 0.037098713
0.4259567 0.034465864 0.03708047
0.42504898 0.034719918 0.037567388
0.4246904 0.034265283 0.037549179
0.42433181 0.033810649 0.037530974
0.42397323 0.033356015 0.037512768
0.42525196 0.030762678 0.035978746
0.42598158 0.028878 0.034949817
0.42616406 0.02770455 0.034426112
0.42525771 0.027960259 0.034913067
0.42543888 0.026785113 0.034389295
0.42561871 0.025608286 0.033865452
0.42579719 0.024429752 0.033341546
0.42543328 0.02396835 0.033323068
0.42560977 0.02278728 0.032799054
0.42524517 0.022325026 0.032780543
0.42541969 0.021141386 0.032256406
0.42505443 0.020678278 0.032237861
0.42468917 0.020215183 0.032219317
0.42486098 0.019028187 0.031695064
0.42449507 0.018564237 0.031676486
0.42412913 0.01810029 0.031657908
0.42429826 0.016909903 0.031133523
0.42393169 0.016445113 0.031114912
0.42356506 0.015980311 0.031096298
0.42373154 0.014786548 0.030571776
0.42336428 0.014320903 0.030553129
0.42299703 0.01385526 0.030534482
0.42316082 0.012658107 0.030009829
0.42279288 0.012191622 0.029991148
0.42295471 0.010991889 0.029466363
0.42311519 0.0097905044 0.028941538
0.42274591 0.0093223248 0.028922791
0.42290437 0.008118392 0.028397864
0.42253444 0.0076493705 0.028379083
0.4226909 0.0064429021 0.027854055
0.42232028 0.0059730271 0.027835239
0.43087569 -0.0070622633 0.019208983
0.43744391 -0.018402472 0.012080772
0.43914482 -0.021865331 0.010035219
0.43979561 -0.023849871 0.0090023158
0.43940029 -0.02435107 0.0089822449
0.43952608 -0.025596514 0.0084556332
0.43965048 -0.02684362 0.0079289749
0.43977353 -0.028092422 0.0074022524
0.43989527 -0.029342918 0.0068754591
0.44001567 -0.030595096 0.0063485978
0.43961701 -0.031100538 0.0063283574
0.43973544 -0.032355297 0.0058013718
0.43985251 -0.033611707 0.0052743447
0.43945253 -0.034118831 0.0052540367
0.4555479 0.059748918 0.033262566
0.45518261 0.059285816 0.033244021
0.45481735 0.058822714 0.033225473
0.4544521 0.058359612 0.033206929
0.45408684 0.05789651 0.033188384
0.45372158 0.057433415 0.03316984
0.45276615 0.057626199 0.033655286
0.45240155 0.057163946 0.033636775
0.45203695 0.05670169 0.033618264
0.45167238 0.056239437 0.033599753
0.45072031 0.056436423 0.034085345
0.44976959 0.0566351 0.034571003
0.44940633 0.056174539 0.034552559
0.4484576 0.056375753 0.035038315
0.44809499 0.055916041 0.035019904
0.44714829 0.056119796 0.035505768
0.44620284 0.056325283 0.035991725
0.4452588 0.056532428 0.036477719
0.44431609 0.056741267 0.036963787
0.44395617 0.056284938 0.036945514
0.44301546 0.056496318 0.03743168
0.44265622 0.056040838 0.037413441
0.44229695 0.055585358 0.037395198
0.44135886 0.055800155 0.037881527
0.44042218 0.056016613 0.038367901
0.44006425 0.055562828 0.038349729
0.43912956 0.055781823 0.0388362
0.43877232 0.055328883 0.038818061
0.4378396 0.055550423 0.039304629
0.43690825 0.055773657 0.039791275
0.43655232 0.055322405 0.039773203
0.43619642 0.054871157 0.039755132
0.43584052 0.054419912 0.039737064
0.43548459 0.053968661 0.039718993
0.43512869 0.053517412 0.039700922
0.43477279 0.053066161 0.03968285
0.43441686 0.052614916 0.039664779
0.43406096 0.052163668 0.039646711
0.43370503 0.051712416 0.03962864
0.43334913 0.051261172 0.039610568
0.43299323 0.05080992 0.039592497
0.4326373 0.050358672 0.039574429
0.4322814 0.049907427 0.039556358
0.43192551 0.049456175 0.039538287
0.43156958 0.049004927 0.039520215
0.43121368 0.048553675 0.039502148
0.43085778 0.048102431 0.039484076
0.43050185 0.047651183 0.039466005
0.43014595 0.047199931 0.039447933
0.42922854 0.047440976 0.039935313
0.42943412 0.046297438 0.039411794
0.42907822 0.045846187 0.039393723
0.42872229 0.045394938 0.039375652
0.42892516 0.044248044 0.038852021
0.42856857 0.043795951 0.038833916
0.42821199 0.043343853 0.038815811
0.4278554 0.042891763 0.038797706
0.42805493 0.04174063 0.038273912
0.42769769 0.04128769 0.038255773
0.42734042 0.040834747 0.038237635
0.42698318 0.040381808 0.038219497
0.42662594 0.039928865 0.038201358
0.4262687 0.039475925 0.03818322
0.42591146 0.039022978 0.038165081
0.42555422 0.038570039 0.038146943
0.42519695 0.0381171 0.038128804
0.42483971 0.037664156 0.038110666
0.42503187 0.036503717 0.037586495
0.42467397 0.036049929 0.037568323
0.42431605 0.035596136 0.037550151
0.42395815 0.035142358 0.037531979
0.42360023 0.034688566 0.037513807
0.4232423 0.034234773 0.037495635
0.4228844 0.033780992 0.037477463
0.42307121 0.03261378 0.036953017
0.42380083 0.030730564 0.035922177
0.4245277 0.028844004 0.034891222
0.42416644 0.028385982 0.034872878
0.42488939 0.026494306 0.033841696
0.42452678 0.026034588 0.033823289
0.42470494 0.024856376 0.033298407
0.42434168 0.024395816 0.033279963
0.42451781 0.023215055 0.03275498
0.42415389 0.022753643 0.032736503
0.42432803 0.021570349 0.032211412
0.42396343 0.021108095 0.032192901
0.42359886 0.02064584 0.03217439
0.42377037 0.019459123 0.031649139
0.42340508 0.018996015 0.031630594
0.42357457 0.017806793 0.031105271
0.42320862 0.017342843 0.031086693
0.42284271 0.016878895 0.031068113
0.42300949 0.015686285 0.030542649
0.42264289 0.015221494 0.030524036
0.42227629 0.014756693 0.030505424
0.42244044 0.013560703 0.029979829
0.42207316 0.013095059 0.029961182
0.42223528 0.011896523 0.029435484
0.42239609 0.010696259 0.028909691
0.4220275 0.010228922 0.028890975
0.42218629 0.009026153 0.028365109
0.421817 0.0085579734 0.02834636
0.42197379 0.0073526567 0.027820395
0.42160386 0.0068836352 0.027801612
0.43881232 -0.020441784 0.0099875852
0.43998712 -0.023164533 0.0084454473
0.4401139 -0.024407974 0.0079179276
0.44023928 -0.025653074 0.0073903627
0.43984264 -0.026155965 0.0073702242
0.43996602 -0.027403615 0.0068425601
0.44008806 -0.028652947 0.006314829
0.44020879 -0.029903973 0.0057870261
0.43981016 -0.030409401 0.0057667862
0.43992889 -0.031663008 0.0052388594
0.45572484 0.060382161 0.032748025
0.45535958 0.059919059 0.03272948
0.45499432 0.059455957 0.032710936
0.45462906 0.058992859 0.032692391
0.45426381 0.058529757 0.032673843
0.45389855 0.058066655 0.032655299
0.45353329 0.057603557 0.032636754
0.45257819 0.057796031 0.033123177
0.45221359 0.057333775 0.033104666
0.45184901 0.056871522 0.033086155
0.45148441 0.05640927 0.03306764
0.4505327 0.056605943 0.033554211
0.44958231 0.056804311 0.034040842
0.44921905 0.056343749 0.034022398
0.44827068 0.05654465 0.03450913
0.44790807 0.056084938 0.034490719
0.4469617 0.056288384 0.034977555
0.44601661 0.056493562 0.035464484
0.44507292 0.056700394 0.035951458
0.44413054 0.05690892 0.036438499
0.44377062 0.056452595 0.036420222
0.44283026 0.056663662 0.036907367
0.442471 0.056208182 0.036889128
0.44211176 0.055752702 0.036870889
0.441174 0.055967186 0.037358191
0.44023764 0.056183334 0.037845533
0.43987975 0.055729549 0.037827361
0.43894538 0.055948235 0.038314808
0.43801236 0.056168616 0.038802318
0.43708068 0.056390688 0.039289903
0.43615028 0.056614488 0.039777577
0.43579504 0.056164086 0.039759539
0.4354398 0.055713691 0.039741505
0.43508455 0.055263288 0.039723467
0.43472931 0.054812886 0.039705433
0.43437406 0.054362483 0.039687395
0.43401882 0.053912081 0.039669357
0.43366358 0.053461678 0.039651323
0.43330833 0.053011272 0.039633285
0.43295309 0.052560877 0.039615247
0.43259785 0.052110475 0.039597213
0.4322426 0.051660072 0.039579175
0.43188736 0.05120967 0.039561138
0.43153211 0.050759267 0.039543103
0.43117687 0.050308865 0.039525066
0.43082163 0.049858466 0.039507028
0.43046638 0.049408063 0.039488994
0.43011114 0.048957661 0.039470956
0.4297559 0.048507258 0.039452918
0.42940065 0.048056856 0.039434884
0.42904541 0.047606453 0.039416846
0.42869017 0.047156055 0.039398808
0.42833492 0.046705652 0.039380774
0.42797968 0.04625525 0.039362736
0.42762443 0.045804847 0.039344698
0.42726919 0.045354445 0.039326664
0.42747107 0.044206981 0.038801998
0.42711517 0.043755736 0.03878393
0.42675927 0.043304488 0.038765859
0.42640334 0.042853236 0.038747787
0.42660186 0.041701574 0.03822298
0.42624527 0.041249476 0.038204875
0.42588869 0.040797386 0.03818677
0.4255321 0.040345289 0.038168669
0.42517555 0.039893195 0.038150564
0.42481896 0.039441098 0.038132459
0.42446238 0.038989 0.038114354
0.42410579 0.03853691 0.038096249
0.42374924 0.038084812 0.038078144
0.42394105 0.036924683 0.037553001
0.42358381 0.036471743 0.037534863
0.42322657 0.0360188 0.037516724
0.42286932 0.035565861 0.037498586
0.42251205 0.035112921 0.037480447
0.42215481 0.034659971 0.037462309
0.42234197 0.033493921 0.036936928
0.42198405 0.033040129 0.036918756
0.42216918 0.031871531 0.03639327
0.42235306 0.030701218 0.035867691
0.42253551 0.029529234 0.035342064
0.4237988 0.026920827 0.033801518
0.42343688 0.026461961 0.033783142
0.42307496 0.026003096 0.033764768
0.42325211 0.024824344 0.033238873
0.42342788 0.023643894 0.032712918
0.42360237 0.022461763 0.032186888
0.42323843 0.02200035 0.032168411
0.42287451 0.021538937 0.032149933
0.42304629 0.020353418 0.031623766
0.42268172 0.019891163 0.031605255
0.42231712 0.019428909 0.031586744
0.42248628 0.018239954 0.03106042
0.42212102 0.017776858 0.031041875
0.42228812 0.0165854 0.030515473
0.42192221 0.016121451 0.030496893
0.42155629 0.015657514 0.030478315
0.42172071 0.014462666 0.029951779
0.42135412 0.013997875 0.029933166
0.42151657 0.012800491 0.029406527
0.42167768 0.011601424 0.028879821
0.42130974 0.011134927 0.028861139
0.42146888 0.0099332798 0.028334307
0.42110029 0.0094659524 0.028315593
0.42125738 0.0082618026 0.027788678
0.42088813 0.0077936226 0.027769931
0.4396556 -0.021738993 0.0083969096
0.44030574 -0.023721483 0.007360118
0.44095314 -0.025707329 0.006323216
0.44055581 -0.026211062 0.006303044
0.44015852 -0.026714796 0.0062828716
0.44028088 -0.027962975 0.0057541952
0.44040191 -0.029212849 0.0052254545
0.44000328 -0.029718278 0.0052052145
0.4559018 0.061015405 0.032233488
0.45553654 0.060552303 0.032214943
0.45517129 0.060089201 0.032196399
0.45480603 0.059626099 0.032177854
0.45444077 0.059163 0.03215931
0.45407552 0.058699898 0.032140762
0.45371026 0.058236796 0.032122217
0.453345 0.057773698 0.032103673
0.45239022 0.05796586 0.032591067
0.45202565 0.057503607 0.032572556
0.45166105 0.057041351 0.032554045
0.45129645 0.056579098 0.032535534
0.45034507 0.056775462 0.033023074
0.44939503 0.056973517 0.033510681
0.44903177 0.056512959 0.033492237
0.44808373 0.056713551 0.033979941
0.44772115 0.056253839 0.033961535
0.44677511 0.056456972 0.034449343
0.44583037 0.056661837 0.034937248
0.44488701 0.056868359 0.035425197
0.44394499 0.057076577 0.03591321
0.44358507 0.056620248 0.035894938
0.44264504 0.056831006 0.036383051
0.44228581 0.056375526 0.036364812
0.44134775 0.056588855 0.036853056
0.44098917 0.05613422 0.036834851
0.44005314 0.056350056 0.037323169
0.43911844 0.056567587 0.037811559
0.4381851 0.056786809 0.038300011
0.43782854 0.056334712 0.038281906
0.43689719 0.056556474 0.038770463
0.43539304 0.057454675 0.039765809
0.43503848 0.057005119 0.039747808
0.43468389 0.056555562 0.039729804
0.4343293 0.056106009 0.039711799
0.43397474 0.055656452 0.039693799
0.43362015 0.055206899 0.039675795
0.4332656 0.054757342 0.039657794
0.43291101 0.054307785 0.03963979
0.43255645 0.053858232 0.039621789
0.43220186 0.053408675 0.039603785
0.4318473 0.052959118 0.039585784
0.43149272 0.052509565 0.03956778
0.43113813 0.052060008 0.039549775
0.43078357 0.051610455 0.039531775
0.43042898 0.051160898 0.03951377
0.43007442 0.050711341 0.03949577
0.42971984 0.050261788 0.039477766
0.42936528 0.049812231 0.039459765
0.42901069 0.049362678 0.039441761
0.4286561 0.048913121 0.03942376
0.42830154 0.048463564 0.039405756
0.42794695 0.048014011 0.039387755
0.4275924 0.047564454 0.039369751
0.42723781 0.047114898 0.039351746
0.42688325 0.046665344 0.039333746
0.42652866 0.046215795 0.039315742
0.42673081 0.045069516 0.038790163
0.4263756 0.044619121 0.038772125
0.42602035 0.044168718 0.038754091
0.42566511 0.043718316 0.038736053
0.42586395 0.042567775 0.03821028
0.42550805 0.04211653 0.038192209
0.42515215 0.041665278 0.038174137
0.42479622 0.04121403 0.038156066
0.42444032 0.040762786 0.038137998
0.4240844 0.040311534 0.038119927
0.4237285 0.039860286 0.038101856
0.4233726 0.039409041 0.038083784
0.42301667 0.03895779 0.038065717
0.42266077 0.038506538 0.038047645
0.42285225 0.037346721 0.037521522
0.42249566 0.036894631 0.037503418
0.42213908 0.036442533 0.037485313
0.42178249 0.035990436 0.037467208
0.42197064 0.034826379 0.036940921
0.4216134 0.03437344 0.036922783
0.42179954 0.03320685 0.036396388
0.42144161 0.032753069 0.036378216
0.42162576 0.031583931 0.035851721
0.4218086 0.030413074 0.035325132
0.42144933 0.0299576 0.035306893
0.42163014 0.02878423 0.03478023
0.42234898 0.026890442 0.033745039
0.42198771 0.026432417 0.033726696
0.42216453 0.025253942 0.033199802
0.42233998 0.024073806 0.032672867
0.42251411 0.022891985 0.032145869
0.42215085 0.022431426 0.032127425
0.42178762 0.021970866 0.032108981
0.42142436 0.021510307 0.032090537
0.42159513 0.020324241 0.031563368
0.42123121 0.019862829 0.03154489
0.42139998 0.01867423 0.031017616
0.42103538 0.018211976 0.030999105
0.42120218 0.017020797 0.030471703
0.42083693 0.016557701 0.030453159
0.4210017 0.015364017 0.02992568
0.42063579 0.014900069 0.0299071
0.42079854 0.013703837 0.029379521
0.42095995 0.012505922 0.028851872
0.4205927 0.012040291 0.028833227
0.42022544 0.011574647 0.02881458
0.4203842 0.010373344 0.028286796
0.42001626 0.0099068582 0.028268116
0.42017308 0.008702985 0.027740205
0.44141689 -0.023271991 0.006313141
0.4420656 -0.025254665 0.0052743908
0.44114563 -0.025018509 0.0057635242
0.44126964 -0.02626384 0.0052339775
0.44087166 -0.026768427 0.005213771
0.44047371 -0.027273005 0.005193565
0.45607877 0.061648648 0.031718947
0.45571351 0.061185546 0.031700402
0.45534825 0.060722448 0.031681858
0.45498297 0.060259346 0.031663314
0.45461771 0.059796244 0.031644769
0.45425245 0.059333142 0.031626225
0.45388719 0.05887004 0.031607676
0.45352194 0.058406938 0.031589132
0.45315668 0.057943843 0.031570587
0.45220226 0.058135692 0.032058958
0.45183769 0.057673439 0.032040447
0.45147309 0.057211183 0.032021936
0.45110849 0.05674893 0.032003425
0.45015746 0.056944985 0.032491937
0.44920778 0.057142727 0.03298052
0.44884452 0.056682169 0.032962076
0.44789681 0.056882448 0.03345076
0.44753423 0.056422736 0.03343235
0.44658855 0.056625556 0.033921134
0.44564414 0.056830112 0.034410011
0.44470114 0.057036325 0.034898933
0.44375944 0.05724423 0.035387922
0.44339952 0.056787901 0.03536965
0.44245985 0.05699835 0.035858743
0.44210058 0.056542866 0.0358405
0.44116288 0.056755885 0.036329716
0.44022653 0.056970563 0.036818977
0.43986863 0.056516778 0.036800805
0.4389343 0.056733999 0.037290171
0.43800128 0.056952909 0.037779596
0.43706962 0.057173513 0.038269091
0.43613923 0.057395846 0.038758684
0.43428257 0.057845522 0.039738018
0.43392867 0.057396814 0.039720051
0.43357477 0.056948107 0.03970208
0.43229654 0.056729313 0.040173981
0.43251306 0.055601981 0.039648175
0.43215913 0.055153269 0.039630208
0.43180522 0.054704562 0.039612237
0.43145132 0.054255851 0.03959427
0.43109742 0.053807143 0.039576299
0.43074352 0.053358436 0.039558332
0.43038961 0.052909728 0.039540362
0.43003571 0.052461021 0.039522395
0.42968178 0.052012313 0.039504424
0.42932788 0.051563606 0.039486457
0.42897397 0.051114894 0.03946849
0.42862007 0.050666187 0.039450519
0.42826617 0.050217476 0.039432552
0.42791227 0.049768765 0.039414581
0.42755833 0.049320057 0.039396614
0.42720443 0.04887135 0.039378643
0.42685053 0.048422642 0.039360676
0.42649662 0.047973935 0.039342705
0.42614272 0.047525227 0.039324738
0.42578882 0.047076516 0.039306771
0.4259913 0.045931406 0.03878025
0.42563671 0.045481849 0.038762245
0.42528215 0.045032293 0.038744245
0.42492756 0.044582739 0.03872624
0.4251267 0.043433387 0.038199551
0.42477146 0.042982984 0.038181514
0.42441621 0.042532582 0.038163476
0.424061 0.042082187 0.038145442
0.42370576 0.041631784 0.038127404
0.42335051 0.041181382 0.038109366
0.42299527 0.040730979 0.038091332
0.42264003 0.040280577 0.038073294
0.42228478 0.039830171 0.038055256
0.42192954 0.039379776 0.038037222
0.42212138 0.038221076 0.037510131
0.42176548 0.037769832 0.037492063
0.42140955 0.037318584 0.037473992
0.42105365 0.036867339 0.03745592
0.42124209 0.035704438 0.036928691
0.42088553 0.035252351 0.036910586
0.42107198 0.034086909 0.036383256
0.42071474 0.033633973 0.036365118
0.4203575 0.033181034 0.036346979
0.42054129 0.032012206 0.035819508
0.42072374 0.030841695 0.03529197
0.4209049 0.029669456 0.034764342
0.42054564 0.029213969 0.034746103
0.42072475 0.028039226 0.034218393
0.42144021 0.026142683 0.03318112
0.42107898 0.02568466 0.033162776
0.42125413 0.024504799 0.032634843
0.42089221 0.024045935 0.03261647
0.42053029 0.023587059 0.032598093
0.42016837 0.023128193 0.032579716
0.42034012 0.021944137 0.032051638
0.42051056 0.020758385 0.031523492
0.4201473 0.020297825 0.031505048
0.42031574 0.019109538 0.030976798
0.41995183 0.018648123 0.030958321
0.41958791 0.018186724 0.030939844
0.41975364 0.016995044 0.030411461
0.41991812 0.01580164 0.029882982
0.4200812 0.014606574 0.029354461
0.42024297 0.013409812 0.028825872
0.41987637 0.012945022 0.02880726
0.41950977 0.012480219 0.028788647
0.41966885 0.011280078 0.028259926
0.41930157 0.010814435 0.028241279
0.41893432 0.010348802 0.028222632
0.42013812 0.0076694479 0.026673319
0.45589045 0.061818793 0.031185864
0.45552519 0.061355691 0.031167319
0.45515993 0.060892589 0.031148773
0.45479468 0.060429487 0.031130228
0.45442942 0.059966385 0.031111684
0.45406416 0.059503283 0.031093137
0.4536989 0.059040181 0.031074593
0.45333365 0.058577079 0.031056048
0.45296839 0.058113985 0.031037502
0.45201433 0.058305524 0.031526849
0.45164973 0.057843268 0.031508338
0.45128512 0.057381015 0.031489827
0.45092055 0.056918763 0.031471316
0.44996986 0.057114504 0.031960804
0.4490205 0.057311937 0.032450359
0.44865724 0.056851376 0.032431919
0.44770989 0.057051346 0.032921571
0.44734731 0.056591634 0.032903161
0.44640195 0.056794144 0.033392921
0.44545791 0.056998387 0.033882778
0.44451523 0.057204287 0.034372672
0.44357389 0.057411883 0.034862638
0.44321397 0.056955554 0.034844361
0.44227463 0.057165693 0.035334427
0.4413366 0.057377551 0.035824586
0.44039994 0.057591077 0.036314785
0.4394646 0.057806291 0.036805056
0.43910736 0.057353348 0.036786918
0.43817404 0.057571106 0.037277285
0.43724203 0.057790551 0.037767723
0.43480796 0.058907792 0.039257441
0.43445405 0.058459084 0.03923947
0.43352738 0.058685306 0.03973018
0.43317416 0.058237445 0.039712243
0.43282092 0.057789583 0.039694309
0.43246767 0.057341725 0.039676376
0.43154433 0.057572205 0.04016728
0.43176121 0.056445997 0.039640505
0.43140796 0.055998135 0.039622571
0.43105471 0.055550274 0.039604634
0.43070149 0.055102415 0.0395867
0.43034825 0.054654546 0.039568767
0.429995 0.054206688 0.03955083
0.42964175 0.053758826 0.039532896
0.42928854 0.053310964 0.039514963
0.42893529 0.052863099 0.039497025
0.42858204 0.052415237 0.039479092
0.4282288 0.051967379 0.039461154
0.42787558 0.051519517 0.039443221
0.42752233 0.051071655 0.039425287
0.42716908 0.050623789 0.03940735
0.42681584 0.050175928 0.039389417
0.42646259 0.049728069 0.039371483
0.42610937 0.049280208 0.039353546
0.42575613 0.048832342 0.039335612
0.42540288 0.04838448 0.039317679
0.42504963 0.047936618 0.039299741
0.42525247 0.046792664 0.038772285
0.42489854 0.046343956 0.038754314
0.42454463 0.045895249 0.038736347
0.42419073 0.045446534 0.038718376
0.4243902 0.044298347 0.038190745
0.42403564 0.043848794 0.038172744
0.42368105 0.043399237 0.03815474
0.42332646 0.042949684 0.038136739
0.4229719 0.042500127 0.038118735
0.42261732 0.04205057 0.038100731
0.42226276 0.041601017 0.03808273
0.42190817 0.04115146 0.038064726
0.42155361 0.040701907 0.038046725
0.42119902 0.04025235 0.038028721
0.42139116 0.039094847 0.03750072
0.42103592 0.038644444 0.037482683
0.42068067 0.038194042 0.037464648
0.42032543 0.037743639 0.037446611
0.42051426 0.03658187 0.036918409
0.42015833 0.036130626 0.036900342
0.42034513 0.034966353 0.036372066
0.41998854 0.034514256 0.036353961
0.41963196 0.034062158 0.036335856
0.41927537 0.033610061 0.036317751
0.41945884 0.032441553 0.035789315
0.41964093 0.031271353 0.0352608
0.41982171 0.030099459 0.034732223
0.41946313 0.029644825 0.034714017
0.41964194 0.02847035 0.034185309
0.41981938 0.027294224 0.03365656
0.41999546 0.026116403 0.033127744
0.41963488 0.025659233 0.033109434
0.41980898 0.024478864 0.032580517
0.41944772 0.024020841 0.032562178
0.41908649 0.02356283 0.032543834
0.41925794 0.022379041 0.032014754
0.41889602 0.021920174 0.031996377
0.41906545 0.020733893 0.031467222
0.41870284 0.020274175 0.031448811
0.41834027 0.019814458 0.031430401
0.41903636 0.017894831 0.030390231
0.41920111 0.016702622 0.029860841
0.41936454 0.015508675 0.029331353
0.41952664 0.014313077 0.028801825
0.41916069 0.013849128 0.028783247
0.41879478 0.013385179 0.028764667
0.41895419 0.012186193 0.028235001
0.4185876 0.011721402 0.028216388
0.418221 0.011256612 0.028197777
0.4178544 0.010791809 0.028179163
0.45570216 0.061988935 0.030652778
0.45593065 0.060878303 0.030125666
0.45497164 0.061062731 0.030615687
0.45460638 0.060599629 0.030597143
0.45424113 0.060136527 0.030578598
0.45387587 0.059673429 0.030560052
0.45351058 0.059210327 0.030541508
0.45314533 0.058747225 0.030522963
0.45278007 0.058284126 0.030504419
0.45182636 0.058475357 0.030994739
0.45146176 0.0580131 0.030976228
0.45109716 0.057550848 0.030957717
0.45073259 0.057088591 0.030939206
0.44978225 0.057284024 0.031429667
0.44883323 0.057481144 0.031920202
0.44846997 0.057020586 0.031901758
0.44752297 0.057220243 0.032392386
0.44716039 0.056760531 0.032373976
0.44563293 0.057624687 0.033373881
0.44468993 0.057829428 0.033864718
0.44432935 0.057372253 0.033846408
0.44338834 0.05757954 0.034337346
0.44302842 0.05712321 0.034319073
0.44208944 0.057333034 0.034810115
0.44115174 0.057544582 0.035301246
0.43963769 0.058425639 0.036301807
0.43870336 0.058641393 0.036793079
0.43777037 0.058858834 0.037284426
0.43741447 0.05840759 0.037266355
0.43497941 0.059521355 0.038758893
0.433478 0.060418528 0.03976012
0.43312544 0.059971515 0.03974222
0.43277285 0.059524503 0.039724316
0.43242028 0.059077483 0.039706416
0.43206772 0.05863047 0.039688516
0.43171513 0.058183458 0.039670616
0.43079284 0.058414444 0.0401625
0.43100998 0.057289425 0.039634813
0.43065742 0.056842413 0.039616913
0.43030486 0.056395393 0.039599013
0.42995226 0.05594838 0.039581109
0.4295997 0.05550136 0.039563209
0.42924714 0.055054348 0.039545309
0.42889455 0.054607332 0.039527409
0.42854199 0.054160316 0.039509505
0.42818943 0.053713299 0.039491605
0.42783684 0.053266287 0.039473705
0.42748427 0.052819267 0.039455805
0.42713171 0.052372254 0.039437901
0.42677912 0.051925242 0.039420001
0.42642656 0.051478222 0.039402101
0.426074 0.05103121 0.039384201
0.42572141 0.050584197 0.039366297
0.42536885 0.050137177 0.039348397
0.42501628 0.049690165 0.039330497
0.42466369 0.049243148 0.039312597
0.42431113 0.048796132 0.039294694
0.42451429 0.047653303 0.038766265
0.42416108 0.047205441 0.038748331
0.42380783 0.046757575 0.038730398
0.42345458 0.046309713 0.038712461
0.42365438 0.045162681 0.03818389
0.42330047 0.044713974 0.038165923
0.42294657 0.044265263 0.038147956
0.42259264 0.043816555 0.038129985
0.42223874 0.043367848 0.038112018
0.42188483 0.04291914 0.038094047
0.42153093 0.042470433 0.03807608
0.42117703 0.042021725 0.03805811
0.42082313 0.041573018 0.038040143
0.42046919 0.041124303 0.038022172
0.42066166 0.039967962 0.037493229
0.42030707 0.039518405 0.037475225
0.41995251 0.039068848 0.03745722
0.41959792 0.038619298 0.03743922
0.41978705 0.037458714 0.036910105
0.41943181 0.037008312 0.036892071
0.41961896 0.035845168 0.036362831
0.41926304 0.035393912 0.036344759
0.41890714 0.034942668 0.036326692
0.41855121 0.034491424 0.03630862
0.418735 0.03332407 0.035779234
0.41891742 0.032155022 0.035249785
0.41856018 0.031702083 0.035231646
0.4187406 0.030530501 0.034702096
0.41838267 0.030076709 0.03468392
0.4185611 0.028902588 0.034154266
0.41873825 0.02772673 0.033624515
0.41837898 0.027271254 0.033606276
0.41855407 0.026092893 0.03307645
0.41819414 0.025636565 0.033058174
0.41836724 0.024455665 0.032528248
0.41800666 0.023998495 0.032509942
0.41764608 0.023541326 0.032491636
0.41781649 0.022357035 0.031961571
0.41745523 0.021899013 0.031943232
0.41709396 0.02144099 0.031924888
0.41779074 0.019523649 0.030882807
0.4179565 0.018333433 0.030352512
0.41812089 0.017141538 0.029822143
0.41828397 0.015947945 0.029291708
0.41844574 0.014752614 0.028761176
0.41808048 0.014289519 0.028742632
0.41824019 0.013091684 0.028212028
0.41787428 0.012627735 0.02819345
0.41750833 0.012163786 0.02817487
0.41766539 0.010962574 0.027644131
0.45551386 0.062159076 0.030119697
0.45514861 0.061695974 0.030101152
0.45478332 0.061232872 0.030082606
0.45441806 0.06076977 0.030064061
0.45405281 0.060306668 0.030045517
0.45368755 0.05984357 0.03002697
0.45332229 0.059380468 0.030008426
0.45295703 0.058917366 0.029989881
0.45259178 0.058454268 0.029971335
0.4516384 0.058645185 0.03046263
0.4512738 0.058182932 0.030444119
0.45090923 0.05772068 0.030425606
0.45054463 0.057258423 0.030407095
0.44959462 0.057453547 0.030898534
0.44864595 0.057650354 0.031390037
0.44828272 0.057189796 0.031371593
0.44675264 0.05804906 0.032373253
0.44639072 0.05759019 0.032354876
0.4454467 0.057792965 0.032846645
0.44450402 0.057997394 0.033338457
0.44414344 0.057540219 0.033320148
0.44320279 0.057747193 0.033812061
0.44226348 0.057955861 0.034304041
0.44132546 0.058166254 0.034796115
0.43981075 0.059044991 0.035798553
0.43945351 0.058592051 0.035780415
0.4379428 0.059475873 0.036783054
0.43701079 0.05969388 0.03727543
0.43515086 0.060134917 0.038260344
0.43364879 0.061029781 0.03926345
0.43272284 0.061255381 0.039756108
0.43237093 0.060809206 0.039738242
0.43201903 0.060363043 0.039720375
0.43166712 0.059916869 0.039702509
0.43131524 0.059470702 0.039684642
0.43096334 0.059024539 0.039666776
0.43004203 0.059256058 0.040159672
0.43025953 0.058132201 0.039631039
0.42990762 0.057686027 0.039613172
0.42955571 0.057239864 0.039595306
0.42920381 0.05679369 0.039577439
0.4288519 0.056347523 0.039559573
0.4285 0.055901352 0.039541706
0.42814809 0.055455185 0.039523836
0.42779619 0.055009015 0.03950597
0.42744428 0.054562848 0.039488103
0.42709237 0.054116677 0.039470237
0.42674047 0.053670511 0.03945237
0.42638856 0.05322434 0.039434504
0.42603666 0.052778173 0.039416637
0.42568475 0.052332003 0.039398767
0.42533287 0.051885836 0.039380901
0.42498097 0.051439665 0.039363034
0.42462906 0.050993498 0.039345168
0.42427716 0.050547328 0.039327301
0.42392525 0.050101161 0.039309435
0.42357334 0.049654994 0.039291568
0.42377681 0.048513349 0.038762223
0.42342421 0.048066337 0.038744323
0.42307165 0.047619317 0.038726423
0.42271909 0.047172304 0.038708523
0.42291924 0.046026397 0.038178984
0.422566 0.045578536 0.038161051
0.42221275 0.04513067 0.038143117
0.42185953 0.044682808 0.03812518
0.42150629 0.04423495 0.038107246
0.42115304 0.043787088 0.038089313
0.42079979 0.043339226 0.038071375
0.42044657 0.042891361 0.038053442
0.42009333 0.042443499 0.038035508
0.41974008 0.041995641 0.038017571
0.41993284 0.040840447 0.037487689
0.41957894 0.040391739 0.037469719
0.41922504 0.039943032 0.037451752
0.41887113 0.039494324 0.037433781
0.41906056 0.038334902 0.036903728
0.418706 0.037885353 0.036885727
0.41889343 0.036723386 0.036355566
0.41853818 0.036272984 0.036337532
0.41818294 0.035822593 0.036319494
0.4178277 0.03537219 0.036301456
0.41801181 0.034205955 0.035771105
0.41819459 0.033038072 0.035240714
0.41783801 0.032585975 0.035222609
0.41801876 0.031415544 0.03469212
0.41766149 0.030962605 0.034673981
0.41730425 0.030509666 0.034655843
0.41748235 0.029335856 0.034125213
0.41712442 0.028882064 0.034107041
0.41730049 0.027705707 0.03357631
0.41694191 0.027251074 0.033558104
0.41711605 0.026072148 0.033027243
0.41675678 0.025616674 0.033009
0.41639754 0.025161186 0.032990761
0.41656893 0.023978904 0.032459792
0.41620901 0.023522574 0.032441519
0.41637841 0.022337757 0.031910449
0.41654649 0.021151254 0.031379309
0.41671327 0.019963013 0.030848078
0.41687867 0.018773124 0.030316802
0.4170427 0.017581524 0.029785464
0.4177314 0.015655521 0.028741088
0.41736683 0.015193268 0.028722577
0.4175269 0.013996553 0.028191006
0.41716164 0.013533457 0.028172459
0.41679639 0.01307035 0.028153915
0.41695377 0.011870301 0.027622234
0.45555335 0.061219212 0.029057549
0.45459503 0.061403017 0.029549522
0.45422977 0.060939915 0.029530976
0.45386451 0.060476813 0.029512431
0.45349926 0.060013711 0.029493887
0.453134 0.059550609 0.029475341
0.45276874 0.059087507 0.029456796
0.45181504 0.059277274 0.02994903
0.45145044 0.058815017 0.029930519
0.45108587 0.058352765 0.029912008
0.45072126 0.057890508 0.029893497
0.44977093 0.058084473 0.030385876
0.44940701 0.057623066 0.030367399
0.4484587 0.057819564 0.030859878
0.44809544 0.057359006 0.030841436
0.44656605 0.058217648 0.031845041
0.44620413 0.057758778 0.031826664
0.44467872 0.058622535 0.032830503
0.44373709 0.058827501 0.033323321
0.44337717 0.058371175 0.033305049
0.44243753 0.058578681 0.033797968
0.44149917 0.05878792 0.034290984
0.44056222 0.058998812 0.034784041
0.43962657 0.059211399 0.035277165
0.43811524 0.060092911 0.036281686
0.4371829 0.06030976 0.036775004
0.43532231 0.06074848 0.037761796
0.43289334 0.061865468 0.039260384
0.43196839 0.0620916 0.039754052
0.43161714 0.061646283 0.039736219
0.43126592 0.061200958 0.039718386
0.43091467 0.060755637 0.039700553
0.43056345 0.060310312 0.03968272
0.4302122 0.05986499 0.039664887
0.42929193 0.060097054 0.04015879
0.42950973 0.058974344 0.039629221
0.42915851 0.058529027 0.039611388
0.42880726 0.058083702 0.039593555
0.42845601 0.057638377 0.039575722
0.42810479 0.057193059 0.039557889
0.42775354 0.056747735 0.039540056
0.42740232 0.056302417 0.039522223
0.42705107 0.055857092 0.03950439
0.42669985 0.055411767 0.039486557
0.4263486 0.05496645 0.039468724
0.42599738 0.054521125 0.039450888
0.42564613 0.054075807 0.039433055
0.42529491 0.053630482 0.039415222
