# .PCD v0.7 - Point Cloud Data file format
VERSION 0.7
FIELDS x y z
SIZE 4 4 4
TYPE F F F
COUNT 1 1 1
WIDTH 1348
HEIGHT 1
VIEWPOINT 0 0 0 1 0 0 0
POINTS 1348
DATA ascii
0.37896013 -0.10982361 0.035888385
0.37899485 -0.1112188 0.035401203
0.3786042 -0.11171408 0.035381369
0.37821358 -0.11220934 0.035361536
0.37782294 -0.11270463 0.035341702
0.37743232 -0.11319989 0.035321869
0.37704167 -0.11369517 0.035302036
0.37665105 -0.11419044 0.035282202
0.37626043 -0.11468571 0.035262369
0.37586978 -0.11518098 0.035242535
0.37547916 -0.11567626 0.035222702
0.37508851 -0.11617152 0.035202868
0.37469789 -0.11666681 0.035183035
0.37430725 -0.11716209 0.035163201
0.37391663 -0.11765736 0.035143368
0.37352598 -0.11815263 0.035123535
0.37272066 -0.11773444 0.035571594
0.37233073 -0.11822886 0.035551794
0.37152734 -0.11780811 0.03599998
0.37072536 -0.11738571 0.036448207
0.36992472 -0.1169616 0.036896504
0.36912543 -0.11653581 0.037344866
0.36873814 -0.11702684 0.037325203
0.36835086 -0.11751786 0.037305541
0.36755422 -0.11708868 0.03775404
0.36716759 -0.11757887 0.037734408
0.36678097 -0.11806908 0.037714779
0.36639434 -0.11855927 0.037695147
0.36600772 -0.11904946 0.037675519
0.36562109 -0.11953965 0.03765589
0.47701195 -0.042609382 0.020711429
0.47659528 -0.043137673 0.020690273
0.47617862 -0.043665964 0.020669119
0.47576192 -0.044194255 0.020647964
0.47534525 -0.044722546 0.020626808
0.47492859 -0.045250837 0.020605652
0.47396067 -0.045039535 0.021046415
0.47354466 -0.045566984 0.021025293
0.47257876 -0.045353144 0.021466155
0.47161421 -0.045137614 0.021907084
0.47119954 -0.045663368 0.02188603
0.47023696 -0.045445267 0.02232709
0.46927571 -0.045225512 0.022768186
0.46886238 -0.04574956 0.022747202
0.46844906 -0.046273623 0.022726215
0.4680357 -0.046797682 0.022705229
0.46762237 -0.047321741 0.022684243
0.46720904 -0.047845799 0.022663256
0.46679568 -0.048369858 0.02264227
0.46638235 -0.048893906 0.022621283
0.46596903 -0.049417965 0.022600299
0.4655557 -0.049942028 0.022579312
0.46514234 -0.050466087 0.022558326
0.46472901 -0.050990146 0.022537339
0.46431568 -0.051514205 0.022516353
0.46390235 -0.052038252 0.022495367
0.463489 -0.052562311 0.02247438
0.46307567 -0.053086374 0.022453396
0.46266234 -0.053610433 0.022432409
0.46224898 -0.054134492 0.022411423
0.46130043 -0.053898659 0.022853166
0.46035326 -0.053661115 0.023294978
0.45940739 -0.053421881 0.023736859
0.4584628 -0.053180929 0.024178831
0.45805216 -0.053701598 0.02415798
0.45657775 -0.052693997 0.025062928
0.45563725 -0.052447982 0.025505081
0.45416749 -0.05143442 0.026410291
0.45323029 -0.051184189 0.026852611
0.45229447 -0.050932247 0.027294999
0.45135996 -0.050678626 0.027737455
0.45042673 -0.050423272 0.028180003
0.45002207 -0.050936323 0.028159458
0.4490909 -0.050678469 0.028602084
0.44816107 -0.050418921 0.029044777
0.44723257 -0.050157662 0.029487539
0.44682992 -0.050668176 0.029467095
0.44590339 -0.050404396 0.029909957
0.44550142 -0.050914057 0.029889548
0.44509944 -0.051423728 0.029869137
0.44417557 -0.051156517 0.030312162
0.44377425 -0.051665332 0.030291785
0.44337294 -0.052174151 0.030271409
0.44297162 -0.05268297 0.030251034
0.4425703 -0.053191788 0.030230658
0.44216898 -0.053700607 0.030210283
0.44124982 -0.053427514 0.030653518
0.44084918 -0.053935491 0.030633176
0.44044852 -0.054443456 0.030612834
0.44004786 -0.054951433 0.03059249
0.43913206 -0.054674096 0.031035898
0.43873209 -0.055181231 0.03101559
0.43833208 -0.055688355 0.030995281
0.43741894 -0.05540764 0.03143882
0.43701965 -0.05591391 0.031418547
0.43662032 -0.056420192 0.031398274
0.436221 -0.056926474 0.031378001
0.43582171 -0.057432745 0.031357724
0.4349125 -0.057146925 0.031801496
0.43400472 -0.05685943 0.032245304
0.43360674 -0.057364017 0.032225098
0.43320876 -0.057868604 0.032204892
0.43230364 -0.057577722 0.032648843
0.43190631 -0.058081456 0.03262867
0.43100318 -0.057788048 0.033072717
0.43010139 -0.05749293 0.033516835
0.42970541 -0.057994984 0.03349673
0.42880559 -0.0576973 0.033940975
0.42841029 -0.058198497 0.033920903
0.4275125 -0.057898309 0.034365226
0.42711785 -0.058398653 0.034345187
0.42672321 -0.058899011 0.034325153
0.4258281 -0.058595434 0.034769606
0.42543414 -0.059094936 0.034749605
0.42504016 -0.059594441 0.0347296
0.42464617 -0.060093954 0.034709599
0.42375439 -0.059786148 0.035154223
0.42336109 -0.060284797 0.035134256
0.42296779 -0.060783461 0.035114285
0.42257449 -0.061282121 0.035094317
0.42218119 -0.061780784 0.035074346
0.42178789 -0.062279433 0.035054378
0.42139459 -0.062778093 0.035034411
0.42100129 -0.06327676 0.035014439
0.42060795 -0.06377542 0.034994472
0.42021468 -0.064274073 0.034974501
0.41982135 -0.064772733 0.034954533
0.41942805 -0.065271392 0.034934565
0.41903475 -0.065770052 0.034914594
0.41864145 -0.066268705 0.034894627
0.41824815 -0.066767365 0.034874655
0.41785485 -0.067266032 0.034854688
0.41746154 -0.067764692 0.03483472
0.41706821 -0.068263352 0.034814749
0.41667494 -0.068762004 0.034794781
0.41628161 -0.069260664 0.03477481
0.41588831 -0.069759324 0.034754843
0.41549501 -0.070257992 0.034734875
0.41510171 -0.070756637 0.034714904
0.41470841 -0.071255304 0.034694936
0.4143151 -0.071753964 0.034674965
0.4139218 -0.072252624 0.034654997
0.4135285 -0.072751276 0.03463503
0.41265538 -0.072419733 0.03508063
0.41226274 -0.072917543 0.035060693
0.41187009 -0.073415361 0.035040759
0.41147745 -0.073913172 0.035020825
0.41108483 -0.074410975 0.035000887
0.41069219 -0.0749088 0.034980953
0.41029954 -0.075406611 0.034961019
0.40990692 -0.075904414 0.034941081
0.40951428 -0.07640224 0.034921147
0.40912163 -0.076900043 0.034901213
0.4082559 -0.076559216 0.03534716
0.40786394 -0.077056184 0.035327259
0.40700021 -0.07671281 0.035773307
0.40660891 -0.077208936 0.03575344
0.40574718 -0.076863028 0.036199592
0.40535656 -0.077358298 0.036179759
0.4040277 -0.076166101 0.037092123
0.40363839 -0.076659679 0.037072361
0.40278134 -0.076307841 0.037518747
0.40239272 -0.076800577 0.037499014
0.40153766 -0.076446205 0.037945505
0.40068394 -0.076090142 0.038392067
0.40029666 -0.07658118 0.038372401
0.39944494 -0.076222576 0.03881906
0.3985945 -0.075862244 0.039265815
0.39820856 -0.07635159 0.039246216
0.39736018 -0.075988747 0.039693046
0.39697489 -0.076477252 0.039673485
0.39612854 -0.076111868 0.040120415
0.39528349 -0.075744808 0.040567417
0.39489952 -0.076231614 0.040547922
0.39451557 -0.076718427 0.040528428
0.39413163 -0.077205226 0.040508933
0.39374766 -0.077692032 0.040489439
0.39290658 -0.077319853 0.040936664
0.39252329 -0.07780581 0.040917203
0.39214 -0.078291766 0.040897742
0.39175671 -0.078777723 0.040878281
0.39091903 -0.078401342 0.041325655
0.3905364 -0.078886457 0.041306227
0.3901538 -0.079371572 0.0412868
0.38977116 -0.079856679 0.041267376
0.38938856 -0.080341794 0.041247949
0.38900593 -0.080826908 0.041228522
0.3886233 -0.081312023 0.041209094
0.38824069 -0.081797138 0.041189667
0.38785806 -0.082282245 0.041170243
0.38747546 -0.08276736 0.041150816
0.38709283 -0.083252475 0.041131388
0.3867102 -0.083737589 0.041111961
0.38632759 -0.084222697 0.041092537
0.38594496 -0.084707811 0.04107311
0.38556236 -0.085192926 0.041053683
0.38517973 -0.085678041 0.041034255
0.3847971 -0.086163156 0.041014828
0.38485754 -0.08752501 0.040527992
0.38447425 -0.088010967 0.040508531
0.38453272 -0.089375392 0.040021572
0.38414875 -0.089862205 0.040002078
0.38420519 -0.091229118 0.039515037
0.38382056 -0.091716766 0.039495509
0.38387498 -0.093086228 0.039008368
0.3834897 -0.093574733 0.038988806
0.38310441 -0.094063237 0.038969245
0.3827191 -0.094551742 0.038949683
0.38233382 -0.095040224 0.038930122
0.38238424 -0.096414782 0.038442776
0.38199827 -0.096904129 0.038423181
0.3816123 -0.097393475 0.038403586
0.38122636 -0.097882822 0.038383987
0.38084039 -0.098372169 0.038364392
0.38045442 -0.098861516 0.038344797
0.38006848 -0.099350862 0.038325202
0.37968251 -0.099840209 0.038305603
0.37929657 -0.10032956 0.038286008
0.3789106 -0.1008189 0.038266413
0.3789537 -0.1022028 0.037778668
0.3785671 -0.10269298 0.03775904
0.37860814 -0.1040794 0.03727122
0.37822083 -0.10457045 0.037251558
0.37783355 -0.10506148 0.037231892
0.37787193 -0.10645128 0.036743939
0.377909 -0.10784276 0.036255915
0.37794474 -0.10923592 0.035767827
0.37755543 -0.1097295 0.035748061
0.37716612 -0.11022308 0.035728294
0.3771992 -0.11161969 0.035240047
0.37680924 -0.11211411 0.035220247
0.37641931 -0.11260853 0.035200447
0.37602934 -0.11310295 0.035180647
0.37563935 -0.11359739 0.035160847
0.37524939 -0.11409181 0.035141047
0.37485942 -0.11458623 0.035121247
0.37446946 -0.11508067 0.035101447
0.3740795 -0.11557509 0.035081647
0.37327313 -0.11515888 0.035530638
0.37288386 -0.11565246 0.035510875
0.37249455 -0.11614604 0.035491109
0.37210527 -0.11663961 0.035471343
0.37171596 -0.11713319 0.035451576
0.37132666 -0.11762676 0.035431813
0.37052503 -0.11720467 0.035881013
0.36972472 -0.11678088 0.036330283
0.36892578 -0.1163554 0.036779623
0.36853847 -0.11684643 0.036759961
0.36815119 -0.11733746 0.036740296
0.3673549 -0.11690859 0.03718977
0.36696827 -0.11739878 0.037170138
0.36658165 -0.11788899 0.03715051
0.36619502 -0.11837918 0.037130877
0.3658084 -0.11886936 0.037111249
0.36542177 -0.11935955 0.03709162
0.36503515 -0.11984973 0.037071988
0.36464849 -0.12033995 0.037052359
0.36426187 -0.12083014 0.037032727
0.36387524 -0.12132032 0.037013099
0.47610271 -0.040420301 0.021049768
0.47624227 -0.041681092 0.020565992
0.47582626 -0.04220853 0.020544872
0.47541025 -0.042735979 0.020523749
0.47499424 -0.043263417 0.020502627
0.47457823 -0.043790866 0.020481506
0.47361067 -0.043579888 0.02092324
0.47374621 -0.044845752 0.020439262
0.47277999 -0.044633079 0.020881066
0.47236466 -0.045159675 0.020859977
0.47140044 -0.044944454 0.021301882
0.47098577 -0.045470208 0.021280829
0.47002351 -0.045252416 0.021722861
0.46906263 -0.045032974 0.022164933
0.4686493 -0.045557022 0.022143949
0.46823597 -0.046081085 0.022122962
0.46782261 -0.046605144 0.022101976
0.46740928 -0.047129203 0.02208099
0.46699595 -0.047653262 0.022060003
0.4665826 -0.048177321 0.022039017
0.46616927 -0.048701368 0.022018032
0.46575594 -0.049225427 0.021997046
0.46534261 -0.04974949 0.021976059
0.46492925 -0.050273549 0.021955073
0.46451592 -0.050797608 0.021934086
0.4641026 -0.051321667 0.0219131
0.46368927 -0.051845714 0.021892114
0.46327591 -0.052369773 0.021871129
0.46286258 -0.052893836 0.021850143
0.46244925 -0.053417895 0.021829156
0.46150038 -0.053183224 0.02227184
0.46055284 -0.052946836 0.022714593
0.45960665 -0.052708764 0.023157414
0.45866176 -0.052468956 0.023600327
0.45771825 -0.052227493 0.024043282
0.45730826 -0.05274732 0.024022466
0.45583522 -0.051739488 0.024929397
0.45489568 -0.051492922 0.025372582
0.45342731 -0.050479162 0.026279751
0.45249116 -0.050228387 0.026723079
0.45155632 -0.049975917 0.027166476
0.45062277 -0.049721729 0.027609967
0.44969061 -0.049465869 0.028053498
0.44928661 -0.049978077 0.028032986
0.44835645 -0.04971968 0.02847662
0.44742763 -0.049459588 0.028920323
0.44702497 -0.049970102 0.028899878
0.44609815 -0.049707476 0.029343683
0.44569618 -0.050217148 0.029323272
0.4452942 -0.050726809 0.029302863
0.4448922 -0.05123648 0.029282453
0.44396868 -0.050969575 0.029726449
0.44356737 -0.051478393 0.029706074
0.44316605 -0.051987212 0.029685698
0.44276473 -0.052496031 0.029665323
0.44236341 -0.05300485 0.029644947
0.44144392 -0.052732918 0.030089123
0.44104329 -0.053240884 0.030068781
0.44064263 -0.053748861 0.030048439
0.44024199 -0.054256827 0.030028097
0.43984133 -0.054764803 0.030007755
0.43892586 -0.05448778 0.030452136
0.43852589 -0.054994915 0.030431828
0.43812588 -0.055502038 0.030411519
0.43721309 -0.055221632 0.030856034
0.43681377 -0.055727903 0.030835761
0.43641448 -0.056234188 0.030815486
0.43601516 -0.05674047 0.030795213
0.43561584 -0.057246741 0.030774938
0.43470699 -0.056961231 0.031219682
0.43379954 -0.056674045 0.031664468
0.43340155 -0.057178635 0.031644262
0.43300357 -0.057683222 0.031624056
0.43209881 -0.057392649 0.032068979
0.43170148 -0.057896383 0.032048807
0.43079871 -0.057603285 0.03249383
0.42989725 -0.05730848 0.03293892
0.42950127 -0.057810534 0.032918818
0.4286018 -0.057513159 0.033364035
0.42820647 -0.058014359 0.033343967
0.42730904 -0.057714481 0.033789262
0.42691442 -0.058214825 0.033769224
0.42651975 -0.058715183 0.033749186
0.425625 -0.058411915 0.034194618
0.42523104 -0.05891142 0.034174614
0.42483705 -0.059410922 0.034154613
0.42444307 -0.059910439 0.034134608
0.42355165 -0.059602942 0.034580208
0.42315835 -0.060101591 0.034560241
0.42276505 -0.060600255 0.03454027
0.42237175 -0.061098915 0.034520302
0.42197841 -0.061597578 0.034500331
0.42158514 -0.062096227 0.034480363
0.42119181 -0.062594891 0.034460396
0.42079851 -0.063093551 0.034440424
0.42040521 -0.06359221 0.034420457
0.42001191 -0.064090863 0.034400485
0.41961861 -0.064589523 0.034380518
0.41922531 -0.06508819 0.03436055
0.418832 -0.06558685 0.034340579
0.4184387 -0.066085503 0.034320612
0.4180454 -0.066584162 0.03430064
0.41765207 -0.067082822 0.034280673
0.41725877 -0.067581482 0.034260705
0.41686547 -0.06808015 0.034240734
0.41647217 -0.068578795 0.034220766
0.41607887 -0.069077462 0.034200795
0.41568556 -0.069576122 0.034180827
0.41480878 -0.069249958 0.034627199
0.41441613 -0.069747768 0.034607265
0.41402349 -0.070245594 0.034587327
0.41363087 -0.070743397 0.034567393
0.41323823 -0.071241207 0.034547459
0.41284558 -0.071739025 0.034527525
0.41245297 -0.072236836 0.034507588
0.41206032 -0.072734646 0.034487654
0.41166767 -0.073232464 0.034467719
0.41127506 -0.073730275 0.034447782
0.41088241 -0.074228086 0.034427848
0.41001368 -0.073891811 0.034874599
0.40962172 -0.074388765 0.034854699
0.40922976 -0.074885733 0.034834798
0.40883777 -0.075382702 0.034814898
0.4079724 -0.075042188 0.035261817
0.40710834 -0.074699976 0.035708811
0.40671769 -0.075195245 0.035688978
0.40632707 -0.075690523 0.035669144
0.40593642 -0.076185793 0.035649311
0.4050757 -0.075839348 0.036096469
0.40468574 -0.076333784 0.036076669
0.40335825 -0.075141355 0.036991015
0.4029696 -0.075634092 0.036971286
0.40211356 -0.075281724 0.037418682
0.40172562 -0.075773604 0.037398983
0.40087157 -0.075418688 0.037846483
0.40001887 -0.075062096 0.038294051
0.39963225 -0.075552277 0.038274419
0.39878151 -0.075193115 0.038722113
0.39793214 -0.074832276 0.039169852
0.39754686 -0.07532078 0.039150286
0.39669949 -0.074957401 0.039598126
0.39631486 -0.075445056 0.039578598
0.39546949 -0.07507915 0.040026538
0.39508554 -0.075565949 0.040007044
0.39424214 -0.075197473 0.040455107
0.39385885 -0.07568343 0.040435649
0.39347556 -0.076169387 0.040416189
0.39309227 -0.076655351 0.040396728
0.39270899 -0.077141307 0.040377267
0.39186963 -0.07676778 0.040825512
0.39148703 -0.07725288 0.040806085
0.3911044 -0.077737994 0.040786657
0.39072177 -0.078223109 0.04076723
0.39033917 -0.078708231 0.040747806
0.38995653 -0.079193346 0.040728379
0.38957393 -0.079678446 0.040708952
0.3891913 -0.080163561 0.040689524
0.38880867 -0.080648683 0.040670097
0.38842607 -0.081133798 0.040650673
0.38804343 -0.081618913 0.040631246
0.38766083 -0.082104012 0.040611818
0.3872782 -0.082589127 0.040592391
0.38689557 -0.083074249 0.040572964
0.38651296 -0.083559364 0.04055354
0.38613033 -0.084044464 0.040534113
0.38574773 -0.084529579 0.040514685
0.3853651 -0.085014701 0.040495258
0.38498247 -0.085499816 0.040475834
0.38459986 -0.08598493 0.040456407
0.38465995 -0.087346472 0.039968595
0.38427666 -0.087832429 0.039949134
0.38433477 -0.08919654 0.039461199
0.3839508 -0.089683346 0.039441705
0.38400692 -0.091049954 0.038953692
0.38362229 -0.091537602 0.038934164
0.38323766 -0.092025265 0.038914636
0.38285303 -0.092512906 0.038895108
0.3824684 -0.093000568 0.03887558
0.3820838 -0.093488209 0.038856052
0.38169914 -0.093975879 0.03883652
0.3817499 -0.09534926 0.038348239
0.38136461 -0.095837764 0.038328674
0.3809793 -0.096326269 0.038309112
0.38059402 -0.096814774 0.038289551
0.38020873 -0.097303256 0.038269989
0.37982345 -0.097791761 0.038250428
0.37943813 -0.098280266 0.038230862
0.37905285 -0.098768771 0.038211301
0.37866756 -0.099257253 0.038191739
0.37828228 -0.099745758 0.038172178
0.37832567 -0.10112847 0.03768352
0.3779397 -0.10161781 0.037663922
0.37755373 -0.10210716 0.037644327
0.37716779 -0.10259651 0.037624732
0.37678182 -0.10308585 0.037605137
0.37682125 -0.10447367 0.037116248
0.37685931 -0.10586315 0.036627322
0.376472 -0.10635418 0.036607657
0.37650806 -0.1077462 0.036118627
0.37612009 -0.10823809 0.036098927
0.37573212 -0.10872999 0.036079232
0.3757655 -0.11012539 0.035590064
0.37537685 -0.11061812 0.035570331
0.37498823 -0.11111086 0.035550602
0.37459961 -0.11160357 0.035530869
0.37421098 -0.11209631 0.035511136
0.37382236 -0.11258905 0.035491407
0.37343371 -0.11308178 0.035471674
0.37304509 -0.11357452 0.035451941
0.37265646 -0.11406726 0.035432208
0.37226781 -0.11455999 0.035412479
0.37187922 -0.1150527 0.035392746
0.37149057 -0.11554544 0.035373017
0.37110195 -0.11603817 0.035353284
0.37071329 -0.11653091 0.035333551
0.37032467 -0.11702365 0.035313819
0.36952472 -0.11660016 0.035764065
0.3687261 -0.11617499 0.036214378
0.36833882 -0.11666602 0.036194716
0.36795154 -0.11715705 0.03617505
0.36715558 -0.11672849 0.036625497
0.36676896 -0.11721867 0.036605868
0.36638233 -0.11770889 0.036586236
0.36599571 -0.11819908 0.036566608
0.36560908 -0.11868926 0.036546979
0.36522245 -0.11917945 0.036527347
0.36483583 -0.11966964 0.036507718
0.36444917 -0.12015985 0.036488086
0.36406255 -0.12065004 0.036468457
0.36367592 -0.12114023 0.036448829
0.36328933 -0.12163042 0.036429197
0.3629027 -0.1221206 0.036409568
0.36212942 -0.123101 0.036370307
0.36214209 -0.12452266 0.035880093
0.47588858 -0.040226828 0.020443592
0.47547325 -0.040753424 0.020422505
0.47561181 -0.042014748 0.01993772
0.4751958 -0.042542197 0.019916598
0.47422725 -0.042333212 0.020359242
0.47381189 -0.042859808 0.020338153
0.47339654 -0.043386415 0.020317066
0.47298121 -0.043913011 0.020295978
0.47256589 -0.044439606 0.020274891
0.47160134 -0.044225551 0.020717734
0.47118667 -0.044751294 0.020696681
0.47022408 -0.044534668 0.021139655
0.46981007 -0.045059569 0.021118635
0.46884954 -0.04484044 0.021561682
0.46843621 -0.045364488 0.021540698
0.46802288 -0.045888547 0.021519711
0.46760952 -0.046412606 0.021498725
0.4671962 -0.046936665 0.021477738
0.46678287 -0.047460724 0.021456752
0.46636951 -0.047984783 0.021435766
0.46595618 -0.04850883 0.021414781
0.46554285 -0.049032893 0.021393795
0.46512952 -0.049556952 0.021372808
0.46471617 -0.050081011 0.021351822
0.46430284 -0.05060507 0.021330835
0.46388951 -0.051129129 0.021309849
0.46347618 -0.051653177 0.021288862
0.46306282 -0.052177239 0.021267878
0.46264949 -0.052701298 0.021246891
0.46170029 -0.052467778 0.021690514
0.46075246 -0.052232556 0.022134209
0.45980594 -0.051995639 0.022577971
0.45886073 -0.051756993 0.023021825
0.45791689 -0.051516693 0.023465719
0.45697439 -0.051274691 0.023909684
0.45656505 -0.051793668 0.023888901
0.45456216 -0.050022066 0.025262689
0.45362434 -0.049774148 0.025706891
0.45268783 -0.049524527 0.02615116
0.45175269 -0.049273219 0.026595499
0.45081881 -0.049020186 0.02703993
0.44988632 -0.048765488 0.0274844
0.44895518 -0.048509099 0.027928943
0.44855186 -0.049020454 0.027908465
0.44762272 -0.048761528 0.028353106
0.44722006 -0.049272027 0.028332664
0.44629291 -0.049010567 0.028777407
0.44589093 -0.049520224 0.028756998
0.44548893 -0.050029896 0.028736588
0.44508696 -0.050539557 0.028716179
0.44468495 -0.051049229 0.028695768
0.4437618 -0.050782636 0.029140739
0.44336048 -0.051291455 0.029120363
0.44295916 -0.051800273 0.029099988
0.44255784 -0.052309092 0.029079612
0.44215652 -0.052817911 0.029059235
0.44123739 -0.052546293 0.029504387
0.44083673 -0.053054258 0.029484045
0.44043607 -0.053562235 0.029463703
0.44003543 -0.054070201 0.029443361
0.43963477 -0.054578178 0.029423019
0.43871966 -0.054301463 0.029868376
0.43831968 -0.054808598 0.029848067
0.43791968 -0.055315722 0.029827759
0.43700722 -0.055035628 0.030273248
0.43660793 -0.055541899 0.030252974
0.43620861 -0.056048181 0.0302327
0.43580928 -0.056554463 0.030212425
0.43540999 -0.057060733 0.030192152
0.43450147 -0.056775536 0.030637871
0.43359438 -0.056488663 0.03108363
0.4331964 -0.05699325 0.031063423
0.43279842 -0.057497837 0.031043217
0.43189397 -0.057207577 0.031489115
0.43099087 -0.05691563 0.031935081
0.43059424 -0.057418525 0.031914942
0.42969313 -0.05712403 0.032361008
0.42879331 -0.056827821 0.032807168
0.42839801 -0.057329021 0.032787096
0.42800269 -0.057830218 0.032767028
0.42710561 -0.057530653 0.033213295
0.42671096 -0.058030996 0.03319326
0.42631632 -0.058531355 0.033173222
0.42542189 -0.0582284 0.033619627
0.42502791 -0.058727901 0.033599623
0.42463395 -0.059227407 0.033579621
0.42423996 -0.05972692 0.033559617
0.42334887 -0.059419736 0.034006193
0.42295557 -0.059918385 0.033986226
0.42256227 -0.060417049 0.033966254
0.42216897 -0.060915709 0.033946287
0.42177567 -0.061414372 0.033926316
0.42138237 -0.061913021 0.033906348
0.42098907 -0.062411685 0.03388638
0.42059577 -0.062910348 0.033866409
0.42020243 -0.063409008 0.033846442
0.41980916 -0.063907661 0.03382647
0.41941583 -0.06440632 0.033806503
0.41902253 -0.06490498 0.033786535
0.41862923 -0.06540364 0.033766564
0.41823593 -0.065902293 0.033746596
0.41784263 -0.066400953 0.033726625
0.41744933 -0.06689962 0.033706658
0.41705602 -0.06739828 0.03368669
0.41666269 -0.06789694 0.033666719
0.41626942 -0.068395592 0.033646751
0.41587609 -0.068894252 0.03362678
0.41548279 -0.069392912 0.033606812
0.41460636 -0.069067068 0.034054156
0.41373131 -0.068739563 0.034501545
0.41333932 -0.069236524 0.034481645
0.41294736 -0.069733486 0.034461744
0.4125554 -0.070230454 0.034441844
0.41216341 -0.070727423 0.034421939
0.41177145 -0.071224391 0.034402039
0.41137949 -0.07172136 0.034382138
0.41098753 -0.072218321 0.034362238
0.41059554 -0.07271529 0.034342337
0.41020358 -0.073212259 0.034322433
0.40933585 -0.072875433 0.034770198
0.40894455 -0.073371559 0.034750331
0.40855327 -0.073867671 0.03473046
0.40816194 -0.074363798 0.034710594
0.40729758 -0.07402274 0.035158526
0.40643454 -0.073679999 0.035606526
0.40604457 -0.074174419 0.035586726
0.40565461 -0.074668847 0.035566926
0.40526465 -0.075163268 0.035547126
0.40440488 -0.074816264 0.035995319
0.4040156 -0.075309843 0.035975553
0.40268949 -0.074117228 0.036891859
0.40230152 -0.074609108 0.036872163
0.40144649 -0.074256212 0.037320565
0.40105921 -0.074747242 0.037300903
0.40020618 -0.074391797 0.03774941
0.39935446 -0.074034639 0.038198009
0.39896849 -0.074523985 0.038178414
0.39811879 -0.074164294 0.038627092
0.39727044 -0.073802926 0.039075837
0.39688581 -0.074290588 0.039056309
0.39603949 -0.07392668 0.039505154
0.39565551 -0.074413493 0.039485659
0.39481112 -0.074047007 0.039934635
0.39442784 -0.074532971 0.039915174
0.39404455 -0.075018927 0.039895713
0.39320287 -0.074649088 0.040344793
0.39282027 -0.075134203 0.040325366
0.39243764 -0.075619318 0.040305942
0.392055 -0.076104432 0.040286515
0.3916724 -0.076589547 0.040267088
0.39128977 -0.077074654 0.04024766
0.39090714 -0.077559769 0.040228233
0.39052454 -0.078044884 0.040208809
0.3901419 -0.078529999 0.040189382
0.38975927 -0.079015113 0.040169954
0.38937667 -0.079500221 0.040150527
0.38899404 -0.079985335 0.040131103
0.38861144 -0.08047045 0.040111676
0.3882288 -0.080955565 0.040092248
0.38784617 -0.08144068 0.040072821
0.38746357 -0.081925787 0.040053394
0.38708094 -0.082410902 0.04003397
0.38669834 -0.082896017 0.040014543
0.3863157 -0.083381131 0.039995115
0.3859331 -0.083866239 0.039975688
0.38555047 -0.084351353 0.03995626
0.38516784 -0.084836468 0.039936837
0.38478523 -0.085321583 0.039917409
0.3844026 -0.085806698 0.039897982
0.38446233 -0.087167934 0.039409202
0.38407904 -0.08765389 0.039389741
0.38413683 -0.089017689 0.038900826
0.38375288 -0.089504495 0.038881332
0.38336891 -0.089991294 0.038861837
0.38298497 -0.090478107 0.038842343
0.38260102 -0.090964906 0.038822848
0.38221705 -0.091451727 0.038803354
0.38183311 -0.091938525 0.038783859
0.38144913 -0.092425324 0.038764365
0.38106519 -0.092912145 0.038744871
0.38111627 -0.094284356 0.038255647
0.38073164 -0.094772018 0.038236119
0.38034701 -0.095259659 0.038216591
0.37996238 -0.095747322 0.038197063
0.37957776 -0.096234962 0.038177535
0.37919313 -0.096722625 0.038158007
0.3788085 -0.097210288 0.038138479
0.3784239 -0.097697929 0.038118951
0.37803927 -0.098185591 0.038099419
0.37765464 -0.098673232 0.038079895
0.37769836 -0.10005479 0.037590295
0.37731305 -0.10054329 0.03757073
0.37692779 -0.10103177 0.037551168
0.37654248 -0.10152028 0.037531607
0.37615719 -0.10200878 0.037512045
0.37577188 -0.10249729 0.037492484
0.37581092 -0.10388476 0.037002645
0.37542498 -0.10437411 0.03698305
0.37546206 -0.10576416 0.036493089
0.37507543 -0.10625435 0.03647346
0.3746888 -0.10674454 0.036453832
0.37472317 -0.10813794 0.035963755
0.37433589 -0.10862897 0.035944093
0.37394857 -0.10912003 0.035924427
0.37398028 -0.1105168 0.03543422
0.37359232 -0.1110087 0.035414524
0.37320435 -0.11150059 0.035394825
0.37281638 -0.11199246 0.035375126
0.37242842 -0.11248436 0.03535543
0.37204048 -0.11297622 0.035335731
0.37165248 -0.11346812 0.035316035
0.37126452 -0.11396001 0.035296336
0.37087658 -0.11445189 0.03527664
0.37048861 -0.11494378 0.035256941
0.37010065 -0.11543567 0.035237242
0.36971268 -0.11592755 0.035217546
0.36891374 -0.11550353 0.035668798
0.36852643 -0.11599458 0.035649132
0.36813915 -0.11648561 0.03562947
0.36775187 -0.11697664 0.035609808
0.36695626 -0.1165484 0.036061231
0.36656964 -0.11703859 0.036041599
0.36618301 -0.1175288 0.03602197
0.36579639 -0.11801898 0.036002338
0.36540976 -0.11850917 0.035982709
0.36502314 -0.11899935 0.035963081
0.36463651 -0.11948954 0.035943449
0.36424986 -0.11997975 0.03592382
0.36386323 -0.12046994 0.035904188
0.36347663 -0.12096013 0.035884559
0.36309001 -0.12145032 0.035864931
0.36270338 -0.12194051 0.035845298
0.36231673 -0.12243072 0.03582567
0.3619301 -0.12292091 0.035806037
0.36154348 -0.1234111 0.035786409
0.36155516 -0.12483328 0.035295185
0.47511962 -0.039300624 0.02030202
0.47470495 -0.039826378 0.020280967
0.4748438 -0.041086551 0.019795241
0.47442845 -0.041613147 0.019774152
0.47401312 -0.042139743 0.019753065
0.47359779 -0.042666338 0.019731978
0.47318244 -0.043192945 0.019710889
0.47276708 -0.043719541 0.019689802
0.47180223 -0.043506637 0.020133588
0.47138757 -0.044032391 0.020112535
0.47042465 -0.043816917 0.020556448
0.47001064 -0.044341817 0.020535428
0.46959665 -0.044866718 0.020514408
0.46863645 -0.044647902 0.020958429
0.46822312 -0.04517195 0.020937445
0.4678098 -0.045696009 0.020916458
0.46739644 -0.046220068 0.020895472
0.46698311 -0.046744127 0.020874485
0.46656978 -0.047268186 0.020853499
0.46615642 -0.047792245 0.020832513
0.46574309 -0.048316292 0.020811528
0.46532977 -0.048840355 0.020790542
0.46491644 -0.049364414 0.020769555
0.46450308 -0.049888473 0.020748569
0.46408975 -0.050412532 0.020727582
0.46367642 -0.050936591 0.020706596
0.46326309 -0.051460639 0.020685611
0.46284974 -0.051984701 0.020664625
0.46190023 -0.051752347 0.02110919
0.46095204 -0.051518276 0.021553824
0.46000522 -0.051282521 0.021998527
0.45905969 -0.051045027 0.022443321
0.45811552 -0.050805882 0.022888156
0.45717269 -0.050565045 0.023333061
0.45623121 -0.05032251 0.023778036
0.455291 -0.05007825 0.024223102
0.45382136 -0.049069125 0.025134031
0.45235437 -0.048056621 0.026045101
0.45194906 -0.04857051 0.02602452
0.45101488 -0.048318632 0.026469892
0.45008203 -0.0480651 0.026915304
0.44915056 -0.047809862 0.027360786
0.44822043 -0.04755294 0.027806334
0.44781777 -0.048063453 0.02778589
0.44741511 -0.048573967 0.027765447
0.44648767 -0.048313644 0.028211134
0.44608566 -0.048823316 0.028190723
0.44568369 -0.049332976 0.028170314
0.44528171 -0.049842648 0.028149903
0.44435754 -0.049578063 0.028595783
0.44395623 -0.050086882 0.028575405
0.44355491 -0.050595697 0.02855503
0.44315359 -0.051104516 0.028534655
0.44275227 -0.051613335 0.028514279
0.44235095 -0.052122153 0.028493902
0.44143149 -0.051851686 0.028939994
0.44103083 -0.052359663 0.028919652
0.4406302 -0.052867629 0.02889931
0.44022954 -0.053375605 0.028878968
0.4398289 -0.053883571 0.028858626
0.43942824 -0.054391548 0.028838284
0.43851346 -0.054115146 0.029284613
0.43811348 -0.054622281 0.029264305
0.43771347 -0.055129405 0.029243996
0.43680137 -0.054849621 0.029690463
0.43640205 -0.055355892 0.029670188
0.43600276 -0.055862177 0.029649913
0.43560344 -0.056368459 0.02962964
0.43520412 -0.05687473 0.029609365
0.43429598 -0.056589842 0.030056059
0.43338922 -0.056303278 0.030502792
0.43299124 -0.056807868 0.030482586
0.43259326 -0.057312455 0.03046238
0.43168914 -0.057022505 0.030909251
0.43078637 -0.05673087 0.031356189
0.43038973 -0.057233762 0.03133605
0.42948899 -0.05693958 0.031783096
0.42858952 -0.056643683 0.032230228
0.4281942 -0.05714488 0.032210156
0.4277989 -0.057646081 0.032190088
0.42690215 -0.057346825 0.032637328
0.4265075 -0.057847168 0.032617293
0.42611286 -0.058347527 0.032597255
0.42521879 -0.058044881 0.033044636
0.4248248 -0.058544386 0.033024631
0.42443085 -0.059043888 0.03300463
0.42403686 -0.059543405 0.032984626
0.42314613 -0.05923653 0.033432178
0.42275283 -0.059735179 0.033412211
0.42235953 -0.060233843 0.033392239
0.42196622 -0.060732502 0.033372272
0.42157289 -0.061231166 0.033352301
0.42117962 -0.061729815 0.033332333
0.42078629 -0.062228478 0.033312365
0.42039299 -0.062727138 0.033292394
0.41999969 -0.063225798 0.033272427
0.41960639 -0.063724451 0.033252455
0.41921309 -0.064223111 0.033232488
0.41881979 -0.064721778 0.03321252
0.41842648 -0.065220438 0.033192549
0.41803318 -0.06571909 0.033172581
0.41763988 -0.06621775 0.03315261
0.41724655 -0.06671641 0.033132643
0.41685325 -0.06721507 0.033112675
0.41645995 -0.067713737 0.033092704
0.41606665 -0.068212382 0.033072736
0.41567335 -0.06871105 0.033052765
0.41479659 -0.068386361 0.033501051
0.41440395 -0.068884172 0.033481117
0.41352922 -0.068556979 0.033929478
0.41313726 -0.06905394 0.033909578
0.4127453 -0.069550902 0.033889677
0.41187325 -0.069220327 0.034338176
0.41148195 -0.069716439 0.034318309
0.41109064 -0.070212565 0.034298442
0.41069934 -0.070708677 0.034278575
0.41030803 -0.071204804 0.034258705
0.40991673 -0.071700923 0.034238838
0.40952542 -0.072197042 0.034218971
0.40865874 -0.071859688 0.034667742
0.40826809 -0.072354957 0.034647908
0.40787748 -0.072850235 0.034628075
0.40748683 -0.073345505 0.034608241
0.40662345 -0.073003918 0.035057183
0.40576139 -0.072660603 0.035506215
0.40537208 -0.073154181 0.035486449
0.40498281 -0.07364776 0.035466682
0.4045935 -0.074141346 0.035446916
0.4037348 -0.073793836 0.035896093
0.40334618 -0.074286558 0.03587636
0.40202144 -0.07309372 0.036794651
0.40163413 -0.073584765 0.036774985
0.40078011 -0.073231325 0.037224401
0.40039349 -0.073721513 0.037204772
0.39954144 -0.073365502 0.03765431
0.39915547 -0.073854849 0.037634715
0.39830548 -0.073496327 0.038084332
0.39792019 -0.073984824 0.03806477
0.39707217 -0.073623762 0.038514491
0.39622548 -0.07326103 0.038964275
0.39584154 -0.073747829 0.038944785
0.39545757 -0.074234642 0.03892529
0.39461353 -0.073868461 0.039375238
0.39377087 -0.073500633 0.039825223
0.39338824 -0.073985748 0.0398058
0.39300564 -0.074470855 0.039786372
0.39262301 -0.07495597 0.039766945
0.39224038 -0.075441085 0.039747518
0.39185777 -0.0759262 0.039728094
0.39147514 -0.076411322 0.039708667
0.39109251 -0.076896422 0.039689239
0.39070991 -0.077381536 0.039669812
0.38987392 -0.077005237 0.040120143
0.38949195 -0.07748951 0.04010075
0.38911 -0.077973776 0.040081356
0.38872805 -0.078458034 0.040061966
0.38834611 -0.078942314 0.040042572
0.38796416 -0.079426572 0.040023178
0.38758221 -0.079910837 0.040003788
0.38720024 -0.08039511 0.039984394
0.38681829 -0.080879375 0.039965
0.38643634 -0.081363648 0.039945606
0.3860544 -0.081847906 0.039926216
0.38567242 -0.082332171 0.039906822
0.38529047 -0.082816444 0.039887428
0.38490853 -0.08330071 0.039868038
0.38452658 -0.083784968 0.039848644
0.38458797 -0.085143358 0.039358988
0.38420534 -0.085628472 0.039339561
0.38382274 -0.086113572 0.039320134
0.38388145 -0.087475345 0.038830344
0.38349816 -0.087961301 0.038810883
0.38311487 -0.088447265 0.038791422
0.38273159 -0.088933222 0.038771961
0.3823483 -0.089419186 0.0387525
0.38196501 -0.089905143 0.038733039
0.38158172 -0.090391114 0.038713578
0.38119844 -0.090877071 0.038694117
0.38081515 -0.091363028 0.03867466
0.38043186 -0.091848984 0.038655199
0.3804833 -0.093220092 0.038165007
0.38009933 -0.093706891 0.038145512
0.37971538 -0.094193719 0.038126018
0.37933141 -0.094680518 0.038106523
0.37894747 -0.095167316 0.038087029
0.37856349 -0.095654137 0.038067535
0.37817955 -0.096140936 0.03804804
0.37779561 -0.096627735 0.038028546
0.37741163 -0.097114556 0.038009051
0.37702769 -0.097601354 0.037989557
0.37707174 -0.098981731 0.037499018
0.37668711 -0.099469371 0.03747949
0.37630248 -0.099957034 0.037459962
0.37591788 -0.10044467 0.037440434
0.37553322 -0.10093234 0.037420902
0.37514859 -0.10142001 0.037401374
0.37518796 -0.10280632 0.036910601
0.37480268 -0.1032948 0.036891039
0.37441739 -0.10378331 0.036871474
0.37445408 -0.10517301 0.036380563
0.37406811 -0.10566236 0.036360968
0.37368217 -0.10615171 0.036341373
0.37371624 -0.10754484 0.035850301
0.37332961 -0.10803503 0.035830669
0.37336162 -0.10943065 0.035339519
0.37297431 -0.1099217 0.035319854
0.37258703 -0.11041273 0.035300191
0.37219974 -0.11090376 0.035280529
0.37181243 -0.11139482 0.035260864
0.37142515 -0.11188585 0.035241202
0.37103784 -0.1123769 0.035221536
0.37065056 -0.11286793 0.035201874
0.37026325 -0.11335898 0.035182208
0.36987597 -0.11385001 0.035162546
0.36948869 -0.11434104 0.03514288
0.36910138 -0.1148321 0.035123218
0.36871409 -0.11532312 0.035103552
0.36832678 -0.11581417 0.035083886
0.3679395 -0.1163052 0.035064224
0.36755222 -0.11679623 0.035044562
0.36675695 -0.1163683 0.035496961
0.36637032 -0.11685848 0.035477329
0.36598369 -0.1173487 0.0354577
0.36559707 -0.11783889 0.035438068
0.36521044 -0.11832907 0.03541844
0.36482382 -0.11881926 0.035398811
0.36443719 -0.11930945 0.035379179
0.36405054 -0.11979966 0.03535955
0.36366391 -0.12028985 0.035339918
0.36327732 -0.12078004 0.035320289
0.36289069 -0.12127022 0.035300661
0.36250407 -0.12176041 0.035281029
0.36211741 -0.12225062 0.0352614
0.36173078 -0.12274081 0.035241768
0.36134416 -0.123231 0.035222139
0.36095753 -0.12372119 0.035202511
0.36096817 -0.12514393 0.034710273
0.36058089 -0.12563495 0.034690611
0.47476527 -0.037850119 0.02018344
0.47490585 -0.039107464 0.019696819
0.47449115 -0.039633222 0.019675765
0.47407648 -0.040158976 0.019654712
0.47366181 -0.040684719 0.019633658
0.47324714 -0.041210473 0.019612603
0.47283247 -0.041736227 0.019591549
0.4724178 -0.04226198 0.019570496
0.47200313 -0.042787723 0.019549442
0.47158846 -0.043313477 0.019528387
0.47062522 -0.043099154 0.019973241
0.47021121 -0.04362407 0.019952221
0.46979722 -0.04414897 0.019931201
0.46938321 -0.044673871 0.019910181
0.46842337 -0.044455364 0.020355176
0.46801004 -0.044979412 0.020334192
0.46759671 -0.045503471 0.020313205
0.46718335 -0.04602753 0.020292219
0.46677002 -0.046551589 0.020271232
0.46635669 -0.047075648 0.020250246
0.46594334 -0.047599707 0.02022926
0.46553001 -0.048123755 0.020208275
0.46511668 -0.048647817 0.020187289
0.46470335 -0.049171876 0.020166302
0.46428999 -0.049695935 0.020145316
0.46387666 -0.050219994 0.020124329
0.46346334 -0.050744053 0.020103343
0.46305001 -0.051268101 0.020082358
0.46210015 -0.051036902 0.020527864
0.46168748 -0.051560119 0.020506911
0.46020451 -0.050569393 0.021419082
0.45925865 -0.050333064 0.021864818
0.45831415 -0.05009507 0.022310592
0.457371 -0.049855396 0.022756439
0.45642918 -0.049614016 0.023202352
0.45548865 -0.049370922 0.023648361
0.45348722 -0.047602061 0.025027936
0.45255074 -0.047353912 0.02547412
0.45214543 -0.047867816 0.025453541
0.45121092 -0.047617085 0.025899854
0.45027778 -0.047364708 0.026346207
0.44934598 -0.047110632 0.026792629
0.44841552 -0.046854865 0.02723912
0.44801286 -0.047365379 0.027218675
0.4470844 -0.047107074 0.027665267
0.44668239 -0.047616735 0.027644856
0.44628042 -0.048126392 0.027624447
0.44587845 -0.048636064 0.027604038
0.44547644 -0.049145725 0.027583627
0.44455194 -0.048882306 0.028030448
0.44415063 -0.049391121 0.02801007
0.44374931 -0.049899939 0.027989695
0.44334802 -0.050408758 0.027969319
0.4429467 -0.050917577 0.027948944
0.44254538 -0.051426396 0.027928567
0.44214407 -0.051935215 0.027908191
0.44122493 -0.05166506 0.028355258
0.44082427 -0.052173037 0.028334916
0.44042364 -0.052681003 0.028314574
0.44002298 -0.05318898 0.028294232
0.43962234 -0.053696945 0.02827389
0.43922168 -0.054204922 0.028253548
0.43830726 -0.05392883 0.028700853
0.43790728 -0.054435965 0.028680544
0.43750727 -0.054943088 0.028660236
0.43659553 -0.054663617 0.029107675
0.43619621 -0.055169888 0.029087402
0.43579689 -0.05567617 0.029067127
0.43539757 -0.056182452 0.029046852
0.4344891 -0.055898704 0.029494489
0.43409047 -0.056404147 0.029474247
0.43318403 -0.056117896 0.029921954
0.43278605 -0.056622483 0.029901749
0.43188164 -0.056333695 0.030349562
0.43148431 -0.056837432 0.030329389
0.4305819 -0.056546107 0.030777304
0.42968082 -0.056253091 0.031225285
0.42928484 -0.056755129 0.031205181
0.42838573 -0.056459542 0.031653289
0.42799041 -0.056960743 0.031633221
0.42709333 -0.056662638 0.032081403
0.42669868 -0.057162996 0.032061365
0.42630407 -0.05766334 0.03204133
0.42590943 -0.058163699 0.032021292
0.42501569 -0.057861365 0.032469645
0.4246217 -0.058360867 0.032449644
0.42422774 -0.058860373 0.032429639
0.42383376 -0.059359886 0.032409638
0.42294335 -0.059053324 0.032858159
0.42255005 -0.059551973 0.032838192
0.42215675 -0.060050637 0.032818224
0.42176345 -0.060549296 0.032798253
0.42137015 -0.06104796 0.032778285
0.42097685 -0.061546609 0.032758318
0.42058355 -0.062045272 0.032738347
0.42019024 -0.062543936 0.032718379
0.41979691 -0.063042596 0.032698408
0.41940364 -0.063541248 0.03267844
0.41901031 -0.064039908 0.032658473
0.41861701 -0.064538568 0.032638501
0.41822371 -0.065037228 0.032618534
0.41783041 -0.065535881 0.032598563
0.41743711 -0.066034541 0.032578595
0.41704381 -0.066533208 0.032558624
0.4166505 -0.067031868 0.032538656
0.41625717 -0.067530528 0.032518689
0.4158639 -0.06802918 0.032498717
0.41547057 -0.06852784 0.03247875
0.41459417 -0.068203464 0.032928012
0.41420153 -0.068701275 0.032908075
0.41332716 -0.068374395 0.033357412
0.4129352 -0.068871357 0.033337511
0.41206282 -0.068541937 0.033786952
0.41167152 -0.069038056 0.033767086
0.41128021 -0.069534168 0.033747219
0.41088891 -0.070030294 0.033727348
0.41049761 -0.070526406 0.033707481
0.40962926 -0.070191912 0.034157127
0.40923861 -0.070687182 0.034137294
0.40884799 -0.071182452 0.03411746
0.40798229 -0.070844568 0.034567237
0.40759233 -0.071338989 0.034547437
0.40720236 -0.071833417 0.034527637
0.4068124 -0.072327837 0.034507837
0.40594998 -0.071985684 0.034957811
0.4055607 -0.072479263 0.034938045
0.40470034 -0.072134599 0.035388093
0.40431172 -0.072627336 0.035368364
0.40392309 -0.073120072 0.035348631
0.40306541 -0.072772011 0.035798818
0.40267745 -0.073263906 0.035779119
0.40182176 -0.072913319 0.036229406
0.40143448 -0.073404357 0.036209743
0.40058079 -0.073051229 0.036660131
0.39972842 -0.072696373 0.037110612
0.39934245 -0.07318572 0.037091013
0.39895651 -0.073675066 0.037071418
0.39810684 -0.073316857 0.037522011
0.39772156 -0.073805347 0.037502449
0.39687389 -0.073444597 0.037953142
0.39602754 -0.073082179 0.038403906
0.39564359 -0.073568977 0.038384411
0.39479923 -0.073203966 0.038835298
0.39395624 -0.072837293 0.03928623
0.39357361 -0.073322408 0.039266802
0.39319098 -0.073807523 0.039247375
0.39280838 -0.074292623 0.039227951
0.39196873 -0.073921718 0.03967905
0.39158675 -0.074405998 0.039659657
0.3912048 -0.074890256 0.039640263
0.39082286 -0.075374521 0.039620873
0.39044091 -0.075858794 0.039601479
0.39005896 -0.07634306 0.039582085
0.38967702 -0.076827317 0.039562695
0.38929504 -0.07731159 0.039543301
0.38891309 -0.077795856 0.039523907
0.38853115 -0.078280121 0.039504517
0.3881492 -0.078764394 0.039485123
0.38776723 -0.079248652 0.039465729
0.38738528 -0.079732917 0.039446339
0.38700333 -0.08021719 0.039426945
0.38662139 -0.080701455 0.039407551
0.38623941 -0.081185728 0.039388157
0.38585746 -0.081669994 0.039368767
0.38547552 -0.082154252 0.039349373
0.38509357 -0.082638524 0.03932998
0.38471162 -0.08312279 0.039310589
0.38432968 -0.083607055 0.039291196
0.3839477 -0.084091328 0.039271802
0.38356575 -0.084575586 0.039252412
0.38318381 -0.085059851 0.039233018
0.38324285 -0.086420462 0.038742285
0.38286024 -0.086905576 0.038722858
0.38247761 -0.087390691 0.03870343
0.38209498 -0.087875806 0.038684007
0.38171238 -0.088360913 0.038664579
0.38132975 -0.088846028 0.038645152
0.38094714 -0.089331143 0.038625725
0.38056451 -0.08981625 0.038606301
0.38018191 -0.090301365 0.038586874
0.37979928 -0.090786479 0.038567446
0.37985098 -0.092156403 0.038076341
0.3794677 -0.092642359 0.03805688
0.37908441 -0.093128316 0.038037419
0.37870112 -0.093614273 0.038017958
0.37831783 -0.094100229 0.037998497
0.37793452 -0.094586208 0.037979037
0.37755126 -0.095072173 0.037959576
0.37716797 -0.095558129 0.037940118
0.37678468 -0.096044086 0.037920658
0.37640139 -0.096530043 0.037901197
0.3764458 -0.097909302 0.037409689
0.37606183 -0.098396122 0.037390195
0.37567788 -0.098882921 0.0373707
0.37529391 -0.09936972 0.037351206
0.37490997 -0.099856541 0.037331712
0.37452599 -0.10034334 0.037312217
0.37456572 -0.10172848 0.036820501
0.37418106 -0.10221615 0.036800973
0.37379646 -0.10270379 0.036781445
0.37383348 -0.10409234 0.036289591
0.37344816 -0.10458085 0.03627003
0.37306291 -0.10506932 0.036250468
0.37309724 -0.10646127 0.03575848
0.37271127 -0.10695062 0.035738882
0.37274367 -0.10834512 0.035246771
0.37235704 -0.10883531 0.035227139
0.37197042 -0.1093255 0.03520751
0.37158376 -0.10981571 0.035187881
0.37119713 -0.1103059 0.035168249
0.37081051 -0.11079609 0.035148621
0.37042391 -0.11128628 0.035128992
0.37003729 -0.11177646 0.03510936
0.36965063 -0.11226667 0.035089731
0.36926401 -0.11275686 0.035070099
0.36887738 -0.11324705 0.03505047
0.36849076 -0.11373724 0.035030842
0.36810413 -0.11422743 0.03501121
0.3677175 -0.11471764 0.034991581
0.36733088 -0.11520783 0.034971949
0.36694425 -0.11569802 0.03495232
0.36655763 -0.1161882 0.034932692
0.366171 -0.11667839 0.034913059
0.36578438 -0.11716861 0.034893431
0.36539775 -0.11765879 0.034873798
0.36501113 -0.11814898 0.03485417
0.3646245 -0.11863916 0.034834541
0.36423787 -0.11912935 0.034814909
0.36385122 -0.11961956 0.034795281
0.36346459 -0.12010975 0.034775648
0.363078 -0.12059994 0.03475602
0.36269137 -0.12109013 0.034736391
0.36230475 -0.12158032 0.034716759
0.36191809 -0.12207053 0.03469713
0.36153147 -0.12256072 0.034677498
0.36114484 -0.12305091 0.034657869
0.36075822 -0.12354109 0.034638241
0.36037159 -0.12403128 0.034618609
0.35998496 -0.12452149 0.03459898
0.35999393 -0.12594558 0.034105703
0.473997 -0.036926012 0.020045729
0.47413784 -0.038182173 0.019558195
0.47372383 -0.038707074 0.019537175
0.47330984 -0.039231975 0.019516155
0.47289583 -0.03975689 0.019495135
0.47248182 -0.040281791 0.019474115
0.47206783 -0.040806692 0.019453095
0.47165382 -0.041331604 0.019432073
0.47123981 -0.041856505 0.019411054
0.47082579 -0.042381406 0.019390034
0.47041181 -0.042906307 0.019369014
0.46999779 -0.043431219 0.019347994
0.46958378 -0.04395612 0.019326974
0.4691698 -0.04448102 0.019305954
0.46821028 -0.044262826 0.019751925
0.46779695 -0.044786874 0.019730939
0.46738362 -0.045310933 0.019709952
0.46697026 -0.045834992 0.019688966
0.46655694 -0.046359051 0.019667979
0.46614361 -0.04688311 0.019646993
0.46573025 -0.047407169 0.019626006
0.46531692 -0.04793122 0.019605022
0.46490359 -0.048455279 0.019584036
0.46449026 -0.048979338 0.019563049
0.46407691 -0.049503397 0.019542063
0.46366358 -0.050027456 0.019521076
0.46325025 -0.050551515 0.01950009
0.46230006 -0.050321467 0.019946538
0.46135128 -0.050089713 0.020393053
0.46093926 -0.050612081 0.020372136
0.45945758 -0.049621101 0.021286312
0.45851278 -0.049384274 0.021733031
0.4575693 -0.04914574 0.022179816
0.45662716 -0.048905522 0.022626672
0.45568633 -0.048663579 0.023073619
0.45474684 -0.048419975 0.023520608
0.45274711 -0.046651203 0.024903143
0.45234179 -0.047165107 0.024882564
0.45140696 -0.046915542 0.025329815
0.45047349 -0.046664316 0.025777111
0.45006949 -0.047176525 0.025756599
0.44913805 -0.046922762 0.026203994
0.44820791 -0.046667304 0.026651461
0.44727916 -0.046410151 0.027098993
0.44687715 -0.046919823 0.027078582
0.44647518 -0.047429483 0.027058173
0.4460732 -0.047939144 0.027037762
0.4456712 -0.048448816 0.027017353
0.44474638 -0.048186548 0.027465114
0.44434506 -0.048695367 0.027444737
0.44394374 -0.049204186 0.027424362
0.44354242 -0.049713004 0.027403986
0.4431411 -0.050221819 0.027383611
0.44273978 -0.050730638 0.027363233
0.44233847 -0.051239457 0.027342858
0.44193715 -0.051748276 0.027322482
0.4410184 -0.051478431 0.027770523
0.44061774 -0.051986407 0.027750181
0.44021711 -0.052494373 0.027729839
0.43981645 -0.05300235 0.027709497
0.43941578 -0.053510316 0.027689155
0.43901515 -0.054018293 0.027668813
0.43810105 -0.053742513 0.02811709
0.43770108 -0.054249648 0.028096782
0.43730107 -0.054756772 0.028076474
0.43638965 -0.05447761 0.028524889
0.43599036 -0.05498388 0.028504614
0.43559104 -0.055490162 0.028484341
0.43468225 -0.05520758 0.028932914
0.43428358 -0.055713009 0.028912675
0.43388495 -0.056218453 0.028892433
0.43297887 -0.055932511 0.029341118
0.43258089 -0.056437097 0.029320912
0.43167681 -0.056148622 0.029769698
0.43077406 -0.055858452 0.030218553
0.43037742 -0.056361347 0.030198416
0.42947668 -0.05606864 0.030647371
0.42908072 -0.056570679 0.030627266
0.42818192 -0.056275405 0.031076351
0.42778662 -0.056776602 0.031056279
0.4268899 -0.05647881 0.031505436
0.42649525 -0.056979168 0.031485401
0.42610061 -0.057479512 0.031465363
0.42570597 -0.057979871 0.031445328
0.42481259 -0.057677846 0.031894658
0.4244186 -0.058177352 0.031874653
0.42402464 -0.058676854 0.031854652
0.42363065 -0.059176371 0.031834647
0.42274061 -0.058870118 0.032284144
0.42234731 -0.059368767 0.032264177
0.42195401 -0.05986743 0.032244209
0.4215607 -0.06036609 0.032224238
0.42116737 -0.060864754 0.03220427
0.4207741 -0.061363403 0.032184303
0.42038077 -0.061862066 0.032164332
0.41998747 -0.062360726 0.032144364
0.41959417 -0.062859386 0.032124393
0.41920087 -0.063358039 0.032104425
0.41880757 -0.063856699 0.032084454
0.41841426 -0.064355366 0.032064486
0.41802096 -0.064854026 0.032044519
0.41762766 -0.065352678 0.032024547
0.41723436 -0.065851338 0.03200458
0.41684103 -0.066349998 0.031984609
0.41644773 -0.066848658 0.031964641
0.41605443 -0.067347325 0.031944674
0.41566113 -0.06784597 0.031924702
0.4147844 -0.067522749 0.032374904
0.41439176 -0.068020575 0.03235497
0.41399911 -0.068518378 0.032335036
0.41312507 -0.068191811 0.032785345
0.41273311 -0.068688773 0.032765444
0.41186109 -0.068359666 0.033215858
0.41146979 -0.068855777 0.033195991
0.41107848 -0.069351897 0.033176124
0.41068718 -0.069848023 0.033156257
0.4098185 -0.069514677 0.033606842
0.40942785 -0.070009947 0.033587009
0.40856117 -0.069674067 0.034037691
0.40817121 -0.070168488 0.034017894
0.40778124 -0.070662916 0.033998094
0.40691718 -0.070323616 0.03444894
0.40652791 -0.070817187 0.034429174
0.4061386 -0.071310766 0.034409411
0.40574929 -0.071804345 0.034389645
0.40488863 -0.071460843 0.034840632
0.40450001 -0.071953565 0.034820899
0.40364131 -0.07160753 0.035271995
0.40325338 -0.07209941 0.035252295
0.40239671 -0.071750827 0.035703488
0.4020094 -0.072241865 0.035683826
0.40162212 -0.072732911 0.03566416
0.40123481 -0.073223948 0.035644498
0.40038148 -0.072871134 0.036095861
0.39952946 -0.07251659 0.036547314
0.39914349 -0.073005937 0.036527719
0.3982935 -0.072648875 0.036979251
0.39790821 -0.07313738 0.036959689
0.39706022 -0.072777785 0.037411325
0.39667559 -0.073265433 0.037391797
0.39582959 -0.072903328 0.037843533
