# .PCD v0.7 - Point Cloud Data file format
VERSION 0.7
FIELDS x y z
SIZE 4 4 4
TYPE F F F
COUNT 1 1 1
WIDTH 1400
HEIGHT 1
VIEWPOINT 0 0 0 1 0 0 0
POINTS 1400
DATA ascii
0.68567759 0.093465224 0.025921013
0.68593895 0.094322011 0.025909999
0.68698817 0.094623238 0.026345648
0.68724918 0.095478974 0.026334647
0.68751025 0.096334733 0.026323644
0.68777132 0.097190499 0.026312642
0.68803239 0.098046236 0.026301641
0.6882934 0.098902002 0.026290638
0.68855447 0.099757738 0.026279638
0.68881553 0.1006135 0.026268637
0.6890766 0.10146926 0.026257634
0.68933761 0.102325 0.026246633
0.68959868 0.10318077 0.026235631
0.68985975 0.1040365 0.02622463
0.69090492 0.10432429 0.026660452
0.69116563 0.105179 0.026649464
0.69220984 0.10546371 0.02708531
0.6932534 0.10574633 0.027521184
0.69351351 0.10659899 0.027510222
0.69377357 0.10745165 0.02749926
0.69403368 0.10830428 0.027488299
0.6942938 0.10915694 0.027477337
0.69455391 0.1100096 0.027466375
0.69481403 0.11086226 0.027455412
0.69507414 0.11171488 0.027444452
0.69533426 0.11256755 0.027433489
0.69559431 0.11342021 0.027422527
0.69585443 0.11427287 0.027411565
0.69611454 0.1151255 0.027400604
0.69637465 0.11597816 0.027389642
0.69663477 0.11683082 0.02737868
0.69689488 0.11768348 0.027367719
0.697155 0.11853611 0.027356757
0.69819319 0.11880119 0.027792869
0.69845295 0.11965279 0.027781922
0.69871277 0.12050443 0.027770974
0.69897252 0.12135603 0.027760025
0.69923234 0.12220767 0.027749076
0.6994921 0.12305927 0.027738128
0.69975191 0.12391091 0.027727179
0.70001173 0.12476251 0.027716231
0.70027149 0.12561415 0.027705282
0.69975603 0.12706265 0.027247138
0.70001614 0.12791528 0.027236177
0.70027626 0.12876794 0.027225215
0.70053637 0.1296206 0.027214251
0.70079648 0.13047326 0.02720329
0.70105654 0.13132589 0.027192328
0.70054334 0.13278165 0.026734106
0.70003074 0.13423949 0.026275856
0.70029145 0.1350942 0.026264869
0.70055217 0.13594891 0.026253879
0.70081294 0.13680363 0.026242891
0.70107365 0.13765836 0.026231904
0.70056289 0.13912237 0.025773559
0.7008239 0.13997813 0.025762558
0.70031416 0.14144522 0.025304174
0.70057553 0.14230202 0.025293158
0.70006669 0.14377227 0.024834735
0.6995585 0.14524452 0.024376301
0.6990509 0.14671889 0.023917824
0.69777465 0.14881185 0.023011887
0.69649976 0.15090893 0.022105899
0.69522601 0.15301016 0.021199841
0.69395363 0.15511553 0.020293759
0.69345045 0.15660433 0.019835098
0.63885099 0.08035358 0.0053955261
0.63992769 0.080745846 0.0058310418
0.64260542 0.080111973 0.0071608666
0.64287972 0.081011124 0.0071493071
0.64235383 0.082424402 0.006690579
0.64342833 0.082809448 0.0071261874
0.64450222 0.083192401 0.0075618378
0.64477623 0.084090516 0.0075502913
0.64584911 0.084470399 0.0079859802
0.64692146 0.08484821 0.0084216818
0.64799309 0.085223928 0.0088574104
0.64986217 0.085076243 0.0097404411
0.65093225 0.085446797 0.010176236
0.65200168 0.085815296 0.010612071
0.65386766 0.085657276 0.011495234
0.65493548 0.086020604 0.011931136
0.65759557 0.085328825 0.013261692
0.65866166 0.085685946 0.013697688
0.6589312 0.086569607 0.013686327
0.6607917 0.086394012 0.014569717
0.662651 0.086214267 0.015453145
0.66371417 0.08656209 0.015889233
0.66557121 0.086375132 0.016772768
0.66663277 0.086717814 0.017208921
0.66769379 0.087058388 0.01764513
0.66954768 0.086861104 0.018528769
0.67060703 0.087196529 0.01896503
0.67166579 0.087529883 0.019401303
0.67272395 0.087861173 0.019837616
0.67378139 0.088190399 0.020273957
0.67563027 0.087976567 0.021157809
0.67668623 0.088300608 0.021594217
0.67774147 0.0886226 0.02203065
0.67879611 0.088942543 0.022467095
0.6798501 0.089260407 0.022903582
0.68090349 0.089576185 0.02334008
0.68195629 0.089889899 0.023776606
0.68300837 0.090201557 0.024213158
0.68327039 0.091060422 0.024202116
0.68432152 0.091368973 0.024638724
0.68458325 0.092226788 0.024627695
0.68563348 0.092532262 0.025064327
0.68589485 0.093389049 0.025053311
0.68694407 0.093691386 0.025489982
0.68720514 0.094547153 0.025478981
0.68825352 0.094846375 0.025915721
0.68851429 0.095701113 0.025904734
0.688775 0.096555822 0.025893744
0.68903571 0.09741053 0.025882756
0.68929648 0.098265268 0.025871769
0.68955719 0.099119984 0.025860779
0.68981797 0.099974692 0.025849791
0.69007868 0.10082943 0.025838803
0.69033945 0.10168414 0.025827814
0.69060016 0.10253885 0.025816826
0.69086087 0.10339356 0.025805838
0.69112164 0.1042483 0.025794849
0.69216585 0.10453412 0.026231719
0.69320947 0.10481786 0.026668629
0.69346958 0.10567052 0.026657667
0.6937297 0.10652318 0.026646705
0.69398981 0.10737584 0.026635744
0.69424987 0.10822847 0.026624782
0.69450998 0.10908113 0.02661382
0.6947701 0.10993379 0.026602859
0.69581121 0.11020927 0.027039889
0.69607097 0.11106091 0.027028941
0.69633079 0.11191251 0.027017992
0.69659054 0.11276415 0.027007043
0.69685036 0.11361575 0.026996095
0.69711018 0.11446739 0.026985146
0.69736993 0.11531899 0.026974197
0.69762975 0.11617063 0.026963249
0.69788951 0.11702223 0.0269523
0.69814932 0.11787384 0.026941352
0.69840908 0.11872547 0.026930403
0.6986689 0.11957708 0.026919454
0.69892865 0.12042872 0.026908506
0.69996542 0.12068968 0.027345724
0.70022488 0.12154026 0.027334789
0.70048434 0.12239084 0.027323855
0.70074385 0.12324145 0.027312919
0.70100331 0.12409203 0.027301984
0.70048743 0.12553844 0.026842816
0.70074719 0.12639004 0.026831867
0.70100701 0.12724164 0.026820919
0.70126683 0.12809329 0.02680997
0.70152658 0.12894489 0.026799021
0.7017864 0.12979652 0.026788073
0.70127279 0.13125008 0.026328811
0.70075977 0.13270575 0.025869539
0.70102018 0.13355944 0.025858564
0.70128065 0.13441312 0.02584759
0.70154107 0.13526681 0.025836613
0.70102966 0.13672763 0.025377288
0.70129037 0.13758236 0.025366301
0.70077986 0.13904628 0.024906892
0.70104092 0.13990206 0.02489589
0.70053142 0.14136906 0.024436472
0.70079279 0.14222585 0.024425456
0.69951427 0.14430933 0.02351754
0.69977629 0.14516817 0.023506498
0.69849962 0.14725788 0.022598514
0.69645524 0.14996812 0.021241982
0.69595015 0.15144959 0.020782363
0.69390893 0.1541702 0.019425709
0.69263762 0.15627745 0.018517472
0.69136763 0.15838879 0.017609196
0.64285666 0.083244562 0.0057673412
0.64313132 0.084144756 0.0057557682
0.64420491 0.084527828 0.0061924532
0.64527792 0.084908798 0.0066291802
0.64635026 0.085287727 0.0070659183
0.64742196 0.085664593 0.0075026834
0.6492908 0.085518114 0.0083877714
0.64956349 0.086412117 0.008376278
0.65143049 0.086259432 0.0092614759
0.65329617 0.086102635 0.010146726
0.65436411 0.086467065 0.010583666
0.65702379 0.085776597 0.011917358
0.65729398 0.086662322 0.011905971
0.65756416 0.087548055 0.011894584
0.66022003 0.086845167 0.013228465
0.6620791 0.086666666 0.014113965
0.66314232 0.087015592 0.014551104
0.66499919 0.086829856 0.015436726
0.66685474 0.086639985 0.016322387
0.66791546 0.086980656 0.016759632
0.66897553 0.08731927 0.017196875
0.67082793 0.087119065 0.018082667
0.67188644 0.087452516 0.01851999
0.67294431 0.087783895 0.018957356
0.67400151 0.088113211 0.019394731
0.67584985 0.087899566 0.020280683
0.67690551 0.088223696 0.020718141
0.67875165 0.088002831 0.021604216
0.6798057 0.088321812 0.022041725
0.68085915 0.088638723 0.02247926
0.681912 0.08895357 0.022916822
0.68296415 0.089266345 0.023354411
0.68401569 0.089577064 0.023792027
0.68427736 0.090434894 0.023780998
0.68453908 0.091292709 0.023769969
0.68558931 0.091599293 0.024207639
0.68663895 0.091903806 0.024645334
0.68690002 0.092759542 0.024634331
0.68794876 0.093060963 0.025072081
0.68820953 0.093915671 0.025061093
0.68847024 0.094770379 0.025050106
0.68873101 0.095625117 0.025039116
0.68899173 0.096479833 0.025028128
0.68925244 0.097334541 0.02501714
0.68951321 0.098189279 0.025006151
0.68977392 0.099043988 0.024995163
0.69003469 0.099898703 0.024984173
0.6902954 0.10075344 0.024973186
0.69055617 0.10160815 0.024962198
0.6916011 0.10189717 0.025400078
0.69186151 0.10275085 0.025389101
0.69212192 0.10360453 0.025378127
0.69316554 0.10388942 0.025816074
0.69342566 0.10474206 0.025805112
0.69446838 0.10502387 0.0262431
0.6947282 0.10587547 0.026232151
0.69498795 0.10672711 0.026221203
0.69446611 0.10815267 0.025761265
0.69550753 0.10843032 0.026199305
0.69576734 0.10928195 0.026188357
0.6960271 0.11013356 0.026177408
0.69628692 0.11098519 0.02616646
0.69654673 0.1118368 0.026155511
0.69680649 0.11268843 0.026144562
0.69706631 0.11354004 0.026133614
0.69732606 0.11439167 0.026122665
0.69758588 0.11524328 0.026111716
0.6978457 0.11609491 0.026100768
0.69810545 0.11694652 0.026089819
0.69836527 0.11779813 0.026078871
0.69862503 0.11864976 0.026067922
0.69888484 0.11950137 0.026056975
0.69992161 0.11976351 0.026495242
0.70018107 0.12061406 0.026484309
0.70044053 0.12146464 0.026473373
0.70069999 0.12231522 0.026462438
0.7009595 0.12316583 0.026451502
0.70121896 0.12401641 0.026440566
0.70070338 0.12546273 0.025980335
0.70096314 0.12631433 0.025969386
0.70122296 0.12716593 0.025958437
0.70148271 0.12801756 0.025947489
0.70174253 0.12886918 0.02593654
0.70200235 0.12972081 0.025925592
0.70148897 0.13117428 0.025465295
0.70097625 0.13262986 0.025004972
0.70123667 0.13348353 0.024993997
0.70149708 0.13433722 0.024983022
0.70175749 0.1351909 0.024972048
0.70124638 0.13665164 0.024511673
0.70073581 0.13811447 0.024051242
0.70099688 0.1389702 0.024040239
0.70048726 0.14043608 0.023579784
0.70074862 0.14129288 0.023568768
0.70100999 0.14214967 0.023557754
0.69973207 0.14423297 0.02264775
0.69999403 0.1450918 0.02263671
0.69871789 0.14718133 0.021726625
0.69667435 0.1498913 0.020366956
0.6961695 0.15137269 0.019906286
0.69412905 0.15409301 0.018546483
0.69285828 0.15620008 0.017636159
0.69158876 0.15831123 0.016725799
0.6447072 0.085347041 0.0052702785
0.64577961 0.085727073 0.0057080691
0.64685142 0.086105056 0.0061458708
0.64792252 0.08648099 0.0065836846
0.64899302 0.086854845 0.0070215394
0.65085983 0.086703382 0.0079088099
0.65192872 0.087072052 0.0083467318
0.65299702 0.087438673 0.0087846797
0.65486068 0.087276876 0.009672082
0.65672296 0.087110959 0.010559523
0.65778875 0.087469302 0.010997578
0.65805894 0.088355027 0.01098619
0.66150773 0.087118834 0.012772729
0.66257095 0.087468937 0.013210875
0.66442764 0.087284379 0.014098585
0.66628301 0.087095723 0.014986319
0.66734374 0.087437548 0.015424585
0.66919696 0.087241627 0.016312426
0.67025614 0.087578282 0.01675076
0.67131466 0.087912865 0.017189106
0.67316473 0.087706618 0.018077094
0.67422163 0.088036031 0.01851552
0.67606944 0.087822564 0.019403573
0.67712486 0.088146791 0.019842066
0.67897046 0.087926105 0.020730225
0.68002427 0.088245176 0.021168785
0.68107742 0.088562183 0.021607371
0.68213004 0.088877119 0.022045983
0.68318194 0.089189984 0.022484608
0.68423319 0.089500792 0.022923274
0.68449491 0.090358622 0.022912245
0.68554521 0.090666331 0.02335095
0.6865949 0.090971962 0.023789683
0.68685597 0.091827728 0.023778681
0.68790478 0.092130229 0.024217468
0.68816549 0.092984974 0.024206478
0.68921334 0.093284421 0.024645276
0.68947375 0.094138101 0.024634302
0.68973416 0.094991788 0.024623325
0.68999457 0.095845476 0.02461235
0.69025499 0.096699156 0.024601376
0.6905154 0.097552843 0.024590401
0.69077581 0.098406531 0.024579426
0.69103628 0.099260211 0.02456845
0.6912967 0.1001139 0.024557475
0.69155711 0.10096759 0.0245465
0.69260144 0.10125564 0.024985444
0.69286156 0.1021083 0.024974482
0.69312167 0.10296096 0.02496352
0.69416475 0.10324491 0.025402531
0.69442451 0.10409652 0.025391582
0.69468433 0.10494815 0.025380634
0.69494408 0.10579976 0.025369685
0.6952039 0.10665139 0.025358737
0.69546372 0.107503 0.025347788
0.69572347 0.10835461 0.025336839
0.69598329 0.10920624 0.025325891
0.69624305 0.11005785 0.025314942
0.69650286 0.11090948 0.025303993
0.69676262 0.11176109 0.025293045
0.69702244 0.11261272 0.025282096
0.6972822 0.11346433 0.025271147
0.69754201 0.11431596 0.025260199
0.69780183 0.11516757 0.02524925
0.69806159 0.1160192 0.025238302
0.6983214 0.11687081 0.025227353
0.69858116 0.11772241 0.025216404
0.69884098 0.11857405 0.025205456
0.6998778 0.11883727 0.025644748
0.70013726 0.11968789 0.025633812
0.70117307 0.11994803 0.02607313
0.70143223 0.12079758 0.026062207
0.70091569 0.1222396 0.025601007
0.70117515 0.12309021 0.025590071
0.70143467 0.12394079 0.025579136
0.70091933 0.125387 0.025117867
0.70117909 0.12623861 0.02510692
0.7014389 0.12709022 0.025095971
0.70169866 0.12794185 0.025085023
0.70195848 0.12879346 0.025074074
0.70221823 0.12964509 0.025063125
0.70170516 0.13109846 0.024601778
0.70119268 0.13255395 0.024140419
0.70145315 0.13340764 0.024129445
0.70171356 0.13426133 0.02411847
0.70197397 0.13511501 0.024107495
0.7014631 0.13657565 0.02364607
0.70095277 0.13803838 0.023184588
0.70121384 0.13889413 0.023173587
0.70070451 0.14035991 0.022712082
0.70096588 0.14121671 0.022701066
0.70045751 0.14268564 0.022239519
0.69918036 0.14476974 0.021327417
0.69944268 0.14562964 0.021316363
0.69893616 0.1471048 0.020854736
0.69612497 0.15043072 0.019041333
0.69485247 0.15253037 0.018129015
0.69281346 0.15525249 0.016766036
0.69154388 0.1573614 0.015853615
0.69027555 0.15947448 0.014941141
0.64735252 0.086922392 0.0052258088
0.64842308 0.087297395 0.0056647006
0.64949304 0.087670296 0.0061036046
0.65056229 0.088041142 0.006542535
0.65163106 0.088409901 0.0069815074
0.65349472 0.088250361 0.0078709833
0.65535718 0.08808668 0.0087605137
0.65801328 0.087390557 0.010100571
0.65907818 0.087746933 0.010539688
0.66093689 0.087570846 0.011429378
0.66200018 0.087922052 0.011868575
0.66385669 0.08773873 0.012758343
0.66491836 0.088084765 0.013197607
0.6667726 0.087894224 0.014087467
0.66862559 0.08769954 0.014977396
0.67047727 0.087500729 0.015867349
0.67153555 0.087835401 0.016306758
0.67259318 0.088167995 0.01674618
0.67444175 0.087958843 0.017636308
0.67628908 0.087745562 0.018526448
0.6781351 0.087528124 0.019416669
0.67918926 0.087849379 0.019856252
0.68024284 0.088168539 0.020295845
0.68129575 0.088485643 0.020735482
0.68234807 0.088800669 0.021175131
0.68339968 0.089113623 0.02161482
0.6836617 0.089972481 0.021603778
0.68471241 0.090282358 0.022043508
0.68576247 0.090590157 0.022483248
0.68681186 0.090895876 0.02292303
0.68786073 0.091199532 0.02336284
0.68890893 0.091501147 0.02380266
0.68916935 0.092354834 0.023791684
0.68942976 0.093208522 0.023780709
0.68969017 0.094062202 0.023769734
0.68995059 0.094915889 0.02375876
0.69099689 0.095211275 0.024198674
0.691257 0.096063934 0.024187712
0.69151711 0.096916594 0.02417675
0.69177723 0.097769223 0.024165789
0.69203734 0.098621882 0.024154827
0.6922974 0.099474542 0.024143865
0.69255751 0.1003272 0.024132904
0.69360131 0.10061432 0.024572909
0.69386107 0.10146596 0.02456196
0.69412088 0.10231756 0.024551012
0.69438064 0.1031692 0.024540063
0.69542289 0.10345112 0.024980167
0.69568241 0.10430173 0.024969231
0.69594187 0.10515231 0.024958296
0.69620132 0.10600289 0.02494736
0.69646078 0.10685347 0.024936426
0.6967203 0.10770405 0.024925491
0.69697976 0.10855463 0.024914555
0.69723922 0.10940524 0.02490362
0.69671881 0.11083376 0.024441527
0.69697857 0.11168537 0.024430579
0.69723839 0.112537 0.02441963
0.69749814 0.11338861 0.024408681
0.69775796 0.11424024 0.024397733
0.69801772 0.11509185 0.024386784
0.69827753 0.11594348 0.024375835
0.69853735 0.11679509 0.024364887
0.69879711 0.11764669 0.024353938
0.69905692 0.11849833 0.02434299
0.70009345 0.11876165 0.024783332
0.70035297 0.11961226 0.024772396
0.70138848 0.1198725 0.025212748
0.70164764 0.12072206 0.025201827
0.7019068 0.12157161 0.025190905
0.70216596 0.12242117 0.025179982
0.70165032 0.12386516 0.02471772
0.70190978 0.12471575 0.024706785
0.70216924 0.12556633 0.024695849
0.70242876 0.12641691 0.024684915
0.70191461 0.12786613 0.024222555
0.70217443 0.12871774 0.024211608
0.70243418 0.12956938 0.024200657
0.70192134 0.13102266 0.023738276
0.70218146 0.13187532 0.023727315
0.70166957 0.13333175 0.023264877
0.70192999 0.13418542 0.023253903
0.70141906 0.13564494 0.022791442
0.70167983 0.13649966 0.022780452
0.70116979 0.1379623 0.022317935
0.70066041 0.13942695 0.021855393
0.70092177 0.14028373 0.021844378
0.70041335 0.14175156 0.02138181
0.69990557 0.14322138 0.0209192
0.6993984 0.1446933 0.020456566
0.69889188 0.14616734 0.019993916
0.69608039 0.14948876 0.018176379
0.69634432 0.15035382 0.018165257
0.69353658 0.15368766 0.016347576
0.69149894 0.15641156 0.014981418
0.69023049 0.15852238 0.014066884
0.68896329 0.16063738 0.013152269
0.649993 0.088485748 0.0051856693
0.65026599 0.089380771 0.0051741628
0.65212983 0.089223467 0.0060656993
0.65319729 0.089589231 0.0065057464
0.65505886 0.089424722 0.0073973746
0.65930253 0.087668277 0.0096437326
0.65957242 0.088552959 0.0096323583
0.6622237 0.087843671 0.010975755
0.66328615 0.088192917 0.011416
0.66514117 0.08800666 0.012307923
0.66620195 0.088350736 0.012748249
0.6680547 0.088157281 0.013640249
0.66990626 0.087959662 0.014532304
0.6709646 0.088295475 0.014972736
0.67281383 0.088090628 0.015864883
0.67466193 0.087881655 0.016757084
0.67650867 0.08766856 0.017649323
0.6783542 0.087451302 0.018541643
0.68019843 0.087229952 0.019434003
0.68125141 0.087548181 0.01987466
0.68230379 0.087864324 0.020315347
0.68335545 0.088178411 0.020756073
0.68440652 0.088490434 0.021196811
0.68466824 0.089348264 0.021185782
0.68571836 0.089657195 0.02162656
0.68676782 0.089964062 0.022067379
0.68781674 0.090268828 0.022508224
0.68886495 0.090571567 0.022949068
0.68991256 0.090872221 0.023389967
0.69017267 0.091724858 0.023379005
0.69043279 0.092577517 0.023368044
0.6906929 0.093430176 0.02335708
0.69095296 0.094282806 0.023346119
0.69121307 0.095135465 0.023335157
0.69147319 0.095988125 0.023324195
0.69251829 0.096280523 0.023765186
0.69277805 0.097132154 0.023754237
0.69303787 0.097983763 0.023743289
0.69329762 0.098835364 0.02373234
0.69355744 0.099687003 0.023721391
0.6938172 0.1005386 0.023710443
0.69407701 0.10139024 0.023699494
0.69433683 0.10224184 0.023688545
0.69537908 0.10252491 0.024129672
0.6956386 0.10337549 0.024118736
0.69589806 0.1042261 0.024107801
0.69615752 0.10507669 0.024096865
0.69641703 0.10592727 0.02408593
0.69667649 0.10677785 0.024074994
0.69693595 0.10762843 0.02406406
0.69719541 0.10847901 0.024053125
0.69745493 0.10932962 0.024042189
0.6969347 0.11075805 0.023579061
0.69719452 0.11160965 0.023568112
0.69745433 0.11246129 0.023557164
0.69771409 0.11331289 0.023546215
0.69797391 0.11416453 0.023535267
0.69823366 0.11501613 0.023524318
0.69849348 0.11586777 0.023513369
0.69953072 0.11613429 0.023954706
0.69979018 0.11698487 0.023943771
0.70004964 0.11783545 0.023932837
0.70108557 0.11809786 0.024374226
0.70134473 0.11894742 0.024363305
0.70160389 0.11979697 0.024352383
0.70186305 0.12064652 0.02434146
0.70212221 0.12149608 0.024330538
0.70238137 0.12234563 0.024319617
0.70186597 0.12378954 0.02385629
0.70212549 0.12464012 0.023845354
0.70238495 0.1254907 0.023834419
0.70264441 0.12634128 0.023823483
0.70213056 0.12779042 0.023360088
0.70239031 0.12864202 0.02334914
0.70265013 0.12949365 0.023338191
0.70213753 0.13094686 0.02287476
0.70239764 0.13179952 0.022863798
0.70188606 0.13325584 0.022400312
0.70214647 0.13410953 0.022389336
0.70163578 0.13556896 0.021925839
0.70189655 0.13642366 0.021914851
0.70138675 0.13788623 0.021451283
0.70087767 0.13935077 0.020987689
0.70113903 0.14020756 0.020976676
0.69986135 0.14228618 0.020060454
0.69935411 0.14375696 0.019596782
0.69884753 0.14522988 0.019133095
0.69603586 0.14854679 0.017311426
0.69476318 0.15064193 0.016394977
0.69349182 0.15274121 0.015478488
0.69222164 0.15484463 0.014561918
0.69018549 0.15757029 0.013192628
0.68815118 0.16030221 0.011823229
0.68535209 0.16366048 0.010001041
0.65290105 0.09093 0.0051383963
0.65555596 0.090235464 0.0064847423
0.65820903 0.089534707 0.0078311544
0.65847951 0.090421475 0.0078197541
0.65954328 0.090775967 0.008260997
0.66219223 0.090061769 0.0096075963
0.66563189 0.088807046 0.011406945
0.6674844 0.088614814 0.012301018
0.6685437 0.088954836 0.012742448
0.67039412 0.088755339 0.013636615
0.67224318 0.088551737 0.014530848
0.67488205 0.087804474 0.015877873
0.67672825 0.087591559 0.016772198
0.67857331 0.087374486 0.017666619
0.680417 0.087153316 0.018561063
0.6822595 0.086927995 0.019455563
0.68331122 0.087243199 0.01989731
0.68436235 0.087556355 0.020339087
0.68541282 0.087867454 0.020780887
0.68567419 0.088724233 0.020769872
0.68672377 0.08903221 0.021211714
0.68777269 0.089338101 0.021653611
0.68882102 0.089641981 0.02209549
0.68986863 0.089943759 0.022537412
0.69012874 0.090796418 0.02252645
0.69038886 0.091649048 0.022515489
0.69064897 0.092501707 0.022504527
0.69090909 0.093354367 0.022493564
0.69195485 0.093649961 0.022935566
0.69221461 0.09450157 0.022924617
0.69247442 0.095353201 0.022913668
0.69273418 0.09620481 0.02290272
0.692994 0.097056441 0.022891771
0.69325382 0.09790805 0.022880822
0.69351357 0.098759651 0.022869874
0.69377339 0.09961129 0.022858925
0.69403315 0.10046289 0.022847977
0.69429296 0.10131453 0.022837028
0.69455272 0.10216613 0.022826079
0.69559479 0.10244929 0.023268254
0.69585425 0.10329987 0.023257319
0.69611371 0.10415048 0.023246383
0.69637322 0.10500106 0.02323545
0.69663268 0.10585164 0.023224514
0.69689214 0.10670222 0.023213578
0.6971516 0.1075528 0.023202643
0.69741112 0.10840338 0.023191707
0.69767058 0.109254 0.023180772
0.69793004 0.11010458 0.023169838
0.69818956 0.11095516 0.023158902
0.69844902 0.11180574 0.023147967
0.69870847 0.11265632 0.023137031
0.69896793 0.1135069 0.023126096
0.69922745 0.1143575 0.02311516
0.69948691 0.11520808 0.023104226
0.7005235 0.11547369 0.023546612
0.70078272 0.11632325 0.023535689
0.70104188 0.1171728 0.023524767
0.70130098 0.11802232 0.023513846
0.70156014 0.11887188 0.023502924
0.7018193 0.11972144 0.023492003
0.70285374 0.11997984 0.02393448
0.7031126 0.12082834 0.023923572
0.70259678 0.1222701 0.023459235
0.70285594 0.12311966 0.023448315
0.70311511 0.12396921 0.023437392
0.7026006 0.12541509 0.022973003
0.70286012 0.12626566 0.022962067
0.70311958 0.12711625 0.022951132
0.70260626 0.12856631 0.022486674
0.70286608 0.12941794 0.022475725
0.70235378 0.13087104 0.022011243
0.70261383 0.1317237 0.022000281
0.70210248 0.13317995 0.021535758
0.70236295 0.13403362 0.021524783
0.7018525 0.13549297 0.021060236
0.7013427 0.13695437 0.020595618
0.7008335 0.13841784 0.020131001
0.70109487 0.1392746 0.020119987
0.70058668 0.1407412 0.019655332
0.69930989 0.14282064 0.018736996
0.69880319 0.14429241 0.018272273
0.6982972 0.14576618 0.017807527
0.69548684 0.14908381 0.015981641
0.69344705 0.15179472 0.014609401
0.69217676 0.1538959 0.013690772
0.69090784 0.1560012 0.01277209
0.68887305 0.15872867 0.011399622
0.68684018 0.16146235 0.010027075
0.68404275 0.16482234 0.0082006603
0.65632451 0.091936074 0.0055606551
0.65659595 0.092825934 0.0055492148
0.65686744 0.093715787 0.0055377749
0.66189295 0.091400176 0.0082486728
0.66374654 0.091213264 0.0091447653
0.667974 0.089413308 0.011402167
0.66982418 0.089215048 0.012298436
0.671673 0.089012653 0.013194713
0.67510217 0.087727286 0.014998661
0.67694789 0.087514557 0.015895072
0.67958248 0.086756214 0.017245391
0.68142533 0.08653418 0.018141951
0.68247753 0.086851545 0.018584725
0.68431818 0.086622275 0.019481376
0.68536872 0.086934492 0.019924199
0.68563008 0.087791279 0.019913184
0.68667966 0.088100381 0.020356063
0.6877287 0.088407397 0.020798983
0.68798941 0.089262113 0.020787993
0.68903744 0.089566082 0.021230923
0.69008487 0.089867949 0.021673895
0.69034493 0.090720609 0.021662934
0.69060504 0.091573238 0.021651972
0.69086516 0.092425898 0.02164101
0.69112527 0.093278557 0.021630047
0.6921708 0.093574248 0.022073099
0.69243056 0.09442585 0.022062151
0.69269037 0.095277488 0.022051202
0.69295013 0.09612909 0.022040254
0.69320995 0.096980728 0.022029305
0.6934697 0.09783233 0.022018356
0.69372952 0.098683938 0.022007408
0.69398934 0.09953557 0.021996459
0.69424909 0.10038718 0.02198551
0.69529152 0.10067251 0.022428708
0.69555098 0.10152309 0.022417774
0.69659239 0.10180533 0.022860996
0.69685155 0.10265489 0.022850076
0.69711065 0.10350441 0.022839153
0.69736981 0.10435397 0.022828232
0.69762897 0.10520352 0.02281731
0.69788814 0.10605308 0.022806387
0.6981473 0.10690264 0.022795465
0.69840652 0.10775219 0.022784544
0.69866568 0.10860175 0.022773622
0.69892484 0.1094513 0.022762699
0.699184 0.11030085 0.022751777
0.6994431 0.11115038 0.022740856
0.69970226 0.11199994 0.022729933
0.69996142 0.1128495 0.022719011
0.70022058 0.11369905 0.02270809
0.70047975 0.1145486 0.022697167
0.70073891 0.11539816 0.022686245
0.70099807 0.11624771 0.022675324
0.70125723 0.11709727 0.022664402
0.70229232 0.11735883 0.023107877
0.70255119 0.11820737 0.023096967
0.70281005 0.11905587 0.02308606
0.70306891 0.11990439 0.02307515
0.70332772 0.12075289 0.023064243
0.70281219 0.12219457 0.02259887
0.70307136 0.12304413 0.022587948
0.70333052 0.12389369 0.022577025
0.70281631 0.12533946 0.022111585
0.70307577 0.12619004 0.022100652
0.70333523 0.12704062 0.022089716
0.70282221 0.1284906 0.021624207
0.70308203 0.12934223 0.021613259
0.70334178 0.13019384 0.02160231
0.70283008 0.1316479 0.021136764
0.70231897 0.13310404 0.020671193
0.70257938 0.13395773 0.020660218
0.70206922 0.13541697 0.020194618
0.70155966 0.1368783 0.019728964
0.70105076 0.13834167 0.019263299
0.70054251 0.13980712 0.018797621
0.70003486 0.1412746 0.018331904
0.69875884 0.14335495 0.017411454
0.6982528 0.1448276 0.016945668
0.69697899 0.14691515 0.016025126
0.69570643 0.1490068 0.015104516
0.69289964 0.15233234 0.013274368
0.69086289 0.15505025 0.01189887
0.68959498 0.15715739 0.01097809
0.68756169 0.15988666 0.0096024452
0.68476373 0.16324113 0.0077719246
0.68196827 0.16660386 0.0059412695
0.65894866 0.093458205 0.0055346843
0.66397005 0.091134883 0.0082519455
0.66740477 0.089871615 0.010059787
0.66925472 0.089674585 0.010958112
0.67110342 0.089473367 0.011856492
0.67374128 0.088728748 0.013209761
0.67716748 0.087437555 0.015017961
0.67980129 0.086679496 0.016371418
0.68164366 0.086457632 0.017270062
0.68269557 0.086775094 0.017713884
0.68453568 0.086546004 0.018612623
0.68558598 0.086858317 0.019056497
0.68584734 0.087715104 0.019045481
0.68689668 0.088024296 0.019489409
0.68794543 0.088331409 0.01993338
0.68899351 0.088636488 0.020377332
0.69004095 0.08893948 0.02082134
0.69108772 0.089240417 0.021265374
0.69134754 0.090092048 0.021254426
0.69160736 0.090943657 0.021243477
0.69186711 0.091795288 0.021232529
0.69212693 0.092646897 0.02122158
0.69238669 0.093498528 0.021210631
0.6926465 0.094350137 0.021199683
0.69290626 0.095201768 0.021188734
0.69316608 0.096053377 0.021177787
0.69342589 0.096905008 0.021166837
0.69368565 0.097756617 0.02115589
0.69394547 0.098608226 0.021144941
0.69498819 0.098895721 0.021589149
0.69524771 0.099746302 0.021578213
0.69628948 0.10003069 0.022022462
0.69654864 0.10088024 0.022011539
0.69758946 0.10116155 0.022455826
0.69784826 0.10201006 0.022444917
0.69810712 0.10285859 0.022434009
0.69836599 0.10370712 0.0224231
0.69862479 0.10455562 0.02241219
0.69888365 0.10540415 0.022401283
0.69914252 0.10625265 0.022390373
0.69940138 0.10710118 0.022379465
0.69966018 0.10794971 0.022368556
0.69991904 0.10879821 0.022357648
0.70017791 0.10964674 0.022346739
0.70043671 0.11049524 0.022335829
0.70069557 0.11134377 0.022324922
0.70095444 0.11219227 0.022314012
0.70121324 0.1130408 0.022303104
0.7014721 0.11388934 0.022292195
0.70173097 0.11473783 0.022281287
0.70198983 0.11558636 0.022270378
0.70224863 0.11643486 0.02225947
0.7025075 0.1172834 0.022248561
0.70276636 0.11813193 0.022237651
0.7038002 0.11839048 0.022682216
0.70405877 0.11923792 0.022671321
0.70354289 0.12067746 0.022204926
0.70380175 0.12152599 0.022194017
0.70406055 0.12237452 0.022183107
0.70354593 0.12381815 0.021716645
0.70380509 0.12466767 0.021705722
0.70329142 0.12611441 0.021239221
0.70355093 0.126965 0.021228286
0.70303816 0.12841488 0.020761741
0.70329791 0.12926652 0.020750793
0.70355773 0.13011812 0.020739844
0.70304626 0.1315721 0.020273248
0.70253545 0.13302815 0.019806625
0.70279586 0.13388182 0.019795651
0.70228595 0.13534099 0.019329017
0.70177662 0.13680221 0.018862313
0.70049834 0.13887304 0.017939897
0.69999069 0.1403394 0.017473141
0.69948363 0.14180784 0.017006373
0.69820839 0.14388901 0.01608381
0.69693452 0.14597431 0.015161209
0.69566184 0.1480637 0.01423854
0.69439048 0.15015726 0.013315847
0.69235283 0.15286972 0.011937264
0.69031715 0.15558837 0.010558631
0.68905014 0.15769643 0.0096357074
0.68625134 0.16104428 0.0078010671
0.68345505 0.16440044 0.0059663197
0.66023612 0.093731992 0.0050799837
0.66446251 0.091938101 0.0073477919
0.66947663 0.089596756 0.010071564
0.67132485 0.089395724 0.010972044
0.67396194 0.088651381 0.01232845
0.67738706 0.087360553 0.014140835
0.68002015 0.08660277 0.015497428
0.68186194 0.086381093 0.016398173
0.68370253 0.086155273 0.017298972
0.68554187 0.085925356 0.018199824
0.68659157 0.0862367 0.018644761
0.68685257 0.087092467 0.018633759
0.68790138 0.087400697 0.019078752
0.68894953 0.087706901 0.019523755
0.68999702 0.088011034 0.019968785
0.69104391 0.088313095 0.020413842
0.69130367 0.089164697 0.020402893
0.69234967 0.089463659 0.020848021
0.69260913 0.090314239 0.020837085
0.69286859 0.09116482 0.02082615
0.69312811 0.092015401 0.020815214
0.69338757 0.092865981 0.02080428
0.69364703 0.093716592 0.020793345
0.69390649 0.094567172 0.020782409
0.694166 0.095417753 0.020771474
0.69442546 0.096268333 0.020760538
0.69468492 0.097118914 0.020749602
0.69494438 0.097969495 0.020738669
0.6952039 0.098820098 0.020727733
0.69624573 0.099105604 0.021173002
0.6972869 0.099389084 0.021618312
0.69754577 0.10023759 0.021607405
0.69780457 0.10108612 0.021596495
0.69806343 0.10193462 0.021585587
0.6983223 0.10278315 0.021574678
0.6985811 0.10363168 0.021563768
0.69883996 0.10448018 0.021552861
0.69909883 0.10532871 0.021541951
0.69935763 0.10617721 0.021531044
0.69961649 0.10702574 0.021520134
0.69987535 0.10787427 0.021509225
0.70013422 0.10872277 0.021498317
0.70039302 0.1095713 0.021487407
0.70065188 0.1104198 0.0214765
0.70091075 0.11126833 0.02146559
0.70116955 0.11211684 0.021454683
0.70142841 0.11296536 0.021443773
0.70168728 0.11381389 0.021432865
0.70272249 0.11407769 0.021878414
0.702981 0.11492517 0.021867517
0.7032395 0.11577267 0.021856623
0.70349807 0.11662015 0.021845726
0.70375657 0.11746763 0.021834832
0.70401514 0.11831513 0.021823937
0.70427364 0.11916258 0.021813041
0.70453215 0.12001009 0.021802146
0.70479071 0.12085756 0.02179125
0.70427573 0.12229908 0.021323778
0.70376134 0.12374262 0.020856265
0.7040205 0.12459215 0.020845342
0.70350713 0.12603879 0.020377804
0.70376658 0.12688938 0.020366868
0.7032541 0.12833917 0.01989926
0.70351386 0.1291908 0.019888312
0.70377368 0.1300424 0.019877363
0.70326245 0.13149628 0.019409731
0.70275187 0.13295224 0.018942073
0.70301229 0.13380593 0.018931098
0.70250267 0.13526499 0.018463399
0.70122391 0.13733253 0.017538924
0.70071584 0.13879678 0.017071145
0.70020843 0.14026305 0.016603353
0.69893283 0.14234094 0.015678743
0.69765848 0.1444229 0.014754082
0.69638544 0.14650905 0.013829367
0.6951136 0.14859934 0.012904598
0.69384307 0.15069371 0.011979792
0.69180655 0.15340692 0.01059806
0.68900502 0.15674207 0.0087593915
0.68773919 0.15885197 0.0078343712
0.68494207 0.16220157 0.005995532
0.66468608 0.091859721 0.0064549721
0.66732681 0.091130108 0.0078143282
0.67075598 0.089856185 0.0096307015
0.67418259 0.088574015 0.011447152
0.6776067 0.087283552 0.01326371
0.68102825 0.085984819 0.015080403
0.68286932 0.0857623 0.015983248
0.68470901 0.085535645 0.016886145
0.68654746 0.085304871 0.017789111
0.68680853 0.086160623 0.017778108
0.68785739 0.086469993 0.018224137
0.6889056 0.086777315 0.018670164
0.68916601 0.087631002 0.018659189
0.6902132 0.087935224 0.019105269
0.6912598 0.088237382 0.019551376
0.69230586 0.088537455 0.019997539
0.69256532 0.089388035 0.019986603
0.69282478 0.090238616 0.01997567
0.6930843 0.091089197 0.019964734
0.69334376 0.091939777 0.019953799
0.69360322 0.092790358 0.019942863
0.69386274 0.093640968 0.019931927
0.6941222 0.094491549 0.019920992
0.69516534 0.094782323 0.020367246
0.6954245 0.095631883 0.020356324
0.69568366 0.096481405 0.020345403
0.69594282 0.097330965 0.02033448
0.69620198 0.098180518 0.020323558
0.69646114 0.09903007 0.020312635
0.69750208 0.099313647 0.020758983
0.69776088 0.10016215 0.020748073
0.69801974 0.10101067 0.020737166
0.69827861 0.10185917 0.020726256
0.69853741 0.10270771 0.020715347
0.69879627 0.10355624 0.020704439
0.69905514 0.10440474 0.020693529
0.69931394 0.10525327 0.020682622
0.6995728 0.10610177 0.020671712
0.69983166 0.1069503 0.020660805
0.70009053 0.10779883 0.020649895
0.70034933 0.10864733 0.020638987
0.70060819 0.10949586 0.020628078
0.70086706 0.11034437 0.020617168
0.70112586 0.11119289 0.020606261
0.70216173 0.11145989 0.021052819
0.70242029 0.11230739 0.021041924
0.7026788 0.11315487 0.021031028
0.70371342 0.11341774 0.021477627
0.70397168 0.11426418 0.021466745
0.70422989 0.11511064 0.021455862
0.7044881 0.11595709 0.02144498
0.70474631 0.11680354 0.021434098
0.70500451 0.11764999 0.021423215
0.70526272 0.11849644 0.021412333
0.70552093 0.11934289 0.021401452
0.70500559 0.12078221 0.020932971
0.7044909 0.12222364 0.020464446
0.7047497 0.12307214 0.020453539
0.70423591 0.12451661 0.019984977
0.70372277 0.12596317 0.019516388
0.70398223 0.12681375 0.019505452
0.70346999 0.12826344 0.019036794
0.70372981 0.12911509 0.019025845
0.70398957 0.12996669 0.019014897
0.70347863 0.13142048 0.018546214
0.70296836 0.13287635 0.018077506
0.70245868 0.1343343 0.017608786
0.70194954 0.13579428 0.017140009
0.70144117 0.13725635 0.01667122
0.70093334 0.13872051 0.01620239
0.69965738 0.14079505 0.015275736
0.69838256 0.14287379 0.014349028
0.6971091 0.14495665 0.013422253
0.69583684 0.14704362 0.012495424
0.69456589 0.14913474 0.011568571
0.69252884 0.15184355 0.010183742
0.69049382 0.15455854 0.0087988768
0.68769395 0.15789537 0.0069559817
0.68642926 0.16000718 0.0060288338
0.66675925 0.091588967 0.0064666979
0.67018765 0.090316482 0.0082872296
0.67440325 0.088496648 0.010565841
0.67940509 0.086126387 0.013302573
0.68203586 0.085367076 0.014665464
0.6838761 0.085143715 0.015570422
0.68571496 0.084916219 0.016475432
0.68755263 0.084684566 0.017380511
0.68781334 0.085539281 0.017369524
0.68886161 0.085847735 0.017816572
0.68990922 0.086154111 0.018263675
0.69016933 0.087006755 0.018252714
0.69121599 0.087310046 0.018699858
0.69226205 0.087611236 0.019147044
0.69330746 0.087910384 0.019594241
0.69356662 0.088759936 0.019583318
0.69382578 0.089609459 0.019572398
0.69408494 0.090459019 0.019561475
0.6943441 0.091308571 0.019550553
0.69460326 0.092158131 0.019539632
0.69486243 0.093007684 0.019528709
0.69512159 0.093857236 0.019517787
0.69538075 0.094706796 0.019506866
0.69563991 0.095556349 0.019495944
0.69589907 0.096405879 0.019485021
0.69615823 0.097255431 0.0194741
0.69719952 0.097541146 0.019921469
0.69745833 0.098389678 0.019910561
0.69849873 0.098672286 0.02035797
0.69875723 0.099519759 0.020347076
0.69901574 0.10036724 0.020336179
0.6992743 0.10121474 0.020325284
0.69953281 0.10206222 0.020314388
0.69979137 0.1029097 0.020303493
0.70004988 0.10375717 0.020292599
0.70030838 0.10460468 0.020281702
0.70056695 0.10545215 0.020270808
0.70082545 0.10629963 0.020259911
0.70108402 0.10714713 0.020249017
0.70134252 0.10799461 0.02023812
0.70160103 0.10884208 0.020227225
0.70185959 0.10968959 0.020216329
0.70289522 0.10995667 0.020663925
0.70315343 0.11080313 0.020653043
0.70341164 0.11164958 0.02064216
0.70444608 0.11191255 0.021089837
0.70470393 0.11275794 0.021078968
0.70496184 0.11360337 0.0210681
0.70521975 0.1144488 0.021057231
0.70547765 0.11529423 0.021046363
0.70573556 0.11613962 0.021035494
0.70599347 0.11698505 0.021024624
0.70625132 0.11783047 0.021013755
0.70573556 0.11926764 0.020544222
0.70522046 0.12070686 0.02007469
0.70470601 0.1221482 0.019605117
0.70496488 0.1229967 0.019594207
0.70445132 0.12444108 0.019124595
0.70393848 0.12588754 0.018654957
0.70419794 0.12673813 0.018644022
0.70368594 0.12818773 0.018174328
0.70394576 0.12903938 0.018163379
0.70420551 0.12989098 0.018152431
0.70369482 0.13134468 0.017682698
0.70318478 0.13280044 0.017212939
0.7026754 0.1342583 0.016743183
0.70216656 0.1357182 0.016273355
0.70165837 0.13718018 0.015803518
0.70038199 0.13925149 0.014874802
0.69910675 0.14132692 0.013946034
0.69783288 0.14340645 0.013017213
0.69656026 0.14549018 0.012088338
0.69605643 0.14696662 0.011618298
0.69401866 0.14966998 0.010230443
0.69121581 0.15299302 0.0083835348
0.6891821 0.1557098 0.0069954777
0.68715036 0.1584328 0.0056073414
0.66619211 0.092047684 0.0051169666
0.6688301 0.091314472 0.0064826761
0.67383444 0.088958234 0.0092255063
0.68199158 0.084429614 0.013804642
0.6822542 0.085290536 0.013793575
0.68488234 0.084525295 0.015159681
0.68593222 0.084840044 0.01560773
0.68776935 0.084608577 0.016514895
0.68803012 0.085463285 0.016503906
0.68986529 0.085225642 0.017411122
0.69091231 0.085531093 0.017859289
0.69117212 0.086382709 0.017848341
0.69221824 0.086685017 0.018296562
0.69326371 0.08698529 0.018744783
0.69352287 0.08783485 0.018733861
0.69378203 0.088684402 0.018722938
0.69404119 0.089533933 0.018712018
0.69430035 0.090383485 0.018701095
0.69455951 0.091233045 0.018690173
0.69560272 0.091526084 0.0191385
0.69586158 0.092374615 0.019127591
0.69612044 0.093223117 0.019116683
0.69637924 0.094071642 0.019105773
0.69663811 0.094920173 0.019094864
0.69689697 0.095768675 0.019083956
0.69715583 0.096617207 0.019073047
0.69741464 0.097465709 0.019062139
0.69845504 0.097749434 0.019510586
0.69949484 0.098031111 0.019959031
0.69975305 0.098877557 0.019948147
0.70001125 0.09972401 0.019937266
0.70026946 0.10057046 0.019926384
0.70052767 0.10141692 0.019915501
0.70078588 0.10226336 0.019904619
0.70104414 0.10310981 0.019893738
0.70130235 0.10395627 0.019882854
0.70156056 0.10480271 0.019871973
0.70181876 0.10564917 0.019861091
0.70207697 0.10649562 0.019850209
0.70233518 0.10734207 0.019839326
0.70259339 0.10818852 0.019828444
0.70285159 0.10903497 0.019817563
0.70388675 0.10930113 0.02026625
0.7041446 0.11014654 0.020255381
0.70440251 0.11099196 0.020244513
0.70543629 0.11125398 0.020693237
0.7056939 0.11209836 0.020682381
0.70595145 0.11294276 0.020671526
0.70620906 0.11378713 0.02066067
0.70646662 0.11463153 0.020649815
0.7059499 0.11606446 0.0201793
0.70620781 0.11690988 0.020168431
0.70646572 0.11775531 0.020157561
0.7059502 0.11919238 0.019686976
0.70543534 0.12063152 0.019216409
0.7056939 0.12147899 0.019205514
0.70517999 0.12292126 0.018734878
0.70466673 0.12436555 0.018264215
0.70415413 0.12581192 0.01779354
0.70441359 0.12666251 0.017782606
0.70390189 0.12811202 0.01731186
0.7041617 0.12896365 0.017300911
0.70442146 0.12981527 0.017289963
0.70391107 0.13126886 0.016819181
0.70340127 0.13272455 0.016348386
0.70212245 0.13478638 0.01541769
0.70161426 0.13624722 0.01494683
0.70110667 0.13771014 0.014475928
0.69983113 0.13978225 0.013545114
0.69855672 0.14185858 0.012614232
0.69728369 0.14393899 0.01168331
0.69601184 0.14602351 0.010752322
0.69474131 0.14811221 0.0098212957
0.69270492 0.15081736 0.0084302342
0.69067049 0.15352871 0.0070391223
0.68863791 0.15624627 0.005647901
0.66826308 0.09177427 0.0051339972
0.67405534 0.08888077 0.0083431592
0.68220985 0.084353074 0.012932754
0.6832611 0.084673069 0.013381772
0.68509984 0.08444903 0.014290929
0.68693739 0.084220871 0.015200139
0.68798608 0.084532589 0.015649293
0.6890341 0.08484225 0.016098429
0.6908685 0.084603757 0.01700777
0.69191498 0.084908232 0.017457003
0.69217443 0.085758813 0.017446067
0.69321996 0.086060211 0.017895339
0.69426483 0.086359538 0.018344622
0.69452363 0.087208048 0.018333713
0.6947825 0.088056579 0.018322803
0.69504136 0.088905111 0.018311895
0.69530022 0.089753613 0.018300986
0.69555902 0.090602145 0.018290078
0.69660169 0.090894222 0.018739467
0.69686025 0.091741696 0.018728573
0.69711876 0.0925892 0.018717678
0.69737726 0.093436681 0.018706782
0.69763583 0.094284154 0.018695887
0.69789433 0.095131628 0.018684991
0.6981529 0.095979132 0.018674096
0.69841141 0.096826613 0.0186632
0.69945127 0.097109407 0.019112682
0.69970948 0.097955853 0.0191018
0.70074838 0.098235525 0.019551365
0.70100629 0.099080957 0.019540496
0.7012642 0.099926382 0.019529628
0.70152205 0.10077178 0.019518759
0.70177996 0.1016172 0.019507889
0.70203787 0.10246263 0.01949702
0.70229578 0.10330802 0.019486152
0.70255369 0.10415345 0.019475283
0.7028116 0.10499887 0.019464415
0.70306951 0.1058443 0.019453544
0.70332736 0.1066897 0.019442676
0.70358527 0.10753512 0.019431807
0.70384318 0.10838055 0.019420939
0.70410109 0.10922597 0.01941007
0.70513523 0.10949014 0.019859804
0.70539278 0.11033452 0.019848948
0.70565039 0.11117891 0.019838093
0.705908 0.11202329 0.019827237
0.70616555 0.11286768 0.019816382
0.70642316 0.11371206 0.019805526
0.70668072 0.11455645 0.019794671
0.70693833 0.11540083 0.019783815
0.70719588 0.11624523 0.01977296
0.70668006 0.11768014 0.019301381
0.70616484 0.11911713 0.018829746
0.70642304 0.11996357 0.018818865
0.70590878 0.12140365 0.018347234
0.70539516 0.12284582 0.017875547
0.70488214 0.12429002 0.017403848
0.70436978 0.1257363 0.016932109
0.7046293 0.12658688 0.016921174
0.70411783 0.12803631 0.016449394
0.70437759 0.12888794 0.016438445
0.70386714 0.1303404 0.015966626
0.70335728 0.13179496 0.015494796
0.70284808 0.13325161 0.015022951
0.70233947 0.1347103 0.014551038
0.7010625 0.13677604 0.013618203
0.7005555 0.13823991 0.013146252
0.69928074 0.14031291 0.012213324
0.69800723 0.14239003 0.011280343
0.69673502 0.14447132 0.010347309
0.69546402 0.14655671 0.0094142072
0.69419432 0.14864622 0.0084810955
0.69139224 0.1519644 0.0066258679
0.69012564 0.15406425 0.0056925938
0.67585415 0.087725766 0.008383045
0.68242812 0.084276527 0.012060865
0.68347913 0.084596626 0.012510933
0.68531734 0.084372766 0.01342219
0.68715435 0.084144793 0.014333487
0.68741542 0.085000537 0.014322485
0.68925059 0.084766351 0.015233861
0.69108438 0.084528036 0.016145304
0.69213063 0.084832609 0.016595587
0.69317621 0.085135125 0.01704588
0.69422114 0.085435577 0.0174962
0.69526541 0.085733958 0.01794656
0.69552392 0.086581454 0.017935665
0.69578248 0.087428942 0.017924769
0.69604099 0.088276416 0.017913874
0.69629949 0.08912389 0.01790298
0.69655806 0.089971401 0.017892083
0.69681656 0.090818875 0.017881189
0.69707513 0.091666348 0.017870292
0.69733363 0.092513852 0.017859397
0.69837481 0.092801891 0.018309861
0.69863302 0.093648344 0.01829898
0.69889122 0.094494797 0.018288098
0.69914943 0.09534125 0.018277217
0.69940764 0.096187696 0.018266333
0.70044696 0.096469544 0.018716907
0.70070487 0.097314939 0.018706039
0.70174313 0.097593695 0.019156639
0.70200074 0.098438069 0.019145783
0.70225835 0.099282466 0.019134928
0.7025159 0.10012684 0.019124072
0.70277351 0.10097124 0.019113217
0.70303106 0.10181561 0.019102361
0.70328867 0.10266001 0.019091504
0.70354623 0.10350438 0.01908065
0.70380384 0.10434876 0.019069795
0.70406139 0.10519315 0.019058937
0.704319 0.10603753 0.019048082
0.70457655 0.10688192 0.019037226
0.70483416 0.1077263 0.019026371
0.70509177 0.10857069 0.019015515
0.70612532 0.10883393 0.019466314
0.70638257 0.10967728 0.019455472
0.70663983 0.11052062 0.01944463
0.70689714 0.11136397 0.019433787
0.70715439 0.11220732 0.019422945
0.70741165 0.11305069 0.019412102
0.70766896 0.11389404 0.01940126
0.70792621 0.11473738 0.019390419
0.70740998 0.11617016 0.018917816
0.70689446 0.11760498 0.018445186
0.70715237 0.1184504 0.018434318
0.70663768 0.11988832 0.017961634
0.70612365 0.1213283 0.017488953
0.70561033 0.12277038 0.017016217
0.70509756 0.12421449 0.016543468
0.70458549 0.12566067 0.016070694
0.70484495 0.12651126 0.016059758
0.70433372 0.12796059 0.015586928
0.70459354 0.12881222 0.015575979
0.70408332 0.1302646 0.015103124
0.70357376 0.13171907 0.014630228
0.70229536 0.13377845 0.013695387
0.70178741 0.13523808 0.013222439
0.70051128 0.13730471 0.012287491
0.70000488 0.13876949 0.011814477
0.69873089 0.14084333 0.010879449
0.69745827 0.14292133 0.0099443542
0.69618684 0.14500344 0.0090092067
0.69491673 0.14708969 0.008074034
0.6936478 0.14918008 0.0071387654
0.69084716 0.15249887 0.0052793822
0.67607456 0.087648489 0.0075027696
0.68185812 0.084739707 0.010726803
0.6844852 0.083979428 0.01210228
0.68632257 0.083754726 0.013015636
0.68815881 0.083525881 0.013929062
0.68841952 0.084380604 0.013918073
0.69025379 0.084145583 0.014831548
0.69130033 0.084452324 0.015282838
0.69313246 0.084210038 0.016196435
0.69339162 0.085059591 0.016185513
0.69443625 0.08536014 0.016636884
0.69548029 0.08565861 0.017088281
0.69573879 0.086506106 0.017077385
0.69599736 0.087353595 0.01706649
0.69625586 0.088201068 0.017055593
0.69651443 0.08904855 0.017044699
0.69677293 0.089896053 0.017033802
0.6970315 0.090743527 0.017022908
0.69807297 0.091033734 0.017474381
0.69833118 0.091880187 0.0174635
0.69858944 0.09272664 0.017452618
0.69884765 0.093573086 0.017441735
0.69910586 0.094419539 0.017430853
0.70014554 0.094703525 0.017882451
0.70040339 0.09554895 0.017871583
0.70144206 0.095829852 0.018323205
0.70169967 0.096674226 0.01831235
0.70195723 0.097518623 0.018301494
0.70221484 0.098362997 0.018290639
0.7032519 0.098638736 0.018742327
0.70350921 0.099482082 0.018731484
0.70376647 0.10032543 0.018720644
0.70402372 0.10116878 0.018709801
0.70428103 0.10201215 0.018698959
0.70453829 0.1028555 0.018688116
0.70479554 0.10369884 0.018677274
0.70505279 0.10454219 0.018666431
0.70531005 0.10538554 0.018655589
0.70556736 0.10622889 0.018644746
0.70582461 0.10707223 0.018633904
0.70608187 0.1079156 0.018623061
0.70633918 0.10875895 0.018612221
0.70659643 0.10960229 0.018601378
0.70685369 0.11044565 0.018590536
0.70711094 0.11128899 0.018579694
0.70736825 0.11213234 0.018568851
0.70762551 0.11297571 0.018558009
0.70788276 0.11381906 0.018547166
0.70814002 0.11466241 0.018536324
0.70762408 0.11609509 0.018062672
0.70788169 0.11693946 0.018051816
0.7073667 0.11837524 0.017578123
0.70685226 0.11981306 0.017104389
0.70633852 0.12125295 0.016630674
0.70582545 0.12269495 0.016156901
0.70531297 0.12413896 0.015683101
0.70480114 0.12558505 0.015209277
0.7050606 0.12643564 0.015198342
0.70454967 0.12788488 0.014724461
0.70403945 0.12933615 0.014250569
0.70352978 0.13078949 0.013776652
0.70302081 0.13224488 0.013302721
0.70174325 0.13430512 0.012365751
0.70123583 0.1357657 0.011891739
0.69996059 0.13783315 0.010954693
0.69945467 0.1392989 0.010480614
0.69818163 0.14137357 0.0095434738
0.69690984 0.14345242 0.0086062802
0.69563925 0.14553542 0.0076690181
0.69436997 0.14762248 0.0067317327
0.69310188 0.14971372 0.0057943789
0.67550647 0.088109799 0.0061592981
0.68207669 0.084663071 0.0098538641
0.68470293 0.083903067 0.011232477
0.68732727 0.083136879 0.012611182
0.68916267 0.082907185 0.013526692
0.68942308 0.083760872 0.013515717
0.69125646 0.083524987 0.014431305
0.69230253 0.083830774 0.014883675
0.6941337 0.083587669 0.01579937
0.69439256 0.084436186 0.015788462
0.69543666 0.084735788 0.016240882
0.6964801 0.085033312 0.016693328
0.6967383 0.085879765 0.016682444
0.69699651 0.086726226 0.016671563
0.69725478 0.087572679 0.016660681
0.69751298 0.088419132 0.016649798
0.69777119 0.089265577 0.016638916
0.6980294 0.090112031 0.016628034
0.69907039 0.090401292 0.017080614
0.6993283 0.091246687 0.017069746
0.69958615 0.092092119 0.017058877
0.69984406 0.092937544 0.017048009
0.70010197 0.093782939 0.01703714
0.701141 0.094066009 0.017489772
0.70139861 0.094910406 0.017478917
0.70243669 0.095190346 0.017931603
0.70269394 0.096033722 0.01792076
0.70295125 0.096877068 0.017909918
0.70320851 0.097720414 0.017899076
0.70424503 0.097995222 0.018351827
0.70450199 0.098837547 0.018340999
0.70475894 0.099679835 0.01833017
0.7050159 0.10052216 0.01831934
0.70527285 0.10136448 0.018308511
0.70552981 0.1022068 0.018297683
0.70578676 0.10304912 0.018286854
0.70604372 0.10389144 0.018276025
0.70630068 0.10473377 0.018265195
0.70655757 0.10557608 0.018254366
0.70681453 0.10641838 0.018243538
0.70707148 0.1072607 0.018232709
0.70732844 0.10810302 0.018221879
