# .PCD v0.7 - Point Cloud Data file format
VERSION 0.7
FIELDS x y z
SIZE 4 4 4
TYPE F F F
COUNT 1 1 1
WIDTH 1404
HEIGHT 1
VIEWPOINT 0 0 0 1 0 0 0
POINTS 1404
DATA ascii
0.58550996 0.15067987 0.015492048
0.5851106 0.15017359 0.015471773
0.58471131 0.14966732 0.015451499
0.58431202 0.14916103 0.015431225
0.58391267 0.14865476 0.015410951
0.58351338 0.14814848 0.015390676
0.58235723 0.14809053 0.015861146
0.58195859 0.14758509 0.015840907
0.5815599 0.14707966 0.015820665
0.58116126 0.14657423 0.015800426
0.58076262 0.1460688 0.015780186
0.58036399 0.14556336 0.015759945
0.57996535 0.14505793 0.015739705
0.57956666 0.1445525 0.015719464
0.57841659 0.14450213 0.016190214
0.57726783 0.14445347 0.016661031
0.5768705 0.14394973 0.016640859
0.57647318 0.14344598 0.016620686
0.57607585 0.14294225 0.016600514
0.57567859 0.14243852 0.016580341
0.57528126 0.14193477 0.016560169
0.57488394 0.14143103 0.016539996
0.57448661 0.1409273 0.016519824
0.57408935 0.14042355 0.016499652
0.57369202 0.13991982 0.016479479
0.5732947 0.13941608 0.016459307
0.57289737 0.13891234 0.016439134
0.57250011 0.1384086 0.016418962
0.57210279 0.13790487 0.016398789
0.57170546 0.13740112 0.016378617
0.57130814 0.13689739 0.016358444
0.57091081 0.13639365 0.016338272
0.57051355 0.1358899 0.0163181
0.57085496 0.13491501 0.015806293
0.57119513 0.13393843 0.015294419
0.57227135 0.13248727 0.01429075
0.5718714 0.13198015 0.014270442
0.57220751 0.13099848 0.013758364
0.57180685 0.13049051 0.013738022
0.57214099 0.1295063 0.013225843
0.57247376 0.12852037 0.012713566
0.57207179 0.12801071 0.012693157
0.5724026 0.12702227 0.012180808
0.57199991 0.12651175 0.012160365
0.57159728 0.12600124 0.012139921
0.5719254 0.12500942 0.011627437
0.57152206 0.12449806 0.011606959
0.57184815 0.1235037 0.011094369
0.57144415 0.12299149 0.011073858
0.57104021 0.12247929 0.011053346
0.57063621 0.12196708 0.011032835
0.57023221 0.12145487 0.011012323
0.57055432 0.12045544 0.010499534
0.57014966 0.11994238 0.010478988
0.5704698 0.11894037 0.0099660717
0.61206824 0.15665758 0.0056660199
0.60890937 0.15687387 0.0070959637
0.60772157 0.15677494 0.0075657559
0.60575855 0.15710028 0.0085262926
0.60457408 0.15700562 0.0089962799
0.60339093 0.15691261 0.0094663091
0.60220909 0.1568213 0.00993641
0.60102862 0.15673167 0.010406571
0.60062259 0.15621692 0.010385958
0.59867162 0.15655755 0.011347131
0.59749514 0.156473 0.011817499
0.59632003 0.15639016 0.012287935
0.59514624 0.15630901 0.012758439
0.59397376 0.15622954 0.013229012
0.59357178 0.15571988 0.013208602
0.59316981 0.15521021 0.013188192
0.59199995 0.15513417 0.013658925
0.59159863 0.15462536 0.013638549
0.59043086 0.15455182 0.014109361
0.59003019 0.15404384 0.014089019
0.58886445 0.15397285 0.01455993
0.58846444 0.15346572 0.014539622
0.58806443 0.1529586 0.014519314
0.58766448 0.15245147 0.014499006
0.58726448 0.15194435 0.014478698
0.58610272 0.15187843 0.014949809
0.58570337 0.15137215 0.014929535
0.58530408 0.15086588 0.014909261
0.58490479 0.1503596 0.014888986
0.58450544 0.14985332 0.014868712
0.58410615 0.14934704 0.014848438
0.5837068 0.14884076 0.014828164
0.5833075 0.14833449 0.014807889
0.58215171 0.14827622 0.015279335
0.58175308 0.14777079 0.015259095
0.58135438 0.14726536 0.015238854
0.58095574 0.14675993 0.015218614
0.58055711 0.14625449 0.015198373
0.58015847 0.14574906 0.015178134
0.57975984 0.14524363 0.015157893
0.5793612 0.1447382 0.015137653
0.57821143 0.14468752 0.015609377
0.57781345 0.14418294 0.015589171
0.5766657 0.1441348 0.016060997
0.57626837 0.14363106 0.016040824
0.57587105 0.14312732 0.016020652
0.57547373 0.14262359 0.016000479
0.57507646 0.14211984 0.015980307
0.57467914 0.14161611 0.015960135
0.57428181 0.14111237 0.015939962
0.57388449 0.14060862 0.01591979
0.57274276 0.14056811 0.016391922
0.57234609 0.14006522 0.016371783
0.57194948 0.13956232 0.016351644
0.57155281 0.13905944 0.016331507
0.5711562 0.13855654 0.016311368
0.57075953 0.13805366 0.016291229
0.57036287 0.13755076 0.01627109
0.57070601 0.13657872 0.01575841
0.57030869 0.13607498 0.015738238
0.5706498 0.13510039 0.015225456
0.57025182 0.13459581 0.01520525
0.57059097 0.13361868 0.014692367
0.57092875 0.13263984 0.01417939
0.57126522 0.13165933 0.013666375
0.57160032 0.13067713 0.013153288
0.57119966 0.13016915 0.013132946
0.57153279 0.12918442 0.012619754
0.57113147 0.12867561 0.012599378
0.57146257 0.12768829 0.012086063
0.5710606 0.12717862 0.012065653
0.57065862 0.12666896 0.012045243
0.57098705 0.1256783 0.011531818
0.57058442 0.12516779 0.011511374
0.57091081 0.12417457 0.010997847
0.57050753 0.12366322 0.010977369
0.57083189 0.12266747 0.01046374
0.57042795 0.12215526 0.010443228
0.57002395 0.12164306 0.010422717
0.5703457 0.12064393 0.0099089518
0.56994104 0.12013087 0.0098884068
0.57026082 0.11912917 0.0093745142
0.57057923 0.1181258 0.0088605806
0.60199946 0.15701072 0.0093429023
0.60159278 0.15649514 0.0093222549
0.60041332 0.15640604 0.0097934259
0.598463 0.15674604 0.010756545
0.59728688 0.15666118 0.011227889
0.59611207 0.15657803 0.0116993
0.59493864 0.15649657 0.01217078
0.59376651 0.15641679 0.012642327
0.5925957 0.15633875 0.013113967
0.59219438 0.15582992 0.013093592
0.59179306 0.15532111 0.013073215
0.59062493 0.15524642 0.013544966
0.59022433 0.15473844 0.013524624
0.58905822 0.15466629 0.013996476
0.58865821 0.15415917 0.013976168
0.58825821 0.15365204 0.01395586
0.58785826 0.15314491 0.013935552
0.58745825 0.15263779 0.013915244
0.58705831 0.15213066 0.013894936
0.58589685 0.15206444 0.014367022
0.58549756 0.15155816 0.014346748
0.58509821 0.15105188 0.014326474
0.58469892 0.1505456 0.0143062
0.58429956 0.15003933 0.014285926
0.58390027 0.14953305 0.014265651
0.58350098 0.14902677 0.014245377
0.58310163 0.14852048 0.014225103
0.58194619 0.14846192 0.014697523
0.58154756 0.14795649 0.014677282
0.58114886 0.14745106 0.014657043
0.58075023 0.14694563 0.014636802
0.58035159 0.14644019 0.014616562
0.57995296 0.14593476 0.014596322
0.57955432 0.14542933 0.014576081
0.57915568 0.1449239 0.014555841
0.57800627 0.1448729 0.015028541
0.57760829 0.14436832 0.015008334
0.57721031 0.14386374 0.014988128
0.57606351 0.14381613 0.015460961
0.57566625 0.14331239 0.015440788
0.57526892 0.14280866 0.015420616
0.5748716 0.14230491 0.015400443
0.57447428 0.14180118 0.015380271
0.57407701 0.14129744 0.015360098
0.57367969 0.1407937 0.015339925
0.57253826 0.14075287 0.015813032
0.57214165 0.14024998 0.015792893
0.57174498 0.13974708 0.015772754
0.57134837 0.1392442 0.015752617
0.5709517 0.1387413 0.015732478
0.57055503 0.13823842 0.015712339
0.57015842 0.13773552 0.015692201
0.56976175 0.13723263 0.015672062
0.56936514 0.13672973 0.015651925
0.56970656 0.13575631 0.0151382
0.56930923 0.13525258 0.015118028
0.56964868 0.13427661 0.014604207
0.5692507 0.13377203 0.014584001
0.56958812 0.13279352 0.014070074
0.56992429 0.13181329 0.013556055
0.57025903 0.13083141 0.013041996
0.57059246 0.12984781 0.012527866
0.5701918 0.12933984 0.012507524
0.57052326 0.12835373 0.011993294
0.57012194 0.1278449 0.011972917
0.57045138 0.12685621 0.011458559
0.57004941 0.12634654 0.011438149
0.56964743 0.12583688 0.011417739
0.56997418 0.12484483 0.01090327
0.57029957 0.12385109 0.010388734
0.56989628 0.12333973 0.010368256
0.57021964 0.12234344 0.0098536182
0.5698157 0.12183124 0.0098331068
0.5694117 0.12131903 0.0098125953
0.56973243 0.12031937 0.0092978217
0.56932777 0.11980632 0.0092772758
0.57036996 0.11831492 0.0082680481
0.60215628 0.15625921 0.0082359854
0.60097647 0.15616897 0.0087081008
0.59825438 0.15693453 0.010165963
0.59707862 0.15684937 0.010638282
0.59590417 0.15676591 0.011110669
0.59473109 0.15668413 0.01158312
0.59355927 0.15660405 0.012055642
0.59238881 0.15652569 0.012528257
0.59198749 0.15601687 0.012507882
0.59081906 0.15594101 0.01298057
0.5904184 0.15543304 0.012960228
0.589252 0.15535973 0.013433022
0.58885199 0.15485261 0.013412714
0.58845204 0.15434548 0.013392406
0.58805203 0.15383835 0.013372098
0.58765203 0.15333124 0.01335179
0.58725208 0.1528241 0.013331482
0.58685207 0.15231699 0.013311174
0.58569098 0.15225044 0.013784235
0.58529168 0.15174417 0.01376396
0.58489239 0.15123789 0.013743686
0.58449304 0.15073161 0.013723413
0.58409375 0.15022533 0.013703139
0.5836944 0.14971904 0.013682864
0.58329511 0.14921278 0.01366259
0.58289582 0.1487065 0.013642316
0.58174068 0.14864761 0.014115712
0.58134204 0.14814217 0.014095471
0.58094341 0.14763674 0.014075231
0.58054471 0.14713131 0.01405499
0.58014607 0.14662588 0.01403475
0.57974744 0.14612044 0.01401451
0.5793488 0.14561503 0.01399427
0.57895017 0.14510959 0.01397403
0.57780105 0.14505829 0.014447701
0.57740307 0.14455371 0.014427494
0.57700509 0.14404912 0.014407288
0.57660711 0.14354454 0.014387082
0.57546139 0.14349747 0.014860926
0.57506406 0.14299373 0.014840754
0.5746668 0.14248998 0.014820581
0.57426947 0.14198625 0.014800409
0.57387215 0.14148252 0.014780236
0.57347482 0.14097877 0.014760064
0.57233381 0.14093764 0.015234146
0.57193714 0.14043474 0.015214007
0.5707981 0.14039615 0.015688188
0.57040215 0.1398941 0.015668083
0.57000613 0.13939205 0.015647978
0.56961018 0.13889001 0.015627874
0.56921417 0.13838796 0.015607769
0.56881821 0.13788591 0.015587664
0.56916064 0.13691449 0.015073038
0.56876403 0.13641161 0.015052899
0.56836736 0.13590871 0.01503276
0.56797069 0.13540582 0.015012622
0.56830978 0.13443017 0.014497822
0.56864756 0.13345282 0.013982954
0.56898397 0.13247378 0.013468022
0.56858534 0.13196835 0.013447782
0.56891978 0.13098674 0.01293272
0.56925285 0.13000347 0.012417618
0.56958461 0.1290185 0.011902445
0.56918395 0.12851053 0.011882103
0.56951374 0.12752302 0.011366832
0.56911242 0.1270142 0.011346457
0.56944019 0.12602413 0.010831054
0.56903821 0.12551446 0.010810645
0.56936395 0.12452188 0.010295168
0.56968832 0.1235276 0.0097796246
0.56928504 0.12301625 0.0097591477
0.56960738 0.12201943 0.0092434995
0.56920344 0.12150722 0.009222988
0.56879944 0.12099501 0.0092024766
0.56911916 0.11999481 0.0086866943
0.56943756 0.11899288 0.008170818
0.57119942 0.11700991 0.0066642272
0.59452349 0.15687169 0.010995461
0.59258324 0.15722144 0.011962921
0.59218192 0.15671262 0.011942545
0.59101313 0.15663561 0.012416178
0.59061253 0.15612765 0.012395836
0.59021187 0.15561967 0.012375494
0.58904576 0.15554605 0.01284926
0.58864582 0.15503892 0.012828952
0.58824581 0.15453181 0.012808644
0.5878458 0.15402468 0.012788336
0.58744586 0.15351754 0.012768027
0.58704585 0.15301043 0.01274772
0.5866459 0.1525033 0.012727411
0.58548516 0.15243645 0.013201448
0.58508581 0.15193017 0.013181174
0.58468652 0.1514239 0.0131609
0.58428717 0.15091762 0.013140625
0.58388788 0.15041134 0.013120351
0.58348858 0.14990506 0.013100077
0.58308923 0.14939877 0.013079803
0.58268994 0.14889251 0.013059529
0.58153516 0.1488333 0.013533896
0.58113652 0.14832787 0.013513655
0.58073789 0.14782244 0.013493416
0.58033919 0.14731701 0.013473175
0.57994056 0.14681157 0.013452935
0.57954192 0.14630614 0.013432695
0.57914329 0.14580071 0.013412454
0.57874465 0.14529528 0.013392214
0.57759589 0.14524367 0.013866864
0.57719791 0.14473909 0.013846658
0.57679993 0.14423451 0.013826451
0.57640195 0.14372991 0.013806245
0.57525659 0.14368254 0.014281065
0.57485926 0.14317881 0.014260893
0.57446194 0.14267506 0.01424072
0.57406467 0.14217132 0.014220548
0.57366735 0.14166759 0.014200375
0.57327002 0.14116384 0.014180203
0.57212931 0.1411224 0.014655257
0.57173264 0.1406195 0.014635118
0.57059395 0.14058059 0.015110277
0.570198 0.14007854 0.015090172
0.56980199 0.13957651 0.015070068
0.56940603 0.13907446 0.015049962
0.56901008 0.13857241 0.015029858
0.56861407 0.13807036 0.015009753
0.56821811 0.13756832 0.014989649
0.5678221 0.13706627 0.014969544
0.56742615 0.13656422 0.014949439
0.56703019 0.13606219 0.014929335
0.56736958 0.13508768 0.014413593
0.56697297 0.1345848 0.014393455
0.56804442 0.13313362 0.013381911
0.56764644 0.13262904 0.013361705
0.56798118 0.13164862 0.012845727
0.56831461 0.13066646 0.012329658
0.56864667 0.12968266 0.011813547
0.56824672 0.12917553 0.01179324
0.56857675 0.12818919 0.011277027
0.56817615 0.12768121 0.011256685
0.56850421 0.12669232 0.010740368
0.56883097 0.12570171 0.010223961
0.56842899 0.12519205 0.010203551
0.56875372 0.12419893 0.0096870633
0.56907707 0.12320411 0.0091705127
0.56939912 0.1222076 0.0086538894
0.56899518 0.1216954 0.008633378
0.56859118 0.1211832 0.0086128665
0.56891054 0.1201833 0.0080961119
0.56922865 0.11918169 0.0075792605
0.56954533 0.1181784 0.00706237
0.59120727 0.15733021 0.011851783
0.59003949 0.15725374 0.012326425
0.59040594 0.15631427 0.011811099
0.59000534 0.1558063 0.011790757
0.58883959 0.15573236 0.012265501
0.58843958 0.15522525 0.012245193
0.58803964 0.15471812 0.012224885
0.58763963 0.15421098 0.012204577
0.58723962 0.15370387 0.012184269
0.58683968 0.15319674 0.01216396
0.58643967 0.15268962 0.012143653
0.58527929 0.15262246 0.012618661
0.58487993 0.15211618 0.012598387
0.58448064 0.1516099 0.012578113
0.58408135 0.15110362 0.012557838
0.583682 0.15059735 0.012537564
0.58328271 0.15009107 0.01251729
0.58288342 0.14958479 0.012497016
0.58248407 0.1490785 0.012476741
0.58132964 0.149019 0.012952085
0.58093101 0.14851357 0.012931844
0.58053237 0.14800814 0.012911604
0.58013368 0.14750271 0.012891363
0.57973504 0.14699727 0.012871123
0.5793364 0.14649184 0.012850882
0.57893777 0.14598641 0.012830643
0.57853913 0.14548098 0.012810403
0.57739073 0.14542906 0.013286028
0.57699275 0.14492446 0.013265821
0.57659477 0.14441988 0.013245615
0.57619679 0.1439153 0.013225408
0.57505172 0.14386761 0.0137012
0.57465446 0.14336388 0.013681028
0.57425714 0.14286013 0.013660856
0.57385981 0.1423564 0.013640683
0.57346249 0.14185266 0.013620511
0.57306522 0.14134891 0.013600338
0.57192481 0.14130716 0.014076367
0.5715282 0.14080426 0.014056228
0.57038981 0.14076504 0.014532362
0.56999385 0.14026299 0.014512258
0.56959784 0.13976096 0.014492153
0.56920189 0.13925891 0.014472049
0.56880593 0.13875686 0.014451943
0.56840992 0.13825482 0.014431839
0.56801397 0.13775277 0.014411734
0.56761801 0.13725072 0.01439163
0.567222 0.13674869 0.014371525
0.56682605 0.13624664 0.01435142
0.56643009 0.13574459 0.014331316
0.56603408 0.13524254 0.014311211
0.5663718 0.13426666 0.013794427
0.56670821 0.1332891 0.013277578
0.5670433 0.13230984 0.012760662
0.56737703 0.13132888 0.012243674
0.56770945 0.13034619 0.011726597
0.56804049 0.12936185 0.01120948
0.56764054 0.12885472 0.011189173
0.56796956 0.12786785 0.010671948
0.56756896 0.12735987 0.010651606
0.56789601 0.12637044 0.010134283
0.56822175 0.12537929 0.0096168658
0.56709337 0.12535281 0.010093531
0.56741774 0.12435997 0.0095760468
0.5677408 0.12336546 0.0090585165
0.56806254 0.12236927 0.0085409228
0.56838292 0.12137138 0.0080232602
0.56870192 0.1203718 0.0075055268
0.56901968 0.11937049 0.0069877035
0.56933606 0.11836752 0.0064698379
0.59410834 0.15724681 0.0098201409
0.59140134 0.15802482 0.011287391
0.59100074 0.15751685 0.011267049
0.59060007 0.15700887 0.011246707
0.59019941 0.15650089 0.011226365
0.58979875 0.15599293 0.011206023
0.58863336 0.15591869 0.011681739
0.58823341 0.15541156 0.011661431
0.5878334 0.15490444 0.011641122
0.5874334 0.15439731 0.011620815
0.58703345 0.15389018 0.011600506
0.58663344 0.15338306 0.011580198
0.5862335 0.15287593 0.011559891
0.58507341 0.15280846 0.012035874
0.58467412 0.15230219 0.0120156
0.58427477 0.15179591 0.011995326
0.58387548 0.15128963 0.011975052
0.58347619 0.15078335 0.011954777
0.58307683 0.15027706 0.011934503
0.58267754 0.1497708 0.011914229
0.58227819 0.14926451 0.011893955
0.58112413 0.1492047 0.012370273
0.58072549 0.14869927 0.012350032
0.58032686 0.14819384 0.012329792
0.57992816 0.1476884 0.012309552
0.57952952 0.14718297 0.012289312
0.57913089 0.14667754 0.012269071
0.57873225 0.14617211 0.012248831
0.57833362 0.14566667 0.01222859
0.57718557 0.14561445 0.012705188
0.57678759 0.14510985 0.012684981
0.57638961 0.14460526 0.012664775
0.57599163 0.14410068 0.012644568
0.57559365 0.1435961 0.012624362
0.5744496 0.14354895 0.013101166
0.57405233 0.1430452 0.013080994
0.57365501 0.14254147 0.013060821
0.57325768 0.14203773 0.013040649
0.57286036 0.14153399 0.013020476
0.57172036 0.14149192 0.013497481
0.57132369 0.14098902 0.013477342
0.57018566 0.14094949 0.013954448
0.56978971 0.14044745 0.013934343
0.56939375 0.1399454 0.013914239
0.56899774 0.13944335 0.013894134
0.56860179 0.13894132 0.01387403
0.56820583 0.13843927 0.013853924
0.56780982 0.13793722 0.01383382
0.56741387 0.13743518 0.013813715
0.56701785 0.13693313 0.013793611
0.5666219 0.13643108 0.013773507
0.56622595 0.13592903 0.013753401
0.56582993 0.135427 0.013733297
0.56543398 0.13492495 0.013713192
0.56577069 0.13394853 0.013195402
0.56610608 0.13297042 0.012677545
0.56644017 0.13199063 0.012159616
0.56677288 0.13100913 0.011641623
0.56710428 0.13002592 0.011123536
0.56670499 0.12951964 0.011103262
0.56630564 0.12901336 0.011082987
0.56590635 0.12850708 0.011062713
0.56623435 0.12751967 0.010544486
0.5665611 0.12653056 0.010026188
0.56616044 0.12602258 0.010005846
0.56648517 0.12503093 0.0094874455
0.56680852 0.12403756 0.0089689521
0.56713057 0.12304252 0.0084504131
0.5674513 0.12204579 0.0079318099
0.56777066 0.12104736 0.0074131386
0.56808865 0.12004724 0.0068943994
0.56912673 0.11855664 0.0058773053
0.59039354 0.15719549 0.01066197
0.58999288 0.15668753 0.010641628
0.58959222 0.15617956 0.010621286
0.58842719 0.156105 0.011097977
0.58802718 0.15559788 0.011077669
0.58762717 0.15509075 0.011057361
0.58722723 0.15458362 0.011037053
0.58682722 0.1540765 0.011016744
0.58642727 0.15356937 0.010996437
0.58602726 0.15306225 0.010976128
0.58486754 0.15299447 0.011453087
0.58446825 0.15248819 0.011432813
0.58406895 0.15198192 0.011412539
0.5836696 0.15147564 0.011392265
0.58327031 0.15096936 0.011371991
0.58287096 0.15046307 0.011351716
0.58247167 0.14995679 0.011331442
0.58207238 0.14945051 0.011311168
0.58091861 0.14939038 0.01178846
0.58051997 0.14888495 0.011768221
0.58012134 0.14837952 0.01174798
0.5797227 0.1478741 0.01172774
0.57932401 0.14736867 0.0117075
0.57892537 0.14686324 0.011687259
0.57852674 0.1463578 0.011667019
0.5781281 0.14585237 0.011646779
0.57698041 0.14579983 0.012124351
0.57658243 0.14529523 0.012104145
0.57618445 0.14479065 0.012083938
0.57578647 0.14428607 0.012063732
0.57538849 0.14378148 0.012043525
0.57499051 0.1432769 0.012023319
0.57384747 0.14323027 0.012501129
0.57345015 0.14272654 0.012480957
0.57305288 0.14222281 0.012460784
0.57265556 0.14171906 0.012440612
0.57151586 0.14167668 0.012918591
0.57111925 0.14117379 0.012898453
0.56998152 0.14113395 0.013376534
0.56958556 0.1406319 0.013356429
0.56918961 0.14012985 0.013336324
0.56879359 0.13962781 0.01331622
0.56839764 0.13912576 0.013296115
0.56800169 0.13862371 0.013276011
0.56760567 0.13812168 0.013255905
0.56720972 0.13761963 0.013235801
0.56681377 0.13711758 0.013215696
0.56641775 0.13661553 0.013195592
0.5660218 0.13611349 0.013175488
0.56562579 0.13561144 0.013155382
0.56522983 0.13510939 0.013135278
0.56556624 0.13413329 0.012616512
0.56590128 0.13315551 0.01209768
0.56550395 0.13265176 0.012077508
0.56510663 0.13214803 0.012057335
0.56543899 0.13116685 0.011538367
0.56577003 0.13018396 0.01101933
0.56537139 0.12967853 0.01099909
0.56570047 0.12869309 0.010479926
0.56530118 0.12818681 0.010459652
0.56562817 0.12719886 0.0099404156
0.56522822 0.12669173 0.0099201081
0.56555325 0.12570123 0.0094007663
0.5658769 0.12470905 0.0088813575
0.5661993 0.12371514 0.0083618546
0.56652033 0.12271956 0.0078423135
0.56684005 0.1217223 0.0073227007
0.5671584 0.12072334 0.0068030204
0.56819642 0.1192342 0.00578401
0.59055173 0.15644275 0.0095589533
0.59015042 0.15593392 0.0095385769
0.58898503 0.15585822 0.010016209
0.58858436 0.15535024 0.0099958675
0.587421 0.15527707 0.010473602
0.58702099 0.15476994 0.010453293
0.58662105 0.15426281 0.010432986
0.58622104 0.15375569 0.010412677
0.58582109 0.15324856 0.01039237
0.58466172 0.15318048 0.0108703
0.58426237 0.1526742 0.010850026
0.58386308 0.15216792 0.010829751
0.58346373 0.15166163 0.010809477
0.58306444 0.15115537 0.010789203
0.58266515 0.15064909 0.010768929
0.58226579 0.1501428 0.010748655
0.5818665 0.14963652 0.010728381
0.58071309 0.14957608 0.011206649
0.58031446 0.14907065 0.011186409
0.57991582 0.14856522 0.011166168
0.57951719 0.14805979 0.011145928
0.57911849 0.14755435 0.011125688
0.57871985 0.14704892 0.011105448
0.57832122 0.14654349 0.011085208
0.57792258 0.14603806 0.011064967
0.57677525 0.1459852 0.011543515
0.57637727 0.14548062 0.011523308
0.57597929 0.14497603 0.011503102
0.57558131 0.14447145 0.011482895
0.57518333 0.14396687 0.011462689
0.57478535 0.14346229 0.011442482
0.57364267 0.14341535 0.011921268
0.57324535 0.14291161 0.011901096
0.57284802 0.14240788 0.011880923
0.5724507 0.14190413 0.011860751
0.57131141 0.14186144 0.012339702
0.57091475 0.14135855 0.012319563
0.56977743 0.1413184 0.012798619
0.56938142 0.14081635 0.012778515
0.56898546 0.14031431 0.01275841
0.56858951 0.13981226 0.012738305
0.5681935 0.13931021 0.012718201
0.56779754 0.13880816 0.012698096
0.56740153 0.13830613 0.012677992
0.56700557 0.13780408 0.012657886
0.56660962 0.13730203 0.012637782
0.56621361 0.13679999 0.012617677
0.56581765 0.13629794 0.012597573
0.5654217 0.13579589 0.012577469
0.56502569 0.13529386 0.012557363
0.56536174 0.13431805 0.012037623
0.56569642 0.13334057 0.011517818
0.56529915 0.13283683 0.011497646
0.56490183 0.1323331 0.011477473
0.56523383 0.13135223 0.01095753
0.56483585 0.13084765 0.010937324
0.56516588 0.12986423 0.010417278
0.56476724 0.1293588 0.010397037
0.56509531 0.12837282 0.009876865
0.56469601 0.12786654 0.009856591
0.56429666 0.12736025 0.009836317
0.56462204 0.12637092 0.0093160411
0.56494606 0.12537989 0.0087956907
0.5652687 0.12438717 0.0082752723
0.56559008 0.12339272 0.0077547603
0.56663209 0.12191017 0.0067340657
0.56695014 0.12091152 0.0062134103
0.56726676 0.11991118 0.0056926869
0.59147233 0.15525693 0.0079549467
0.58954221 0.15561204 0.0089324918
0.58837783 0.15553688 0.0094111301
0.58797717 0.15502889 0.0093907882
0.58681482 0.15495625 0.0098695317
0.58641481 0.15444914 0.0098492233
0.58601487 0.153942 0.0098289149
0.58561486 0.15343489 0.0098086074
0.58445585 0.15336648 0.010287513
0.58405656 0.15286021 0.010267239
0.58365721 0.15235393 0.010246965
0.58325791 0.15184765 0.01022669
0.58285856 0.15134136 0.010206416
0.58245927 0.15083508 0.010186142
0.58205998 0.15032881 0.010165868
0.58166063 0.14982253 0.010145593
0.58050758 0.14976178 0.010624837
0.58010894 0.14925635 0.010604597
0.5797103 0.14875092 0.010584356
0.57931167 0.14824548 0.010564117
0.57891297 0.14774005 0.010543876
0.57851434 0.14723462 0.010523636
0.5781157 0.14672919 0.010503395
0.57771707 0.14622375 0.010483155
0.57657003 0.14617059 0.010962678
0.57617205 0.145666 0.010942472
0.57577407 0.14516142 0.010922265
0.57537609 0.14465684 0.010902059
0.57497811 0.14415225 0.010881852
0.57458013 0.14364766 0.010861646
0.57343781 0.14360043 0.011341403
0.57304054 0.14309669 0.011321231
0.57264322 0.14259295 0.011301058
0.5722459 0.1420892 0.011280886
0.57184857 0.14158547 0.011260713
0.57071024 0.14154331 0.011740677
0.56957328 0.14150284 0.012220705
0.56917727 0.14100081 0.0122006
0.56878132 0.14049876 0.012180496
0.56838536 0.13999671 0.012160391
0.56798935 0.13949466 0.012140286
0.5675934 0.13899262 0.012120182
0.56719744 0.13849057 0.012100077
0.56680143 0.13798852 0.012079973
0.56640548 0.13748649 0.012059867
0.56600952 0.13698444 0.012039763
0.56561351 0.13648239 0.012019658
0.56521755 0.13598035 0.011999554
0.56482154 0.1354783 0.01197945
0.56515723 0.13450281 0.011458737
0.56476063 0.13399993 0.011438599
0.56509429 0.13302191 0.010917781
0.56469697 0.13251817 0.010897608
0.56502867 0.13153762 0.010376694
0.56463069 0.13103303 0.010356487
0.56496036 0.13004993 0.0098354667
0.56456172 0.1295445 0.0098152263
0.56416309 0.12903906 0.0097949859
0.56449014 0.12805255 0.0092738038
0.56409079 0.12754627 0.0092535298
0.5636915 0.12703998 0.0092332559
0.56401587 0.12605011 0.0087119704
0.56433886 0.12505855 0.0081906114
0.56466049 0.12406529 0.0076691872
0.56570256 0.12258417 0.0066465503
0.56602085 0.12158668 0.0061249533
0.56633788 0.1205875 0.0056032888
0.59238881 0.15406901 0.0063469294
0.588934 0.15529016 0.0083264038
0.58777064 0.15521553 0.0088060545
0.58736998 0.15470755 0.0087857125
0.58696932 0.15419959 0.0087653706
0.58580863 0.15412833 0.0092451535
0.58540869 0.1536212 0.0092248451
0.58424997 0.15355249 0.0097047295
0.58385068 0.15304621 0.0096844556
0.58345133 0.15253994 0.0096641816
0.58305204 0.15203364 0.0096439067
0.58265275 0.15152737 0.0096236328
0.5822534 0.15102109 0.0096033588
0.5818541 0.15051481 0.0095830848
0.58145475 0.15000853 0.00956281
0.58030206 0.14994748 0.010043025
0.57990342 0.14944205 0.010022786
0.57950479 0.14893661 0.010002545
0.57910615 0.14843118 0.0099823046
0.57870746 0.14792575 0.0099620642
0.57830882 0.14742032 0.0099418238
0.57791018 0.14691488 0.0099215833
0.57751155 0.14640945 0.0099013438
0.57636487 0.14635597 0.010381838
0.57596689 0.14585139 0.010361631
0.57556891 0.14534681 0.010341425
0.57517093 0.14484222 0.010321219
0.57477295 0.14433764 0.010301013
0.57437497 0.14383304 0.010280807
0.57323301 0.14378549 0.010761542
0.57283568 0.14328176 0.01074137
0.57243836 0.14277802 0.010721197
0.57204109 0.14227428 0.010701024
0.57164377 0.14177054 0.010680852
0.5705058 0.14172807 0.011161787
0.57010913 0.14122517 0.011141649
0.56897318 0.14118525 0.011622686
0.56857717 0.1406832 0.011602581
0.56818122 0.14018115 0.011582477
0.5677852 0.13967912 0.011562373
0.56738925 0.13917707 0.011542267
0.5669933 0.13867502 0.011522163
0.56659728 0.13817298 0.011502058
0.56620133 0.13767093 0.011481954
0.56580538 0.13716888 0.011461848
0.56540936 0.13666685 0.011441744
0.56501341 0.1361648 0.011421639
0.56461746 0.13566275 0.011401535
0.56495279 0.13468759 0.010879847
0.56455612 0.13418469 0.010859709
0.56488949 0.13320698 0.01033792
0.56449217 0.13270324 0.010317747
0.56482351 0.131723 0.0097958529
0.56442553 0.1312184 0.009775647
0.56475484 0.13023563 0.0092536546
0.56435621 0.12973019 0.0092334142
0.56395757 0.12922476 0.0092131738
0.56428427 0.12823854 0.0086910203
0.56388497 0.12773228 0.0086707463
0.56348562 0.127226 0.0086504724
0.56308633 0.12671971 0.0086301984
0.56340969 0.12572931 0.0081079006
0.5644536 0.12425223 0.0070834747
0.56477368 0.12325756 0.0065609817
0.56509233 0.12226123 0.0060384469
0.56468964 0.12175071 0.0060180034
0.59177661 0.153745 0.0057368078
0.58908749 0.15453438 0.0072192946
0.58792448 0.15445946 0.0076999427
0.58676279 0.15438621 0.0081806332
0.58636212 0.15387824 0.0081602912
0.58520246 0.15380752 0.0086410865
0.5840441 0.15373848 0.0091219423
0.58364481 0.15323222 0.0091016684
0.58324552 0.15272593 0.0090813944
0.58284616 0.15221965 0.0090611195
0.58244687 0.15171337 0.0090408456
0.58204758 0.15120709 0.0090205716
0.58164823 0.15070082 0.0090002976
0.58124894 0.15019454 0.0089800227
0.58009654 0.15013316 0.0094612138
0.57969791 0.14962773 0.0094409734
0.57929927 0.1491223 0.009420733
0.57890064 0.14861688 0.0094004925
0.578502 0.14811145 0.0093802521
0.5781033 0.14760602 0.0093600126
0.57770467 0.14710058 0.0093397722
0.57730603 0.14659515 0.0093195317
0.57615972 0.14654136 0.0098010013
0.57576174 0.14603677 0.0097807953
0.57536376 0.14553219 0.0097605893
0.57496578 0.14502761 0.0097403824
0.57456779 0.14452301 0.0097201765
0.57416981 0.14401843 0.0096999696
0.57302821 0.14397058 0.010181678
0.57263088 0.14346683 0.010161504
0.57223356 0.1429631 0.010141333
0.57183623 0.14245935 0.010121159
0.57143891 0.14195561 0.010100987
0.57030129 0.14191283 0.010582898
0.56990463 0.14140995 0.010562759
0.56876904 0.1413697 0.011044775
0.56911135 0.14040416 0.010522482
0.56871474 0.13990127 0.010502344
0.56831807 0.13939837 0.010482205
0.56792146 0.13889548 0.010462066
0.56752479 0.1383926 0.010441928
0.56712818 0.1378897 0.010421789
0.56673151 0.1373868 0.010401651
0.56633484 0.13688391 0.010381512
0.56593823 0.13638102 0.010361373
0.56554157 0.13587813 0.010341235
0.56514496 0.13537523 0.010321097
0.56474829 0.13487235 0.010300958
0.56435168 0.13436945 0.01028082
0.56468463 0.13339205 0.0097580552
0.56428736 0.13288832 0.0097378828
0.56461835 0.13190837 0.0092150168
0.56422037 0.13140379 0.0091948109
0.56454933 0.13042131 0.0086718425
0.56415069 0.12991588 0.0086516021
0.56375206 0.12941045 0.0086313626
0.56407839 0.12842456 0.0081082331
0.5636791 0.12791827 0.0080879591
0.56327981 0.12741199 0.0080676852
0.56288046 0.12690572 0.0080474112
0.56320345 0.12591562 0.0075241416
0.56352508 0.12492383 0.0070007974
0.5638454 0.12393035 0.0064773895
0.56416446 0.12293514 0.0059538875
0.58964163 0.15428808 0.0061306367
0.58847827 0.15421197 0.0066122008
0.58807629 0.1537023 0.0065917908
0.58691496 0.15362877 0.0070734816
0.58575493 0.15355688 0.0075552147
0.58459628 0.15348671 0.0080370158
0.58419627 0.15297958 0.0080167074
0.58379632 0.15247245 0.0079963999
0.58339632 0.15196534 0.0079760915
0.58299637 0.1514582 0.007955783
0.58184171 0.1513931 0.0084377844
0.58144236 0.15088682 0.0084175104
0.58104306 0.15038055 0.0083972365
0.58064377 0.14987427 0.0083769625
0.57949239 0.14981343 0.0088591613
0.57909375 0.149308 0.0088389209
0.57869512 0.14880256 0.0088186814
0.57829648 0.14829713 0.0087984409
0.57789779 0.1477917 0.0087782005
0.57749915 0.14728627 0.0087579601
0.57710052 0.14678083 0.0087377196
0.57595456 0.14672674 0.0092201652
0.57555658 0.14622216 0.0091999583
0.5751586 0.14571758 0.0091797523
0.57476062 0.14521298 0.0091595463
0.57436264 0.1447084 0.0091393394
0.57396466 0.14420381 0.0091191335
0.57282335 0.14415565 0.0096018156
0.57242602 0.1436519 0.0095816432
0.57202876 0.14314817 0.0095614707
0.57163143 0.14264442 0.0095412983
0.57123411 0.14214069 0.0095211258
0.57083678 0.14163695 0.0095009534
0.57043946 0.1411332 0.0094807809
0.57004219 0.14062947 0.0094606085
0.56964487 0.14012574 0.009440436
0.56924754 0.13962199 0.0094202636
0.56885022 0.13911825 0.0094000911
0.56845295 0.13861452 0.0093799187
0.56805563 0.13811077 0.0093597462
0.56765831 0.13760704 0.0093395738
0.56726098 0.1371033 0.0093194013
0.56686372 0.13659956 0.0092992289
0.56646639 0.13609582 0.0092790565
0.56606907 0.13559209 0.009258884
0.56567174 0.13508834 0.0092387116
0.56527442 0.13458461 0.0092185391
0.56487715 0.13408087 0.0091983667
0.56447983 0.13357712 0.0091781942
0.5640825 0.13307339 0.0091580218
0.56441319 0.13209376 0.0086341798
0.56401521 0.13158917 0.0086139739
0.56434381 0.13060701 0.0080900313
0.56394517 0.13010158 0.0080697909
0.56354654 0.12959614 0.0080495505
0.56387258 0.12861057 0.0075254464
0.56347322 0.12810428 0.0075051724
0.56307393 0.127598 0.007484898
0.56267464 0.12709172 0.007464624
0.56299728 0.12610194 0.0069403793
0.56259727 0.12559481 0.0069200713
0.56291789 0.12460249 0.0063957213
0.56323719 0.12360847 0.0058713043
0.59019506 0.15404239 0.0050400286
0.58979172 0.15353104 0.0050195511
0.58862877 0.15345462 0.0055020899
0.58822608 0.1529441 0.0054816459
0.58630675 0.15330689 0.0064673964
0.58514774 0.15323554 0.0069501353
0.58474708 0.15272757 0.0069297934
0.58434641 0.15221961 0.0069094514
0.58394581 0.15171163 0.0068891095
0.58354515 0.15120366 0.0068687676
0.58239019 0.1511374 0.0073517133
0.58199018 0.15063028 0.0073314053
0.58083719 0.15056655 0.0078144493
0.5804379 0.15006028 0.0077941753
0.58003861 0.149554 0.0077739009
0.57963926 0.14904772 0.0077536269
0.5784896 0.14898826 0.0082368692
0.57809097 0.14848283 0.0082166288
0.57769227 0.1479774 0.0081963884
0.57729363 0.14747196 0.0081761489
0.576895 0.14696653 0.0081559084
0.5757494 0.14691213 0.0086393254
0.57535142 0.14640754 0.0086191185
0.57495344 0.14590295 0.0085989125
0.57455546 0.14539836 0.0085787056
0.57415748 0.14489378 0.0085584996
0.5737595 0.1443892 0.0085382937
0.57261854 0.14434072 0.0090219509
0.57222122 0.14383698 0.0090017784
0.57182389 0.14333324 0.008981606
0.57142657 0.14282949 0.0089614335
0.57102931 0.14232576 0.0089412611
0.57063198 0.14182203 0.0089210887
0.57023466 0.14131828 0.0089009162
0.56983733 0.14081454 0.0088807438
0.56944007 0.14031081 0.0088605713
0.56904274 0.13980706 0.0088403989
0.56864542 0.13930333 0.0088202264
0.56824809 0.13879959 0.008800054
0.56785077 0.13829584 0.0087798815
0.5674535 0.13779211 0.0087597091
0.56705618 0.13728838 0.0087395366
0.56665885 0.13678463 0.0087193642
0.56626153 0.13628089 0.0086991917
0.56586426 0.13577716 0.0086790193
0.56546694 0.13527341 0.0086588468
0.56506962 0.13476968 0.0086386744
0.56467229 0.13426594 0.0086185019
0.56427503 0.1337622 0.0085983295
0.5638777 0.13325846 0.0085781571
0.56420797 0.13227914 0.00805334
0.56380999 0.13177456 0.008033134
0.56413829 0.13079271 0.0075082192
0.56373966 0.13028727 0.0074879788
0.56334102 0.12978184 0.0074677388
0.5636667 0.12879656 0.0069426596
0.56326741 0.12829028 0.0069223852
0.56286806 0.12778401 0.0069021112
0.56246877 0.12727773 0.0068818368
0.56206942 0.12677145 0.0068615628
0.56239104 0.12578113 0.006336309
0.56271136 0.12478912 0.0058109839
0.5630303 0.12379541 0.0052855951
0.58685786 0.15305747 0.0053776023
0.58569854 0.15298501 0.005861308
0.58529723 0.15247619 0.005840932
0.58489591 0.15196738 0.0058205561
0.58449459 0.15145855 0.0058001801
0.58333862 0.15139028 0.0062840334
0.58293796 0.15088232 0.0062636915
0.58253729 0.15037434 0.0062433495
0.581384 0.15030946 0.006727335
0.580984 0.14980234 0.0067070271
0.58058405 0.14929521 0.0066867187
0.57943338 0.14923373 0.0071708397
0.57828408 0.14917396 0.0076550576
0.57788545 0.14866853 0.0076348172
0.57748675 0.1481631 0.0076145767
0.57708812 0.14765766 0.0075943368
0.57668948 0.14715223 0.0075740963
0.57629085 0.1466468 0.0075538559
0.5751462 0.14659292 0.0080382824
0.57474822 0.14608833 0.0080180755
0.5743503 0.14558375 0.0079978695
0.57395232 0.14507917 0.0079776635
0.57355434 0.14457458 0.0079574566
0.57241368 0.1445258 0.0084420899
0.57201642 0.14402205 0.0084219174
0.57161909 0.14351831 0.008401745
0.57122177 0.14301457 0.0083815726
0.57082444 0.14251083 0.0083614001
0.57042712 0.1420071 0.0083412277
0.57002985 0.14150335 0.0083210552
0.56963253 0.14099962 0.0083008828
0.56923521 0.14049588 0.0082807094
0.56883788 0.13999213 0.0082605379
0.56844062 0.1394884 0.0082403645
0.56804329 0.13898467 0.008220192
0.56764597 0.13848092 0.0082000196
0.56724864 0.13797718 0.0081798472
0.56685132 0.13747345 0.0081596747
0.56645405 0.1369697 0.0081395023
0.56605673 0.13646597 0.0081193298
0.5656594 0.13596223 0.0080991574
0.56599271 0.13498746 0.0075735357
0.56559473 0.13448288 0.0075533292
0.56519675 0.13397829 0.0075331228
0.56479877 0.13347369 0.0075129163
0.56440079 0.13296911 0.0074927099
0.56400281 0.13246453 0.0074725039
0.56360483 0.13195994 0.0074522975
0.56393278 0.13097841 0.0069264076
0.56353414 0.13047297 0.0069061671
0.5631355 0.12996754 0.0068859267
0.56346083 0.12898257 0.0063598724
0.56306154 0.12847629 0.0063395984
0.56266218 0.12797001 0.006319324
0.56226289 0.12746374 0.0062990501
0.5618636 0.12695746 0.0062787756
0.56218487 0.12596744 0.0057525467
0.56250483 0.12497574 0.0052262503
0.58388633 0.15113667 0.005194095
0.58348507 0.15062785 0.005173719
0.58308375 0.15011904 0.0051533435
0.5819301 0.15005299 0.0056382702
0.58152944 0.14954503 0.0056179282
0.58112878 0.14903705 0.0055975863
0.57997787 0.1489744 0.0060826517
0.57882822 0.14891344 0.0065677785
0.57767993 0.14885423 0.0070530022
0.5772813 0.14834879 0.0070327618
0.5768826 0.14784336 0.0070125214
0.57648396 0.14733793 0.0069922814
0.57608533 0.1468325 0.006972041
0.57494104 0.1467783 0.0074574454
0.57454306 0.14627372 0.0074372394
0.57414508 0.14576913 0.007417033
0.5737471 0.14526455 0.0073968265
0.57334912 0.14475997 0.0073766201
0.57220888 0.14471087 0.0078622252
0.57181156 0.14420712 0.0078420527
0.57141423 0.14370339 0.0078218803
0.57101697 0.14319964 0.0078017074
0.57061964 0.1426959 0.0077815349
0.57022232 0.14219217 0.0077613625
0.56982499 0.14168842 0.00774119
0.56942773 0.14118469 0.0077210176
0.5690304 0.14068095 0.0077008451
0.56863308 0.14017721 0.0076806727
0.56823575 0.13967347 0.0076605002
0.56783843 0.13916974 0.0076403278
0.56744117 0.13866599 0.0076201553
0.56704384 0.13816226 0.0075999829
0.56664652 0.13765852 0.0075798105
0.56624919 0.13715477 0.007559638
0.56585193 0.13665104 0.0075394656
0.5654546 0.13614731 0.0075192931
0.56578755 0.13517284 0.0069926991
0.56538957 0.13466826 0.0069724927
0.56499159 0.13416366 0.0069522862
0.56459361 0.13365908 0.0069320798
0.56419563 0.1331545 0.0069118734
0.56379765 0.13264991 0.0068916674
0.56339967 0.13214533 0.0068714609
0.56372726 0.13116409 0.0063445922
0.56332862 0.13065866 0.0063243522
0.56292999 0.13015322 0.0063041118
0.56325495 0.12916858 0.0057770857
0.56285566 0.1286623 0.0057568112
0.56245637 0.12815602 0.0057365373
0.56205702 0.12764974 0.0057162629
0.56165773 0.12714346 0.0056959889
0.56197864 0.12615377 0.0051687881
0.57822305 0.14859317 0.0059647174
0.57782376 0.14808691 0.0059444434
0.57667708 0.14802904 0.0064307097
0.57627845 0.14752361 0.0064104693
0.57587981 0.14701818 0.0063902293
0.57473588 0.14696369 0.0068766088
0.5743379 0.1464591 0.0068564028
0.57393992 0.14595452 0.0068361964
0.57354194 0.14544994 0.00681599
0.57314396 0.14494535 0.0067957835
0.57200408 0.14489594 0.0072823637
0.57160676 0.14439219 0.0072621913
0.57120943 0.14388846 0.0072420188
0.57081211 0.14338471 0.0072218459
0.57041478 0.14288098 0.0072016735
0.57001752 0.14237724 0.007181501
0.56962019 0.14187349 0.0071613286
0.56922287 0.14136976 0.0071411561
0.56882554 0.14086603 0.0071209837
0.56842828 0.14036228 0.0071008112
0.56803095 0.13985854 0.0070806388
0.56763363 0.13935481 0.0070604663
0.5672363 0.13885106 0.0070402939
0.56683898 0.13834733 0.0070201214
0.56644171 0.13784359 0.006999949
0.56604439 0.13733985 0.0069797765
0.56564707 0.13683611 0.0069596041
0.56524974 0.13633238 0.0069394317
0.56558239 0.13535823 0.0064118626
0.56518441 0.13485363 0.0063916561
0.56478643 0.13434905 0.0063714497
0.56438845 0.13384447 0.0063512432
0.56399047 0.13333988 0.0063310368
0.56359249 0.1328353 0.0063108308
0.56319451 0.13233072 0.0062906244
0.5635218 0.13134979 0.0057627806
0.56312311 0.13084435 0.0057425401
0.56272447 0.13033892 0.0057223001
0.56304914 0.12935458 0.0051942985
0.56264979 0.1288483 0.0051740245
0.56225049 0.12834203 0.0051537501
0.5618512 0.12783575 0.0051334761
0.56145185 0.12732947 0.0051132017
0.57721859 0.14776662 0.0053413822
0.57607293 0.14770931 0.0058286577
0.5756743 0.14720388 0.0058084172
0.57527566 0.14669845 0.0057881773
0.57413274 0.14664449 0.0062755626
0.57373476 0.1461399 0.0062553566
0.57333678 0.14563532 0.0062351502
0.5729388 0.14513074 0.0062149437
0.57179922 0.14508101 0.006702499
0.57140189 0.14457726 0.0066823266
0.57100463 0.14407353 0.0066621541
0.5706073 0.14356978 0.0066419812
0.57020998 0.14306605 0.0066218087
0.56981266 0.14256231 0.0066016363
0.56941533 0.14205857 0.0065814639
0.56901807 0.14155483 0.0065612914
0.56862074 0.1410511 0.006541119
0.56822342 0.14054735 0.0065209465
0.56782609 0.14004362 0.0065007741
0.56742883 0.13953988 0.0064806016
0.5670315 0.13903613 0.0064604292
0.56663418 0.1385324 0.0064402567
0.56623685 0.13802867 0.0064200843
0.56583959 0.13752492 0.0063999118
0.56617314 0.13655278 0.0058714352
0.56577516 0.1360482 0.0058512287
0.56537718 0.1355436 0.0058310223
0.56497926 0.13503902 0.0058108163
0.56458127 0.13453443 0.0057906099
0.56418329 0.13402985 0.0057704034
0.56378531 0.13352527 0.005750197
0.56338733 0.13302068 0.0057299905
0.56298935 0.1325161 0.0057097841
0.56331629 0.13153549 0.0051809689
0.56291759 0.13103005 0.0051607285
0.56251895 0.13052462 0.005140488
0.57546878 0.14738958 0.0052266056
0.57507014 0.14688414 0.0052063651
0.57467151 0.14637871 0.0051861252
0.5735296 0.14632529 0.0056745196
0.57313162 0.14582071 0.0056543136
0.57273364 0.14531611 0.0056341072
0.57159442 0.14526609 0.0061226375
0.57119709 0.14476234 0.0061024651
0.57079977 0.1442586 0.0060822926
0.57040244 0.14375485 0.0060621202
0.57000518 0.14325112 0.0060419473
0.56960785 0.14274739 0.0060217753
0.56921053 0.14224364 0.0060016024
0.5688132 0.1417399 0.0059814299
0.56841594 0.14123617 0.0059612575
0.56801862 0.14073242 0.0059410851
0.56762129 0.14022869 0.0059209126
0.56722397 0.13972495 0.0059007402
0.56682664 0.13922121 0.0058805677
0.56642938 0.13871747 0.0058603953
0.56603205 0.13821374 0.0058402228
0.56563473 0.13770999 0.0058200504
0.56596798 0.13673817 0.0052905986
0.56557 0.13623357 0.0052703922
0.56517202 0.13572899 0.0052501857
0.56477404 0.1352244 0.0052299798
0.56437606 0.13471982 0.0052097733
0.56397808 0.13421524 0.0051895669
0.5635801 0.13371065 0.0051693604
0.56318212 0.13320607 0.005149154
0.56278414 0.13270149 0.0051289476
0.57292646 0.14600609 0.005073477
0.57252848 0.14550149 0.0050532706
0.5721305 0.14499691 0.0050330642
0.57173252 0.14449233 0.0050128577
0.59665751 0.13070624 0.052842092
0.596946 0.13165188 0.052829936
0.59765655 0.1267072 0.052673325
0.59794438 0.12765081 0.052661192
0.59742051 0.12913543 0.052272793
0.5977087 0.13008009 0.052260648
0.59799683 0.13102472 0.052248504
0.59828502 0.13196933 0.05223636
0.59938365 0.13236882 0.052600536
0.59967148 0.13331242 0.052588407
0.59995931 0.13425601 0.052576274
0.59540617 0.12486407 0.050999608
0.59569466 0.12580971 0.050987449
0.59598315 0.1267554 0.050975289
0.5978958 0.1266233 0.051717699
0.59818363 0.12756692 0.051705565
0.59766006 0.12905145 0.051316123
0.59794819 0.12999611 0.051303979
0.59823638 0.13094072 0.051291835
0.59852451 0.13188535 0.05127969
0.59962291 0.13228492 0.05164491
0.59991074 0.13322853 0.051632781
0.60019863 0.13417211 0.051620647
0.59886795 0.1362121 0.050853714
0.59535748 0.12383432 0.050054044
0.59564596 0.12477999 0.050041888
0.59593445 0.12572564 0.050029729
0.59622294 0.12667131 0.050017573
0.59651142 0.127617 0.050005414
0.59679991 0.12856264 0.049993254
0.5970884 0.12950833 0.049981099
0.59737682 0.130454 0.049968939
0.59766531 0.13139966 0.049956784
0.59876406 0.13180137 0.050323021
0.59986216 0.13220103 0.050689291
0.60014999 0.13314463 0.050677158
0.60043788 0.13408823 0.050665028
0.5999167 0.13557991 0.050274443
0.60020489 0.13652454 0.050262298
0.59559727 0.12375024 0.049096324
0.59588575 0.12469592 0.049084168
0.59617424 0.12564157 0.049072009
0.59646273 0.12658724 0.049059853
0.59675121 0.12753293 0.049047694
0.59703964 0.12847857 0.049035534
0.59732813 0.12942424 0.049023379
0.59761661 0.13036993 0.049011219
0.5979051 0.13131557 0.048999064
0.59819359 0.13226126 0.048986904
0.59848207 0.13320693 0.048974749
0.59877056 0.13415261 0.048962589
0.59986806 0.13455129 0.049329918
0.60015625 0.13549593 0.049317773
0.60044444 0.13644056 0.049305629
0.5999245 0.13793527 0.048913959
0.60021299 0.13888094 0.0489018
0.59969395 0.14037877 0.04851009
0.59554857 0.12272049 0.04815077
0.59583706 0.12366616 0.048138611
0.59612554 0.12461184 0.048126455
0.59641403 0.1255575 0.048114296
0.59670252 0.12650317 0.048102137
0.59699094 0.12744884 0.048089981
0.59727943 0.1283945 0.048077822
0.59756792 0.12934017 0.048065666
0.5978564 0.13028586 0.048053507
0.59814489 0.1312315 0.048041351
0.59843338 0.13217717 0.048029192
0.59872186 0.13312286 0.048017036
0.59901035 0.13406853 0.048004877
0.59929883 0.13501419 0.047992721
0.59958732 0.13595986 0.047980562
0.59987581 0.13690554 0.047968403
0.60016429 0.13785119 0.047956247
0.60045272 0.13879687 0.047944088
0.60074121 0.13974255 0.047931932
0.59578836 0.12263641 0.04719305
0.59607685 0.12358209 0.047180891
0.59636533 0.12452777 0.047168735
0.59665376 0.12547341 0.047156576
0.59694225 0.1264191 0.04714442
0.59723073 0.12736477 0.047132261
0.59751922 0.12831041 0.047120102
0.59780771 0.1292561 0.047107946
0.59809619 0.13020177 0.047095787
0.59838468 0.13114743 0.047083631
0.59867316 0.1320931 0.047071472
0.59896165 0.13303877 0.047059316
0.59925014 0.13398446 0.047047157
0.59953862 0.1349301 0.047035001
0.59982711 0.13587579 0.047022842
0.6001156 0.13682146 0.047010683
0.60040402 0.13776712 0.046998527
0.60069251 0.13871279 0.046986368
0.600981 0.13965847 0.046974212
0.60046279 0.14115714 0.046580389
0.60075164 0.14210385 0.046568215
0.59942842 0.14416063 0.045792684
0.59891218 0.1456655 0.045398798
0.59920192 0.1466153 0.045386586
0.59949166 0.14756511 0.045374375
0.59978139 0.14851488 0.045362163
0.60007113 0.1494647 0.045349952
0.59573966 0.12160669 0.046247493
0.59602815 0.12255233 0.046235338
0.59631664 0.12349801 0.046223179
0.59660506 0.12444369 0.046211023
0.59689355 0.12538934 0.046198864
0.59718204 0.12633501 0.046186704
0.59747052 0.1272807 0.046174549
0.59775901 0.12822634 0.046162389
0.59804749 0.12917203 0.046150234
0.59833598 0.1301177 0.046138074
0.59862447 0.13106334 0.046125919
0.59891295 0.13200903 0.046113759
0.59920144 0.1329547 0.046101604
0.59948993 0.13390039 0.046089444
0.59977841 0.13484603 0.046077285
0.60006684 0.1357917 0.046065129
0.60035533 0.13673739 0.04605297
0.60064381 0.13768303 0.046040814
0.6009323 0.13862872 0.046028655
0.60122079 0.13957439 0.046016499
0.60070288 0.14107297 0.045621626
0.60099167 0.14201967 0.045609452
0.59966898 0.14407627 0.04483182
0.59915298 0.14558105 0.044436891
0.59944272 0.14653085 0.044424679
0.59973252 0.14748067 0.044412468
0.60002226 0.14843044 0.04440026
0.60031199 0.14938025 0.044388048
0.60060173 0.15033005 0.044375837
0.60089147 0.15127987 0.044363625
0.60118121 0.15222967 0.044351414
0.60147095 0.15317948 0.044339202
0.60176069 0.15412927 0.044326995
0.60205042 0.15507907 0.044314783
0.59569097 0.12057693 0.045301933
0.59597945 0.12152261 0.045289773
0.59626788 0.12246826 0.045277618
0.59655637 0.12341394 0.045265459
0.59684485 0.12435961 0.045253303
0.59713334 0.12530527 0.045241144
0.59742182 0.12625094 0.045228984
0.59771031 0.12719661 0.045216829
0.5979988 0.12814227 0.045204669
0.59828728 0.12908794 0.045192514
0.59857577 0.13003363 0.045180354
0.59886426 0.13097927 0.045168199
0.59915274 0.13192494 0.045156039
0.59944123 0.13287063 0.045143884
0.59972972 0.1338163 0.045131724
0.60001814 0.13476196 0.045119569
0.60030663 0.13570763 0.045107409
0.60059512 0.1366533 0.04509525
0.6008836 0.13759896 0.045083094
0.60117209 0.13854463 0.045070935
0.60146058 0.13949032 0.045058779
0.60094291 0.1409888 0.044662863
0.60123169 0.14193551 0.044650692
0.59990954 0.14399192 0.043870967
0.60019898 0.1449407 0.043858767
0.59968358 0.14644641 0.043462772
0.59997332 0.14739622 0.043450564
0.60026306 0.14834599 0.043438353
0.6005528 0.14929581 0.043426141
0.60084254 0.15024561 0.04341393
0.60113227 0.15119542 0.043401718
0.60142201 0.15214522 0.04338951
0.60171175 0.15309504 0.043377299
0.60200149 0.15404482 0.043365087
0.60309327 0.15442839 0.043736793
0.60338271 0.15537713 0.043724597
0.59564227 0.11954717 0.044356376
0.59593076 0.12049285 0.04434422
0.59621918 0.12143853 0.044332061
0.59650767 0.12238418 0.044319905
0.59679615 0.12332986 0.044307746
0.59708464 0.12427554 0.04429559
0.59737313 0.12522118 0.044283431
0.59766161 0.12616687 0.044271272
0.5979501 0.12711254 0.044259116
0.59823859 0.1280582 0.044246957
0.59852707 0.12900387 0.044234801
0.59881556 0.12994954 0.044222642
0.59910405 0.1308952 0.044210486
0.59939253 0.13184087 0.044198327
0.59968096 0.13278656 0.044186171
0.59996945 0.13373223 0.044174012
0.60025793 0.13467787 0.044161852
0.60054642 0.13562356 0.044149697
0.60083491 0.13656923 0.044137537
0.60112339 0.13751489 0.044125382
0.60141188 0.13846056 0.044113223
0.60170037 0.13940623 0.044101067
0.60118294 0.14090464 0.0437041
0.60147172 0.14185134 0.043691929
0.60095531 0.14335279 0.043294936
0.60043955 0.14485635 0.042897914
0.60072899 0.14580511 0.042885713
0.60101843 0.14675389 0.042873517
0.60130781 0.14770265 0.04286132
0.60159725 0.14865142 0.042849123
0.60188669 0.14960018 0.042836923
0.60217613 0.15054893 0.042824727
0.60246557 0.15149772 0.04281253
0.60275495 0.15244646 0.042800333
0.60304439 0.15339525 0.042788133
0.60333383 0.15434404 0.042775936
0.60442466 0.15472563 0.043148726
0.6047138 0.15567335 0.043136541
0.60500288 0.15662111 0.043124359
0.60609251 0.15699856 0.043497194
0.6063813 0.15794526 0.043485023
