# .PCD v0.7 - Point Cloud Data file format
VERSION 0.7
FIELDS x y z
SIZE 4 4 4
TYPE F F F
COUNT 1 1 1
WIDTH 1311
HEIGHT 1
VIEWPOINT 0 0 0 1 0 0 0
POINTS 1311
DATA ascii
0.77817285 -0.0081442231 0.0074175056
0.7784071 -0.0073832059 0.0074297446
0.77942073 -0.0071290452 0.0079804184
0.77965462 -0.0063690683 0.0079926411
0.77988857 -0.0056090774 0.0080048637
0.78012246 -0.0048491 0.0080170855
0.78035641 -0.0040891091 0.0080293082
0.78059036 -0.0033291178 0.0080415308
0.78082424 -0.0025691409 0.0080537526
0.78105819 -0.0018091496 0.0080659753
0.78129214 -0.0010491726 0.0080781979
0.78152603 -0.00028918139 0.0080904206
0.78175998 0.00047080984 0.0081026424
0.78199387 0.0012307868 0.008114865
0.78222781 0.0019907781 0.0081270877
0.78246176 0.0027507693 0.0081393104
0.78269565 0.0035107462 0.0081515322
0.7829296 0.0042707375 0.0081637548
0.78316355 0.0050307144 0.0081759775
0.78339744 0.0057907058 0.0081881993
0.78363138 0.0065506967 0.0082004219
0.78386527 0.0073106741 0.0082126446
0.78332621 0.0085982075 0.0076867645
0.78356045 0.0093592247 0.0076990039
0.7837947 0.010120242 0.0077112429
0.78325695 0.011411903 0.0071854303
0.78271979 0.012705603 0.0066596502
0.78295469 0.013468686 0.0066719227
0.78241849 0.014765505 0.006146193
0.781883 0.016064391 0.0056205108
0.7821185 0.016829554 0.0056328168
0.78158385 0.018131534 0.0051071551
0.7818197 0.018897722 0.0051194769
0.7820555 0.019663924 0.0051317993
0.78229135 0.020430114 0.0051441216
0.78252721 0.021196302 0.0051564439
0.78535724 0.030390581 0.00530431
0.78559303 0.031156769 0.0053166323
0.78659332 0.031367507 0.0058666221
0.78682882 0.03213267 0.0058789281
0.78706431 0.032897819 0.0058912332
0.78729987 0.033662979 0.0059035392
0.78753537 0.034428127 0.0059158443
0.78777087 0.035193291 0.0059281504
0.78800642 0.035958439 0.0059404555
0.78824192 0.036723603 0.0059527615
0.78847742 0.037488751 0.0059650666
0.78871298 0.038253915 0.0059773722
0.78894848 0.039019063 0.0059896777
0.78918397 0.039784227 0.0060019833
0.78941953 0.040549375 0.0060142889
0.78965503 0.041314539 0.0060265944
0.78913057 0.042649612 0.0055014649
0.78936642 0.043415803 0.0055137873
0.78960222 0.044181991 0.0055261096
0.78983808 0.044948179 0.0055384315
0.79007393 0.045714367 0.0055507538
0.79030973 0.046480555 0.0055630761
0.78978759 0.047822867 0.0050380779
0.79002374 0.048590094 0.005050417
0.7902599 0.049357325 0.0050627557
0.79049605 0.050124537 0.0050750943
0.7907322 0.050891768 0.0050874334
0.79096836 0.051658995 0.0050997725
0.79219645 0.052610081 0.0056616538
0.79243225 0.053376269 0.0056739757
0.7934233 0.053557031 0.0062234835
0.79365879 0.054322179 0.006235789
0.79389435 0.055087343 0.0062480946
0.79488403 0.055263959 0.0067975065
0.79511923 0.056028083 0.0068097953
0.79535443 0.056792203 0.0068220845
0.79558963 0.057556327 0.0068343733
0.79657775 0.057727773 0.0073837163
0.79681259 0.058490857 0.0073959883
0.79629523 0.059848681 0.0068712397
0.79653043 0.06061282 0.006883529
0.79676563 0.06137694 0.0068958178
0.79700083 0.062141065 0.0069081071
0.79723603 0.062905185 0.0069203959
0.79747123 0.063669279 0.0069326842
0.79770643 0.064433403 0.0069449735
0.79794163 0.065197527 0.0069572623
0.79817683 0.065961652 0.0069695511
0.79841202 0.066725776 0.0069818404
0.79864722 0.067489892 0.0069941292
0.79963118 0.067647904 0.007543256
0.79986608 0.068411008 0.0075555285
0.79935282 0.069782265 0.007030996
0.79958802 0.070546389 0.0070432848
0.79982322 0.071310513 0.0070555741
0.76492023 -0.048838191 0.005442875
0.76515478 -0.048076134 0.0054551307
0.76538932 -0.047314093 0.005467386
0.76562387 -0.046552032 0.0054796417
0.76585847 -0.045789976 0.0054918975
0.76609302 -0.045027919 0.0055041532
0.76712257 -0.044720948 0.0060567288
0.76735681 -0.043959931 0.0060689677
0.76759106 -0.043198913 0.0060812067
0.76782531 -0.042437896 0.0060934457
0.76805955 -0.041676879 0.0061056847
0.7682938 -0.040915847 0.0061179241
0.76852804 -0.04015483 0.0061301631
0.76876223 -0.039393812 0.0061424021
0.76899648 -0.038632799 0.006154641
0.76843864 -0.037407391 0.0056267097
0.76867318 -0.036645334 0.0056389654
0.76890779 -0.035883278 0.0056512211
0.76914233 -0.035121221 0.0056634769
0.76937687 -0.034359179 0.0056757326
0.76961142 -0.033597123 0.0056879884
0.76984602 -0.032835063 0.0057002441
0.77008057 -0.032073006 0.0057124998
0.77110469 -0.031783614 0.0062647928
0.77133894 -0.031022599 0.0062770317
0.77157319 -0.030261582 0.0062892707
0.77259612 -0.02997634 0.0068414831
0.77283001 -0.029216349 0.0068537053
0.77306396 -0.028456373 0.0068659279
0.77329785 -0.027696382 0.0068781502
0.77353179 -0.02693639 0.0068903728
0.77376574 -0.026176414 0.0069025951
0.77399963 -0.025416423 0.0069148177
0.77423358 -0.024656445 0.0069270399
0.77446753 -0.023896454 0.0069392622
0.77470142 -0.023136463 0.0069514848
0.77493536 -0.022376485 0.006963707
0.77516925 -0.021616494 0.0069759297
0.7754032 -0.020856518 0.0069881519
0.77563715 -0.020096526 0.0070003746
0.77587104 -0.019336535 0.0070125968
0.77610499 -0.018576559 0.007024819
0.77633888 -0.017816568 0.0070370417
0.77657282 -0.017056575 0.0070492644
0.77680677 -0.016296599 0.0070614866
0.77782327 -0.016031997 0.0076133804
0.77805686 -0.015273046 0.0076255864
0.77829045 -0.014514095 0.0076377923
0.77852404 -0.013755144 0.0076499982
0.77875769 -0.012996192 0.0076622036
0.77899128 -0.012237241 0.0076744095
0.77922487 -0.01147829 0.0076866155
0.77945852 -0.010719338 0.0076988209
0.77969211 -0.0099603878 0.0077110268
0.7799257 -0.0092014363 0.0077232327
0.78015929 -0.0084424848 0.0077354386
0.78039294 -0.0076835342 0.0077476441
0.78062654 -0.0069245826 0.00775985
0.78086013 -0.0061656316 0.0077720559
0.78109372 -0.0054066805 0.0077842614
0.78132737 -0.004647729 0.0077964673
0.78156096 -0.0038887779 0.0078086732
0.78179455 -0.0031298269 0.0078208791
0.7820282 -0.0023708756 0.007833085
0.78226179 -0.0016119245 0.00784529
0.78249538 -0.00085297326 0.0078574959
0.78272897 -9.4022063e-05 0.0078697018
0.78296262 0.0006649291 0.0078819077
0.78319621 0.0014238803 0.0078941137
0.7834298 0.0021828457 0.0079063196
0.78366345 0.002941797 0.0079185255
0.78389704 0.0037007481 0.0079307314
0.78413063 0.0044596992 0.0079429373
0.78436422 0.0052186507 0.0079551423
0.78459787 0.0059776017 0.0079673482
0.78483146 0.0067365528 0.0079795541
0.78506505 0.0074955039 0.00799176
0.78529865 0.0082544554 0.008003966
0.7855323 0.0090134069 0.0080161719
0.78499413 0.010302909 0.007489271
0.78445661 0.011594511 0.0069624181
0.7846908 0.012355527 0.0069746571
0.7841543 0.013650215 0.00644784
0.78361839 0.014946955 0.005921056
0.78385323 0.015710039 0.0059333285
0.78331828 0.017009899 0.0054066088
0.78631675 0.029789153 0.0050644916
0.78731668 0.029999958 0.0056155208
0.78755188 0.030764082 0.0056278096
0.78778708 0.031528205 0.0056400988
0.78878576 0.031734876 0.0061910469
0.7890206 0.032497976 0.0062033194
0.7892555 0.033261057 0.0062155914
0.7894904 0.034024138 0.0062278635
0.78972524 0.034787238 0.006240136
0.78996015 0.035550319 0.0062524085
0.79019499 0.036313403 0.0062646805
0.79042989 0.037076499 0.006276953
0.79066479 0.037839584 0.0062892251
0.79089963 0.038602665 0.0063014976
0.79113454 0.039365761 0.0063137701
0.79060948 0.040697664 0.0057875658
0.79084462 0.041461788 0.0057998546
0.79107982 0.042225908 0.0058121439
0.79131502 0.042990033 0.0058244327
0.79155022 0.043754157 0.0058367215
0.79178542 0.044518277 0.0058490108
0.79202062 0.045282401 0.0058612996
0.79149812 0.046622582 0.0053352141
0.79173362 0.047387745 0.0053475196
0.79196912 0.048152894 0.0053598252
0.79220468 0.048918054 0.0053721308
0.79244018 0.049683202 0.0053844363
0.79343182 0.049867123 0.0059350329
0.79366702 0.050631247 0.0059473221
0.79390222 0.051395372 0.0059596109
0.79413742 0.052159492 0.0059718997
0.79512751 0.052338257 0.0065223989
0.79536241 0.053101338 0.0065346714
0.79635149 0.053277012 0.0070851352
0.7965861 0.054039069 0.0070973909
0.79682064 0.05480111 0.0071096467
0.79705518 0.055563167 0.0071219024
0.79728973 0.056325223 0.0071341582
0.79827696 0.056494672 0.0076845218
0.79851121 0.057255689 0.0076967608
0.79799342 0.058611382 0.0071709249
0.79822803 0.059373438 0.0071831807
0.79846257 0.06013548 0.0071954359
0.79869711 0.060897551 0.0072076921
0.79893166 0.061659597 0.0072199474
0.79916626 0.062421665 0.0072322036
0.79940081 0.06318371 0.0072444589
0.79963535 0.063945755 0.0072567146
0.79986995 0.064707823 0.0072689704
0.76520777 -0.051617909 0.0051732603
0.76544201 -0.050856892 0.0051854993
0.76567626 -0.050095875 0.0051977383
0.76591051 -0.049334858 0.0052099773
0.76614475 -0.048573829 0.0052222162
0.766379 -0.047812812 0.0052344557
0.76661325 -0.047051795 0.0052466947
0.76684749 -0.046290778 0.0052589336
0.7678768 -0.045983743 0.0058125639
0.76811075 -0.045223765 0.0058247861
0.76834464 -0.044463791 0.0058370084
0.76857859 -0.043703798 0.005849231
0.76881248 -0.042943805 0.0058614532
0.76904643 -0.042183831 0.0058736759
0.76928037 -0.041423839 0.0058858981
0.76951426 -0.040663861 0.0058981203
0.76974821 -0.039903872 0.005910343
0.76998216 -0.039143879 0.0059225657
0.77021605 -0.038383901 0.0059347879
0.77045 -0.037623912 0.0059470101
0.77068388 -0.036863919 0.0059592328
0.77091783 -0.036103942 0.005971455
0.77115178 -0.035343952 0.0059836777
0.77138567 -0.034583975 0.0059958999
0.77161962 -0.033823982 0.0060081221
0.77185357 -0.033063993 0.0060203448
0.7728768 -0.032776587 0.0065736445
0.77311039 -0.032017637 0.0065858504
0.77334398 -0.031258687 0.0065980558
0.77436596 -0.030975442 0.0071512884
0.77459925 -0.030217517 0.0071634781
0.77483249 -0.029459605 0.0071756667
0.77506578 -0.02870168 0.0071878564
0.77529907 -0.027943769 0.0072000455
0.77553236 -0.027185842 0.0072122347
0.77576566 -0.026427932 0.0072244238
0.77599895 -0.025670007 0.007236613
0.77623224 -0.024912095 0.0072488021
0.77646554 -0.024154169 0.0072609913
0.77669883 -0.023396259 0.0072731804
0.77693212 -0.022638334 0.0072853696
0.77716541 -0.021880422 0.0072975587
0.77739871 -0.021122497 0.0073097479
0.777632 -0.020364586 0.007321937
0.77786529 -0.019606674 0.0073341262
0.77809858 -0.018848749 0.0073463153
0.77833188 -0.018090839 0.0073585045
0.77856517 -0.017332913 0.0073706936
0.7787984 -0.016575001 0.0073828828
0.77903169 -0.015817076 0.0073950719
0.77926499 -0.015059165 0.0074072611
0.77949828 -0.01430124 0.0074194502
0.77973157 -0.013543328 0.0074316394
0.77996486 -0.012785403 0.0074438285
0.78019816 -0.012027492 0.0074560177
0.78043145 -0.011269567 0.0074682068
0.78066474 -0.010511655 0.007480396
0.78089803 -0.0097537441 0.0074925851
0.78113133 -0.0089958189 0.0075047743
0.78136462 -0.0082379077 0.0075169634
0.78159791 -0.007479982 0.0075291526
0.7818312 -0.0067220707 0.0075413417
0.7820645 -0.0059641455 0.0075535309
0.78229779 -0.0052062343 0.00756572
0.78330827 -0.0049601891 0.0081183547
0.78354126 -0.0042033037 0.0081305271
0.7837742 -0.0034464186 0.0081426995
0.78400719 -0.0026895332 0.0081548719
0.78424013 -0.0019326478 0.0081670443
0.78447312 -0.0011757624 0.0081792176
0.78470612 -0.000418877 0.00819139
0.78493905 0.00033799413 0.0082035623
0.78517205 0.0010948795 0.0082157347
0.78540498 0.0018517649 0.0082279071
0.78563797 0.0026086504 0.0082400795
0.78587097 0.0033655358 0.0082522519
0.7861039 0.0041224211 0.0082644252
0.7863369 0.0048793065 0.0082765976
0.78656983 0.0056361919 0.00828877
0.78680283 0.0063930773 0.0083009424
0.78703576 0.0071499483 0.0083131148
0.78726876 0.0079068337 0.0083252871
0.78673023 0.0091942064 0.0077973143
0.78619236 0.010483658 0.0072693741
0.78642601 0.011242609 0.00728158
0.78588909 0.012535154 0.0067536896
0.78535271 0.013829781 0.0062258178
0.78558695 0.014590812 0.0062380573
0.78505164 0.015888527 0.0057102502
0.78451693 0.017188309 0.0051824762
0.78475183 0.017951392 0.0051947488
0.78804016 0.028634623 0.005366561
0.788275 0.029397706 0.005378833
0.78927374 0.029605497 0.0059308526
0.78950834 0.030367553 0.0059431084
0.78974289 0.031129612 0.0059553641
0.78997743 0.031891655 0.0059676194
0.79021198 0.032653712 0.0059798751
0.79044658 0.033415768 0.0059921308
0.79068112 0.034177825 0.0060043866
0.79091567 0.034939867 0.0060166419
0.79115027 0.035701923 0.0060288976
0.79138482 0.036463983 0.0060411533
0.79161936 0.03722604 0.0060534091
0.7918539 0.037988082 0.0060656648
0.79208851 0.038750138 0.0060779206
0.79232305 0.039512195 0.0060901763
0.7925576 0.040274251 0.006102432
0.7927922 0.041036312 0.0061146878
0.79302675 0.041798353 0.006126943
0.79250288 0.043133281 0.0055997348
0.79273772 0.043896377 0.0056120069
0.79297262 0.044659462 0.0056242794
0.79320753 0.045422543 0.0056365514
0.79344237 0.046185642 0.0056488239
0.79367727 0.046948723 0.0056610964
0.79391217 0.047711819 0.0056733685
0.79414701 0.048474904 0.005685641
0.79589367 0.048075672 0.006776575
0.79612792 0.048836689 0.006788814
0.79636216 0.049597707 0.006801053
0.79584146 0.050942995 0.006274011
0.79683065 0.051119756 0.0068255314
0.7970649 0.051880773 0.0068377703
0.79729915 0.05264179 0.0068500093
0.79828709 0.052814391 0.0074014775
0.79852104 0.05357438 0.0074137002
0.79875493 0.054334357 0.0074259224
0.79898888 0.05509435 0.0074381451
0.79922283 0.055854339 0.0074503673
0.79945672 0.056614317 0.00746259
0.79969066 0.057374306 0.0074748122
0.79992455 0.058134284 0.0074870344
0.7673682 -0.04831142 0.0050036334
0.76839751 -0.048003275 0.0055583199
0.7686311 -0.047244325 0.0055705253
0.76886475 -0.046485376 0.0055827312
0.76909834 -0.045726422 0.0055949371
0.77012604 -0.045423452 0.0061495402
0.77035934 -0.044665541 0.0061617293
0.77059263 -0.043907616 0.0061739185
0.77082592 -0.043149706 0.0061861076
0.77105922 -0.042391781 0.0061982968
0.77129251 -0.04163387 0.0062104859
0.7715258 -0.040875956 0.0062226751
0.77175909 -0.040118031 0.0062348642
0.77120078 -0.038895864 0.005704789
0.77222568 -0.038602196 0.0062592425
0.77245897 -0.037844285 0.0062714317
0.77269226 -0.03708636 0.0062836208
0.77292556 -0.036328446 0.00629581
0.77315885 -0.035570521 0.0063079991
0.77339214 -0.034812611 0.0063201883
0.77362537 -0.034054685 0.0063323774
0.77464771 -0.033769283 0.0068866978
0.77488071 -0.033012412 0.0068988702
0.7751137 -0.032255527 0.0069110431
0.77534664 -0.031498641 0.0069232155
0.77557963 -0.030741755 0.0069353878
0.77581257 -0.029984869 0.0069475607
0.77604556 -0.029227985 0.0069597331
0.77627856 -0.028471099 0.0069719055
0.77651149 -0.027714213 0.0069840783
0.77674448 -0.026957329 0.0069962507
0.77697742 -0.026200457 0.0070084231
0.77721041 -0.025443573 0.0070205955
0.77822864 -0.025171636 0.0075747147
0.77846134 -0.024415789 0.0075868703
0.77869397 -0.023659945 0.0075990264
0.77892661 -0.022904085 0.0076111825
0.77915925 -0.022148238 0.0076233381
0.77939194 -0.021392394 0.0076354942
0.77962458 -0.020636534 0.0076476503
0.77985722 -0.01988069 0.0076598059
0.78008986 -0.019124843 0.007671962
0.78032255 -0.018368999 0.0076841176
0.78055519 -0.017613139 0.0076962737
0.78078783 -0.016857293 0.0077084294
0.78102046 -0.016101448 0.0077205854
0.78125316 -0.015345588 0.0077327415
0.7814858 -0.014589743 0.0077448972
0.78171843 -0.013833898 0.0077570532
0.78195107 -0.013078039 0.0077692093
0.78218377 -0.012322193 0.007781365
0.7824164 -0.011566347 0.0077935206
0.78264904 -0.010810488 0.0078056767
0.78288168 -0.010054642 0.0078178328
0.78311437 -0.0092987968 0.0078299884
0.78334701 -0.0085429521 0.007842144
0.78357965 -0.0077870921 0.0078543006
0.78381234 -0.007031247 0.0078664562
0.78404498 -0.0062754015 0.0078786118
0.78427762 -0.0055195419 0.0078907683
0.78451025 -0.0047636968 0.007902924
0.78474295 -0.0040078512 0.0079150796
0.78497559 -0.0032519917 0.0079272361
0.78520823 -0.0024961464 0.0079393918
0.78544086 -0.001740301 0.0079515474
0.7864486 -0.0015024684 0.0085051032
0.78668088 -0.00074766303 0.008517242
0.78691322 7.1565532e-06 0.0085293809
0.78714556 0.00076197612 0.0085415207
0.78737789 0.0015167957 0.0085536605
0.78761023 0.002271601 0.0085657993
0.78784257 0.0030264205 0.0085779382
0.78807491 0.0037812402 0.008590078
0.78830725 0.0045360452 0.0086022168
0.78853959 0.005290865 0.0086143566
0.78877193 0.0060456847 0.0086264955
0.78823268 0.0073299003 0.0080974186
0.78846538 0.0080857454 0.0081095742
0.78792703 0.0093730846 0.0075805322
0.78816003 0.01012997 0.0075927046
0.78762275 0.011420368 0.0070637269
0.78708607 0.012712861 0.0065347827
0.78731966 0.013471813 0.0065469886
0.78678399 0.014767383 0.0060180938
0.78624886 0.016065067 0.0054892325
0.78852916 0.026509438 0.0051074727
0.78876376 0.027271496 0.0051197284
0.78899831 0.028033538 0.0051319841
0.78999674 0.028241381 0.005685057
0.79099464 0.028447125 0.0062380973
0.79122853 0.029207116 0.00625032
0.79146248 0.029967107 0.0062625422
0.79169643 0.030727085 0.0062747644
0.79193032 0.031487077 0.0062869871
0.79216427 0.032247066 0.0062992098
0.79239821 0.033007044 0.006311432
0.7926321 0.033767037 0.0063236542
0.79286605 0.034527011 0.0063358769
0.79309994 0.035287004 0.0063480991
0.79333389 0.036046993 0.0063603218
0.79356784 0.036806971 0.006372544
0.79380172 0.037566964 0.0063847667
0.79403567 0.038326941 0.0063969889
0.79426962 0.03908693 0.0064092111
0.79450351 0.039846923 0.0064214338
0.79397887 0.041178711 0.005893121
0.79421312 0.041939728 0.00590536
0.79444736 0.04270076 0.005917599
0.79468161 0.043461777 0.0059298379
0.79491585 0.044222794 0.0059420774
0.7951501 0.044983812 0.0059543164
0.79538435 0.045744829 0.0059665553
0.79561859 0.046505861 0.0059787943
0.79585284 0.047266878 0.0059910333
0.79684275 0.047446776 0.0065436577
0.79783201 0.047624644 0.0070962491
0.7980656 0.048383597 0.0071084546
0.79754454 0.049726736 0.0065803253
0.79853284 0.049901497 0.0071328664
0.79876643 0.05066045 0.0071450719
0.79900002 0.0514194 0.0071572778
0.79923368 0.052178353 0.0071694837
0.76938552 -0.048502713 0.0053306287
0.76961881 -0.047744799 0.0053428179
0.7698521 -0.046986874 0.005355007
0.77008539 -0.046228964 0.0053671962
0.77111256 -0.045926955 0.0059228367
0.77134556 -0.045170069 0.0059350091
0.77157849 -0.044413183 0.005947182
0.77181149 -0.043656297 0.0059593543
0.77204442 -0.042899415 0.0059715272
0.77227741 -0.042142529 0.0059836996
0.77251041 -0.041385643 0.005995872
0.77274334 -0.040628757 0.0060080448
0.77297634 -0.039871886 0.0060202172
0.77320927 -0.039115001 0.0060323896
0.77344227 -0.038358115 0.006044562
0.77367526 -0.037601229 0.0060567348
0.7739082 -0.036844343 0.0060689072
0.77414119 -0.036087461 0.0060810796
0.77437413 -0.035330575 0.0060932525
0.77539629 -0.035045136 0.0066486415
0.77562892 -0.034289293 0.0066607976
0.77586156 -0.033533446 0.0066729533
0.7760942 -0.032777585 0.0066851093
0.77632689 -0.032021742 0.006697265
0.77655953 -0.031265896 0.0067094211
0.77679217 -0.030510051 0.0067215767
0.77702487 -0.02975419 0.0067337328
0.7772575 -0.028998345 0.0067458889
0.77749014 -0.0282425 0.0067580445
0.77772278 -0.027486641 0.0067702006
0.77874106 -0.027213596 0.0073253755
0.77897334 -0.026458791 0.0073375148
0.77920568 -0.02570397 0.0073496541
0.77943802 -0.02494915 0.0073617934
0.77967036 -0.024194332 0.0073739327
0.7799027 -0.023439527 0.0073860716
0.78013504 -0.022684706 0.0073982109
0.78036737 -0.021929886 0.0074103503
0.78059971 -0.021175068 0.0074224896
0.78083205 -0.020420263 0.0074346289
0.78106439 -0.019665442 0.0074467682
0.78129673 -0.018910622 0.0074589076
0.78152907 -0.018155817 0.0074710464
0.78176141 -0.017400999 0.0074831857
0.78199369 -0.016646178 0.0074953251
0.78222603 -0.015891358 0.0075074644
0.78245836 -0.015136554 0.0075196037
0.7826907 -0.014381734 0.007531743
0.78292304 -0.013626914 0.0075438824
0.78315538 -0.012872095 0.0075560217
0.78338772 -0.012117289 0.0075681605
0.78362006 -0.01136247 0.0075802999
0.7838524 -0.010607651 0.0075924392
0.78408474 -0.0098528303 0.0076045785
0.78431708 -0.009098025 0.0076167178
0.78454942 -0.0083432058 0.0076288572
0.78478175 -0.0075883865 0.0076409965
0.78501403 -0.0068335808 0.0076531358
0.78524637 -0.0060787615 0.0076652751
0.78547871 -0.0053239418 0.0076774145
0.78571105 -0.0045691221 0.0076895538
0.78594339 -0.0038143171 0.0077016926
0.78617573 -0.0030594973 0.007713832
0.78718317 -0.0028215873 0.0082684131
0.78741521 -0.0020678076 0.0082805352
0.78764719 -0.001314028 0.0082926583
0.78865337 -0.0010802762 0.0088472012
0.78888506 -0.00032753666 0.0088593066
0.78911674 0.00042521709 0.0088714128
0.78934842 0.0011779709 0.0088835191
0.78958017 0.0019307104 0.0088956254
0.78981185 0.0026834642 0.0089077316
0.79004353 0.0034362036 0.008919837
0.79027522 0.0041889572 0.0089319432
0.79050696 0.0049417112 0.0089440495
0.78996736 0.0062237815 0.0084138848
0.7901994 0.0069775754 0.0084260069
0.78966075 0.0082627395 0.0078959214
0.78989309 0.0090175588 0.0079080602
0.7893554 0.010305841 0.0073779956
0.7888183 0.011596221 0.0068479492
0.78905129 0.012353105 0.0068601216
0.78851521 0.013646545 0.0063301395
0.78797978 0.014942065 0.0058001913
0.78744495 0.016239651 0.0052702758
0.79025209 0.025359474 0.0054169446
0.79048598 0.026119465 0.0054291673
0.79071993 0.026879441 0.0054413895
0.79171747 0.027085299 0.0059954836
0.79195112 0.027844248 0.0060076895
0.79294771 0.028046986 0.0065617338
0.793181 0.028804896 0.0065739229
0.79341429 0.029562807 0.0065861116
0.79364759 0.030320734 0.0065983012
0.79388088 0.031078644 0.0066104904
0.79411417 0.031836569 0.0066226795
0.79434747 0.03259448 0.0066348687
0.79458076 0.033352405 0.0066470578
0.79481399 0.034110319 0.006659247
0.79504728 0.034868244 0.0066714361
0.79528058 0.035626154 0.0066836253
0.79551387 0.03638408 0.0066958144
0.79574716 0.03714199 0.0067080036
0.79598045 0.037899915 0.0067201927
0.79545522 0.039228518 0.0061907764
0.79568881 0.039987467 0.0062029823
0.7959224 0.040746432 0.0062151882
0.79539841 0.042079166 0.0056858379
0.79563236 0.042839143 0.0056980602
0.79586631 0.043599136 0.0057102828
0.7961002 0.04435911 0.005722505
0.79633415 0.045119103 0.0057347277
0.7965681 0.045879092 0.0057469499
0.79755765 0.046059091 0.0063006287
0.7977913 0.046818044 0.0063128341
0.7987799 0.046994921 0.0068664625
0.7990132 0.047752846 0.0068786517
0.79924649 0.048510756 0.0068908408
0.79947978 0.049268682 0.00690303
0.75663871 -0.10575948 0.0063995668
0.75687039 -0.10500673 0.006411673
0.75791955 -0.10463229 0.0069695315
0.75815094 -0.10388057 0.006981621
0.75838232 -0.10312886 0.0069937105
0.75779718 -0.10199574 0.0064600972
0.77037305 -0.049002018 0.0051050461
0.77060598 -0.048245132 0.0051172185
0.77083898 -0.047488246 0.0051293913
0.77107191 -0.04673136 0.0051415637
0.7720986 -0.046430346 0.0056982422
0.77233124 -0.045674499 0.0057103978
0.77256387 -0.044918638 0.0057225539
0.77279651 -0.044162795 0.00573471
0.77382153 -0.043866944 0.0062913047
0.77405387 -0.043112125 0.006303444
0.77428621 -0.042357307 0.0063155834
0.77451855 -0.041602485 0.0063277227
0.77475083 -0.040847681 0.0063398615
0.77498317 -0.040092863 0.0063520009
0.77521551 -0.039338041 0.0063641402
0.77544785 -0.038583223 0.0063762795
0.77568018 -0.037828416 0.0063884188
0.77591252 -0.037073597 0.0064005582
0.77614486 -0.036318779 0.0064126975
0.7763772 -0.035563957 0.0064248368
0.77660954 -0.034809154 0.0064369761
0.77684188 -0.034054335 0.0064491155
0.77707422 -0.033299513 0.0064612548
0.77730656 -0.03254471 0.0064733936
0.77753884 -0.031789888 0.006485533
0.77777117 -0.031035069 0.0064976723
0.77800351 -0.030280249 0.0065098116
0.77902216 -0.030005062 0.0070660454
0.7792542 -0.029251281 0.007078168
0.77948618 -0.028497502 0.0070902905
0.77971822 -0.027743723 0.0071024131
0.7799502 -0.026989929 0.0071145361
0.78018224 -0.02623615 0.0071266587
0.78041428 -0.02548237 0.0071387812
0.78064626 -0.024728591 0.0071509038
0.78087831 -0.023974812 0.0071630264
0.78111029 -0.023221031 0.0071751489
0.78134233 -0.022467252 0.0071872715
0.78157431 -0.021713458 0.0071993945
0.78180635 -0.020959679 0.0072115171
0.78203839 -0.0202059 0.0072236396
0.78227037 -0.019452119 0.0072357622
0.78250241 -0.01869834 0.0072478848
0.78273439 -0.017944561 0.0072600073
0.78296643 -0.017190767 0.0072721303
0.78319848 -0.016436987 0.0072842529
0.78343046 -0.015683208 0.0072963755
0.7836625 -0.014929428 0.007308498
0.78389448 -0.014175649 0.0073206206
0.78412652 -0.013421869 0.0073327431
0.7843585 -0.012668075 0.0073448662
0.78459054 -0.011914296 0.0073569887
0.78482258 -0.011160516 0.0073691113
0.78505456 -0.010406736 0.0073812339
0.78528661 -0.0096529573 0.0073933564
0.78551859 -0.0088991774 0.007405479
0.78575063 -0.0081453985 0.0074176015
0.78598261 -0.0073916041 0.0074297246
0.78621465 -0.0066378247 0.0074418471
0.78644669 -0.0058840453 0.0074539697
0.78667867 -0.0051302658 0.0074660922
0.78691071 -0.0043764864 0.0074782148
0.78791785 -0.0041385232 0.0080338791
0.78814954 -0.0033857836 0.0080459844
0.78838128 -0.0026330301 0.0080580907
0.78938717 -0.0023992129 0.0086136879
0.78961855 -0.0016474993 0.0086257774
0.78984988 -0.00089578552 0.0086378669
0.79008126 -0.00014407178 0.0086499555
0.79031265 0.00060764194 0.008662045
0.79054403 0.0013593556 0.0086741345
0.79077542 0.0021110694 0.008686224
0.7910068 0.0028627831 0.0086983135
0.79123819 0.0036144969 0.008710403
0.79146957 0.0043662107 0.0087224925
0.79170096 0.0051179244 0.008734582
0.79193234 0.0058696382 0.0087466706
0.79139334 0.0071526831 0.0082154684
0.79162502 0.0079054367 0.0082275746
0.79108697 0.0091915885 0.0076964227
0.79054958 0.010479793 0.0071653323
0.79078192 0.011234612 0.0071774716
0.79024547 0.012525935 0.0066464022
0.78970957 0.013819342 0.0061153658
0.78917444 0.015114796 0.0055843634
0.78863984 0.016412318 0.0050534084
0.79097593 0.024001844 0.0051754662
0.79120958 0.024760794 0.0051876721
0.79220718 0.024967726 0.0057428223
0.79244047 0.025725638 0.0057550115
0.79343712 0.025929494 0.0063101267
0.79367012 0.026686365 0.0063222991
0.79466587 0.026887082 0.0068773646
0.79489851 0.027642928 0.0068895202
0.79513115 0.028398788 0.0069016763
0.79536378 0.029154632 0.0069138324
0.79559648 0.029910477 0.006925988
0.79582912 0.030666338 0.0069381441
0.79606175 0.031422183 0.0069502997
0.79629439 0.032178029 0.0069624558
0.79652709 0.032933887 0.0069746119
0.79675972 0.033689734 0.0069867675
0.79699236 0.03444558 0.0069989236
0.797225 0.035201423 0.0070110792
0.7974577 0.035957284 0.0070232353
0.79693168 0.037282746 0.0064927144
0.79716468 0.038039632 0.0065048872
0.79739761 0.038796518 0.0065170596
0.79687297 0.040126078 0.0059866053
0.79710621 0.040883988 0.0059987945
0.7973395 0.041641913 0.0060109836
0.79757279 0.042399827 0.0060231728
0.79780608 0.043157753 0.0060353619
0.79803938 0.043915663 0.0060475511
0.79827267 0.044673588 0.0060597407
0.79926139 0.044851586 0.0066144397
0.79949439 0.045608472 0.0066266125
0.75659829 -0.10655949 0.0056225625
0.75682998 -0.10580675 0.0056346687
0.75706172 -0.105054 0.0056467745
0.75811058 -0.10467948 0.0062056729
0.75834197 -0.10392777 0.0062177624
0.75857335 -0.10317606 0.0062298519
0.75880474 -0.10242434 0.0062419414
0.76066804 -0.10243739 0.0073475116
0.76089883 -0.10168774 0.007359568
0.77308398 -0.046933588 0.0054757409
0.77331632 -0.04617878 0.0054878802
0.77354866 -0.045423962 0.0055000195
0.773781 -0.04466914 0.0055121589
0.77480543 -0.044374239 0.0060697771
0.77503747 -0.04362046 0.0060818996
0.77526945 -0.042866681 0.0060940222
0.77550149 -0.042112902 0.0061061447
0.77573347 -0.041359108 0.0061182678
0.77675599 -0.041070431 0.0066757859
0.77698767 -0.040317681 0.0066878917
0.77721936 -0.039564941 0.0066999975
0.7774511 -0.038812187 0.0067121037
0.77768278 -0.038059447 0.0067242095
0.77791446 -0.037306692 0.0067363158
0.77814615 -0.036553938 0.006748422
0.77837789 -0.035801198 0.0067605278
0.77860957 -0.035048444 0.0067726336
0.77884126 -0.034295704 0.0067847399
0.77907294 -0.033542953 0.0067968457
0.77930468 -0.032790214 0.0068089515
0.77953637 -0.032037459 0.0068210578
0.77976805 -0.031284705 0.006833164
0.77999973 -0.030531965 0.0068452698
0.78023148 -0.029779213 0.0068573761
0.78046316 -0.029026473 0.0068694819
0.78069484 -0.028273718 0.0068815877
0.78171128 -0.028004676 0.0074387901
0.78194267 -0.027252963 0.0074508796
0.78217405 -0.026501248 0.007462969
0.78240544 -0.025749534 0.0074750581
0.78263682 -0.024997821 0.0074871476
0.78286821 -0.024246108 0.0074992371
0.78309959 -0.023494393 0.0075113266
0.78333098 -0.022742679 0.0075234156
0.7835623 -0.021990966 0.0075355051
0.78379369 -0.021239253 0.0075475946
0.78402507 -0.020487539 0.0075596841
0.78425646 -0.019735824 0.0075717731
0.7837069 -0.018488005 0.0070389658
0.78393859 -0.017735252 0.0070510721
0.78417033 -0.016982498 0.0070631783
0.78440201 -0.016229758 0.0070752841
0.7846337 -0.015477004 0.0070873899
0.78486538 -0.014724265 0.0070994962
0.78509712 -0.013971511 0.007111602
0.78532881 -0.013218758 0.0071237083
0.78556049 -0.012466018 0.0071358141
0.78579217 -0.011713265 0.0071479203
0.78602386 -0.010960525 0.0071600261
0.7862556 -0.010207771 0.0071721324
0.78648728 -0.0094550317 0.0071842382
0.78671896 -0.0087022781 0.007196344
0.78695071 -0.0079495246 0.0072084502
0.78718239 -0.0071967845 0.007220556
0.78741407 -0.0064440309 0.0072326623
0.78764576 -0.0056912913 0.0072447681
0.78787744 -0.0049385377 0.0072568743
0.78888404 -0.0047015506 0.0078135608
0.78911543 -0.0039498368 0.0078256503
0.79012114 -0.0037159575 0.0083823167
0.79035217 -0.0029652838 0.0083943894
0.79058325 -0.0022145959 0.0084064621
0.79081428 -0.0014639222 0.0084185349
0.79104537 -0.0007132343 0.0084306076
0.7912764 3.7439411e-05 0.0084426804
0.79150748 0.0007881131 0.0084547531
0.79173857 0.001538801 0.0084668258
0.7919696 0.0022894747 0.0084788986
0.79220068 0.0030401626 0.0084909713
0.79243171 0.0037908363 0.008503044
0.7926628 0.0045415242 0.0085151168
0.79289383 0.0052921982 0.0085271895
0.79312491 0.0060428716 0.0085392622
0.79335594 0.0067935595 0.008551335
0.79281747 0.0080775833 0.0080190804
0.79227972 0.0093636699 0.0074868887
0.79174256 0.010651822 0.0069547296
0.79120606 0.011942041 0.006422604
0.79067022 0.013234326 0.0058905119
0.79013491 0.014528707 0.005358438
0.7903679 0.015285593 0.0053706104
0.79293054 0.023611316 0.0055045085
0.79392731 0.023816232 0.0060606943
0.79416001 0.024572076 0.0060728504
0.79515576 0.024773903 0.0066289715
0.7953881 0.025528722 0.0066411109
0.79562044 0.026283542 0.0066532502
0.79661489 0.02648125 0.0072093052
0.79684693 0.027235029 0.0072214277
0.79707897 0.027988808 0.0072335503
0.79731095 0.028742589 0.0072456733
0.79754299 0.029496368 0.0072577959
0.79777497 0.030250147 0.0072699185
0.79800701 0.031003941 0.007282041
0.79823899 0.03175772 0.0072941636
0.79847103 0.032511499 0.0073062866
0.79870307 0.033265281 0.0073184092
0.79817611 0.034586515 0.0067867823
0.79840845 0.035341334 0.0067989216
0.79788244 0.036665674 0.0062673446
0.79811507 0.037421517 0.0062795007
0.79834771 0.038177378 0.0062916568
0.79858041 0.038933225 0.0063038124
0.79881305 0.039689068 0.0063159685
0.79904568 0.040444929 0.0063281246
0.79927832 0.041200776 0.0063402802
0.79951102 0.041956618 0.0063524358
0.79974365 0.04271248 0.0063645919
0.79997629 0.043468323 0.006376748
0.75680804 -0.11261167 0.0058689625
0.75703913 -0.11186099 0.0058810357
0.76159722 -0.11221431 0.0086449962
0.76182663 -0.11146881 0.0086569861
0.75714475 -0.10848524 0.0053813821
0.75737613 -0.10773353 0.0053934716
0.75911868 -0.10510487 0.0059896903
0.7593497 -0.10435419 0.006001763
0.75876439 -0.10322325 0.0054660076
0.75899577 -0.10247154 0.0054780971
0.7608586 -0.10248446 0.0065857614
0.76108932 -0.10173482 0.0065978174
0.77383691 -0.048190478 0.0052432111
0.77406895 -0.047436699 0.0052553336
0.77430093 -0.04668292 0.0052674562
0.77453297 -0.045929126 0.0052795792
0.77476496 -0.045175344 0.0052917018
0.77578878 -0.044881433 0.005850357
0.77602053 -0.044128679 0.0058624633
0.77704334 -0.043837875 0.0064210687
0.77727473 -0.04308616 0.0064331582
0.77750611 -0.042334445 0.0064452477
0.7777375 -0.041582733 0.0064573367
0.77796888 -0.040831018 0.0064694262
0.77820027 -0.040079307 0.0064815157
0.77843165 -0.039327592 0.0064936052
0.77866304 -0.038575877 0.0065056942
0.77889442 -0.037824165 0.0065177837
0.77912575 -0.03707245 0.0065298732
0.77935714 -0.036320735 0.0065419627
0.77958852 -0.035569023 0.0065540518
0.77981991 -0.034817293 0.0065661417
0.78005129 -0.034065582 0.0065782308
0.78028268 -0.033313867 0.0065903203
0.78051406 -0.032562155 0.0066024098
0.78074545 -0.03181044 0.0066144993
0.78097683 -0.031058727 0.0066265883
0.78120822 -0.030307012 0.0066386778
0.7814396 -0.029555298 0.0066507673
0.7824558 -0.029286208 0.0072090384
0.78268689 -0.028535521 0.0072211116
0.78291792 -0.027784847 0.0072331838
0.783149 -0.027034158 0.007245257
0.78338009 -0.026283484 0.0072573298
0.78361112 -0.025532812 0.007269402
0.78384221 -0.024782123 0.0072814752
0.78407323 -0.024031449 0.007293548
0.78430432 -0.023280762 0.0073056207
0.78453535 -0.022530088 0.0073176934
0.78476644 -0.021779399 0.0073297662
0.78499746 -0.021028725 0.0073418389
0.78522855 -0.020278053 0.0073539116
0.78545964 -0.019527365 0.0073659844
0.78491026 -0.018279593 0.0068321079
0.78514165 -0.017527878 0.0068441974
0.78537303 -0.016776165 0.0068562869
0.78560442 -0.016024452 0.0068683759
0.7858358 -0.015272738 0.0068804654
0.78606719 -0.014521024 0.0068925549
0.78629851 -0.013769311 0.0069046444
0.7865299 -0.013017597 0.0069167335
0.78676128 -0.012265883 0.006928823
0.78699267 -0.011514169 0.0069409125
0.78722405 -0.010762456 0.006953002
0.78745544 -0.010010742 0.006965091
0.78768682 -0.0092590284 0.0069771805
0.78791821 -0.0085073141 0.00698927
0.7881496 -0.0077556008 0.0070013595
0.78838098 -0.0070038871 0.0070134485
0.78861231 -0.0062521733 0.007025538
0.78961873 -0.0060151243 0.0075832941
0.78984976 -0.0052644503 0.0075953668
0.79008085 -0.0045137769 0.0076074395
0.7910859 -0.0042808559 0.0081651136
0.79131663 -0.003531208 0.0081771696
0.79154736 -0.0027815602 0.0081892265
0.79177809 -0.0020319265 0.0082012825
0.79200888 -0.0012822787 0.0082133384
0.79223961 -0.00053263077 0.0082253944
0.79247034 0.00021701716 0.0082374504
0.79270107 0.00096666504 0.0082495064
0.7929318 0.001716313 0.0082615633
0.79316258 0.0024659466 0.0082736192
0.79339331 0.0032155945 0.0082856752
0.79362404 0.0039652423 0.0082977312
0.79385477 0.0047148904 0.0083097871
0.79408556 0.0054645385 0.0083218431
0.79431629 0.0062141861 0.0083339
0.79454702 0.0069638342 0.008345956
0.79400885 0.0082477899 0.007812676
0.79347128 0.0095338151 0.0072794151
0.79293442 0.010821902 0.0067462022
0.79239815 0.01211207 0.0062130224
0.79186255 0.013404276 0.0056798905
0.7913276 0.014698574 0.0051467628
0.79388678 0.023012916 0.0052804775
0.79488289 0.023216888 0.0058377008
0.79587841 0.023418792 0.0063948622
0.79687327 0.023618616 0.0069520045
0.79710495 0.024371371 0.0069641103
0.7973367 0.02512411 0.0069762161
0.79756838 0.025876863 0.0069883224
0.79780006 0.026629603 0.0070004282
0.79803175 0.027382357 0.0070125344
0.79826349 0.02813511 0.0070246407
0.79849517 0.028887849 0.0070367465
0.79872686 0.029640604 0.0070488523
0.79895854 0.030393343 0.0070609585
0.79919022 0.031146096 0.0070730643
0.79942197 0.031898838 0.0070851706
0.79965365 0.032651592 0.0070972764
0.79912663 0.033971734 0.006564579
0.79935867 0.034725513 0.0065767015
0.7988326 0.036048748 0.0060440684
0.79906493 0.03680357 0.0060562077
0.79929727 0.037558388 0.006068347
0.79952961 0.038313195 0.0060804863
0.79976189 0.039068013 0.0060926257
0.79999423 0.039822832 0.006104765
0.75699884 -0.11265881 0.0051061581
0.75722986 -0.11190812 0.0051182308
0.76178664 -0.11226112 0.0078874631
0.76201612 -0.11151561 0.007899452
0.75815415 -0.1089054 0.0051665222
0.75930941 -0.105152 0.0052268859
0.7595405 -0.10440132 0.0052389586
0.77435821 -0.050197929 0.0050007021
0.7745899 -0.049445175 0.0050128084
0.77561474 -0.049147051 0.0055725845
0.77584612 -0.048395339 0.005584674
0.77528501 -0.047186941 0.0050491262
0.77551669 -0.04643419 0.0050612325
0.77574843 -0.045681436 0.0050733383
0.77677166 -0.045388497 0.0056330315
0.77700305 -0.044636782 0.0056451205
0.77802539 -0.044346929 0.0062047793
0.77825642 -0.043596253 0.0062168515
0.7784875 -0.042845566 0.0062289247
0.77871853 -0.04209489 0.0062409975
0.77894962 -0.041344218 0.0062530697
0.77918071 -0.040593531 0.0062651429
0.77941173 -0.039842855 0.0062772157
0.77964282 -0.039092168 0.0062892884
0.77987385 -0.038341496 0.0063013611
0.78010494 -0.037590805 0.0063134339
0.78033596 -0.036840133 0.0063255066
0.78056705 -0.036089458 0.0063375793
0.78079814 -0.035338771 0.0063496521
0.78102916 -0.034588099 0.0063617248
0.78126025 -0.033837412 0.0063737975
0.78149128 -0.033086736 0.0063858703
0.78172237 -0.032336049 0.006397943
0.78195339 -0.031585373 0.0064100157
0.78218448 -0.030834701 0.0064220885
0.78241551 -0.030084012 0.0064341612
0.78343111 -0.029815881 0.0069934553
0.7836619 -0.029066231 0.0070055113
0.78389263 -0.028316583 0.0070175678
0.78412336 -0.027566951 0.0070296233
0.78513736 -0.027303975 0.0075888345
0.78536779 -0.026555367 0.0076008737
0.78559822 -0.025806759 0.0076129134
0.78582865 -0.02505815 0.0076249526
0.78605908 -0.024309529 0.0076369923
0.78628951 -0.023560921 0.0076490319
0.78651994 -0.022812312 0.0076610711
0.78675038 -0.022063706 0.0076731108
0.78698075 -0.021315083 0.0076851505
0.78643078 -0.020070486 0.0071501848
0.78588146 -0.018823821 0.0066152527
0.78611249 -0.018073134 0.0066273254
0.78634357 -0.01732246 0.0066393982
0.78657466 -0.016571773 0.0066514709
0.78680569 -0.015821099 0.0066635436
0.78703678 -0.015070425 0.0066756164
0.7872678 -0.014319737 0.0066876891
0.78749889 -0.013569064 0.0066997618
0.78772992 -0.012818376 0.0067118346
0.78796101 -0.012067702 0.0067239073
0.78819203 -0.011317014 0.00673598
0.78842312 -0.01056634 0.0067480528
0.78865421 -0.0098156668 0.0067601255
0.78888524 -0.0090649789 0.0067721982
0.78911632 -0.008314305 0.006784271
0.78934735 -0.0075636171 0.0067963442
0.78957844 -0.0068129431 0.0068084165
0.79058415 -0.0065768659 0.0073671951
0.79081494 -0.0058272178 0.0073792511
0.79181969 -0.0055942321 0.0079379799
0.79205012 -0.0048456243 0.0079500191
0.79228055 -0.0040970165 0.0079620583
0.79251099 -0.0033484085 0.0079740984
0.79274142 -0.0025997865 0.0079861376
0.79297179 -0.0018511785 0.0079981769
0.79320222 -0.0011025707 0.008010217
0.79343265 -0.00035396277 0.0080222562
0.79366308 0.00039465938 0.0080342954
0.79389352 0.0011432673 0.0080463355
0.79412395 0.0018918752 0.0080583747
0.79435438 0.0026404972 0.008070414
0.79458481 0.0033891052 0.0080824541
0.79481518 0.004137713 0.0080944933
0.79504561 0.0048863208 0.0081065325
0.79527605 0.005634943 0.0081185717
0.79550648 0.0063835508 0.0081306119
0.79496825 0.0076664016 0.0075962613
0.79519904 0.0084160492 0.0076083173
0.79466176 0.0097020203 0.0070740175
0.79412508 0.010990046 0.006539735
0.79358912 0.012280134 0.0060055014
0.79305375 0.013572304 0.0054713152
0.79437774 0.020905051 0.0050342763
0.79461008 0.021659857 0.0050464156
0.79560596 0.021863908 0.0056046643
0.79660118 0.022065861 0.0061628795
0.7975958 0.022265751 0.0067210761
0.79782718 0.023017466 0.0067331651
0.79805857 0.023769179 0.0067452546
0.7982899 0.024520893 0.0067573441
0.79852128 0.025272606 0.0067694336
0.79875267 0.026024321 0.0067815227
0.79898405 0.026776034 0.0067936121
0.79921544 0.027527748 0.0068057016
0.79944682 0.028279461 0.0068177911
0.79967821 0.029031176 0.0068298802
0.79990959 0.029782889 0.0068419697
0.77567446 -0.052651554 0.0053091883
0.77590555 -0.051900864 0.0053212615
0.77613658 -0.051150192 0.0053333337
0.77636766 -0.050399505 0.0053454069
0.77659875 -0.049648829 0.0053574797
0.77682978 -0.048898142 0.0053695524
0.77706087 -0.04814747 0.0053816251
0.77729189 -0.047396779 0.0053936979
0.77752298 -0.046646107 0.0054057706
0.77854532 -0.046355158 0.0059664701
0.77877605 -0.04560551 0.0059785261
0.77900678 -0.044855863 0.0059905825
0.77923757 -0.044106215 0.0060026385
0.7794683 -0.043356564 0.0060146945
0.77890933 -0.042142022 0.005478207
0.77914041 -0.041391347 0.0054902798
0.77937144 -0.04064066 0.0055023525
0.77960253 -0.039889988 0.0055144252
0.77983356 -0.039139301 0.0055264984
0.78006464 -0.038388625 0.0055385707
0.78029573 -0.037637938 0.0055506439
0.78052676 -0.036887262 0.0055627166
0.78075784 -0.03613659 0.0055747889
0.78098887 -0.035385903 0.0055868621
0.78200644 -0.035110466 0.006147312
0.78223717 -0.034360819 0.006159368
0.78246796 -0.033611171 0.0061714244
0.78269869 -0.032861538 0.0061834804
0.78292942 -0.032111891 0.0061955363
0.78316015 -0.031362243 0.0062075923
0.78339094 -0.030612594 0.0062196488
0.78440595 -0.030345436 0.0067799799
0.78463638 -0.029596813 0.0067920196
0.78486681 -0.028848205 0.0068040593
0.78588051 -0.028585164 0.0073643243
0.78611064 -0.027837582 0.0073763472
0.78634077 -0.02709 0.0073883701
0.78657085 -0.026342433 0.0074003926
0.78680098 -0.025594851 0.0074124155
0.78703105 -0.024847269 0.0074244388
0.78726119 -0.0240997 0.0074364613
0.78749126 -0.023352118 0.0074484842
0.7877214 -0.022604536 0.0074605071
0.78795147 -0.021856954 0.00747253
0.78740144 -0.020613477 0.0069364933
0.78763187 -0.019864868 0.006948533
0.7878623 -0.019116247 0.0069605727
0.78731352 -0.017868621 0.0064246026
0.78754425 -0.017118974 0.006436659
0.78777504 -0.016369326 0.006448715
0.78800577 -0.015619678 0.006460771
0.7882365 -0.014870031 0.0064728274
0.78846723 -0.014120382 0.0064848834
0.78869802 -0.013370735 0.0064969398
0.78892875 -0.012621101 0.0065089958
0.78915948 -0.011871453 0.0065210517
0.78939021 -0.011121805 0.0065331077
0.789621 -0.010372157 0.0065451642
0.78985173 -0.0096225096 0.0065572201
0.79008245 -0.008872861 0.0065692766
0.79031318 -0.0081232134 0.0065813325
0.79131866 -0.007887071 0.007141165
0.79154909 -0.0071384632 0.0071532046
0.7925536 -0.0069053979 0.0077129873
0.79278374 -0.0061578299 0.0077250102
0.79301381 -0.0054102479 0.0077370331
0.79324394 -0.004662666 0.007749056
0.79347402 -0.003915098 0.0077610789
0.79370415 -0.0031675159 0.0077731018
0.79393423 -0.0024199339 0.0077851247
0.79416436 -0.0016723661 0.0077971471
0.79439449 -0.00092478393 0.0078091701
0.79462457 -0.00017720183 0.007821193
0.7948547 0.00057038025 0.0078332163
0.79508477 0.0013179481 0.0078452388
0.79531491 0.0020655303 0.0078572622
0.79554498 0.0028131122 0.0078692846
0.79577512 0.0035606802 0.007881307
0.79600519 0.0043082624 0.0078933304
0.79623532 0.0050558443 0.0079053529
0.7964654 0.0058034123 0.0079173762
0.79592717 0.007085158 0.0073819547
0.7961576 0.0078337658 0.0073939944
0.79562026 0.0091186315 0.0068586231
0.79508358 0.010405564 0.0063232998
0.79531467 0.011156238 0.0063353726
0.79477888 0.012446278 0.0058000698
0.79424381 0.013738367 0.0052648149
0.7944755 0.01449112 0.0052769212
0.7960974 0.019760353 0.0053616632
0.79632908 0.020513108 0.005373769
0.79732406 0.020715129 0.0059330529
0.79831845 0.020915082 0.0064923186
0.79854953 0.021665754 0.0065043913
0.79878056 0.022416443 0.0065164641
0.79901165 0.023167117 0.0065285368
0.79924268 0.023917804 0.0065406095
0.79947376 0.024668477 0.0065526823
0.79970485 0.025419166 0.006564755
0.79993588 0.02616984 0.0065768277
0.77504396 -0.058396563 0.0050118216
0.77527469 -0.057646912 0.0050238776
0.77550542 -0.056897264 0.005035934
0.77573615 -0.056147616 0.00504799
0.77596694 -0.055397969 0.0050600464
0.77619767 -0.054648321 0.0050721024
0.7764284 -0.053898674 0.0050841584
0.77745301 -0.053599395 0.0056460598
0.77768344 -0.052850772 0.0056580994
0.77791387 -0.052102163 0.0056701386
0.77735138 -0.050900098 0.0051323832
0.77758211 -0.05015045 0.0051444392
0.77781284 -0.049400799 0.0051564951
0.77804363 -0.048651151 0.0051685516
0.77827436 -0.047901519 0.0051806075
0.7792964 -0.047610503 0.0057423753
0.77952683 -0.046861894 0.0057544149
0.77975726 -0.046113275 0.0057664546
0.77998769 -0.045364667 0.0057784938
0.78021812 -0.044616058 0.0057905335
0.78044856 -0.04386745 0.0058025727
0.77988952 -0.042653996 0.0052650003
0.78012031 -0.041904349 0.0052770562
0.78035104 -0.041154701 0.0052891127
0.78058177 -0.040405054 0.0053011687
0.7808125 -0.039655406 0.0053132251
0.78104323 -0.038905758 0.0053252811
0.78127402 -0.038156126 0.005337337
0.78150475 -0.037406478 0.005349393
0.78173548 -0.03665683 0.0053614494
0.78196621 -0.035907179 0.0053735054
0.78298324 -0.035632707 0.0059350077
0.78321362 -0.034884099 0.0059470469
0.78344405 -0.034135491 0.0059590866
0.78367448 -0.033386882 0.0059711258
0.78390491 -0.032638259 0.0059831655
0.78413534 -0.031889651 0.0059952051
0.78436577 -0.031141045 0.0060072443
0.78538018 -0.030874833 0.006568599
0.78561032 -0.030127252 0.0065806219
0.78662384 -0.029864162 0.0071419124
0.78685361 -0.02911762 0.0071539185
0.78708339 -0.028371077 0.0071659246
0.78731316 -0.027624534 0.0071779308
0.78754294 -0.026877994 0.0071899369
0.78777277 -0.026131436 0.0072019435
0.78800255 -0.025384896 0.0072139497
0.78823233 -0.024638353 0.0072259558
0.7884621 -0.02389181 0.007237962
0.78869188 -0.023145268 0.0072499681
0.78892171 -0.022398727 0.0072619743
0.78915149 -0.021652184 0.0072739809
0.7886017 -0.02040874 0.0067369193
0.78883183 -0.019661158 0.0067489422
0.7890619 -0.018913591 0.0067609651
0.78929204 -0.018166009 0.006772988
0.78952211 -0.017418427 0.0067850109
0.78975224 -0.016670858 0.0067970334
0.78998232 -0.015923277 0.0068090563
0.79021245 -0.015175695 0.0068210792
0.79044253 -0.014428113 0.0068331026
0.79067266 -0.013680545 0.006845125
0.79090273 -0.012932963 0.0068571479
0.79113287 -0.012185381 0.0068691708
0.79136294 -0.011437813 0.0068811937
0.79159307 -0.010690231 0.0068932166
0.79182321 -0.0099426489 0.0069052395
0.79205328 -0.009195081 0.006917262
0.79228342 -0.008447499 0.0069292849
0.79328763 -0.0082143843 0.0074900934
0.79351747 -0.0074678427 0.0075020995
0.79374725 -0.0067213005 0.0075141056
0.79397702 -0.0059747584 0.0075261118
0.7942068 -0.0052282163 0.0075381179
0.79443657 -0.0044816742 0.0075501241
0.79466641 -0.0037351323 0.0075621302
0.79489619 -0.0029885902 0.0075741368
0.79512596 -0.0022420338 0.007586143
0.79535574 -0.0014954917 0.0075981491
0.79558551 -0.00074894965 0.0076101553
0.79581535 -2.4076055e-06 0.0076221619
0.79604512 0.00074413448 0.007634168
0.7962749 0.0014906765 0.0076461742
0.79650468 0.0022372187 0.0076581803
0.79673445 0.0029837606 0.0076701865
0.79696429 0.0037303169 0.0076821931
0.79719406 0.0044768592 0.0076941992
0.79742384 0.0052234009 0.0077062054
0.79688549 0.0065040574 0.0071697426
0.79711562 0.0072516399 0.0071817655
0.79657829 0.008535387 0.0066453377
0.79680866 0.0092839943 0.0066573774
0.79627228 0.010570861 0.0061209854
0.79573649 0.011859794 0.0055846409
0.79596758 0.012610468 0.0055967136
0.79619861 0.013361156 0.0056087864
0.79566407 0.014654224 0.0050724936
0.79589546 0.015405937 0.0050845831
0.79612684 0.016157651 0.0050966726
0.79635823 0.016909365 0.0051087616
0.79658961 0.017661078 0.0051208511
0.79682094 0.018412793 0.0051329406
0.79781604 0.018615915 0.005693296
0.79804713 0.019366588 0.0057053682
0.79904121 0.019566607 0.0062656589
0.79927194 0.020316256 0.0062777149
0.79950267 0.021065904 0.0062897708
0.7997334 0.021815551 0.0063018273
0.79996419 0.022565184 0.0063138832
0.77682614 -0.059329733 0.0053520883
0.77705628 -0.058582149 0.0053641112
0.77728635 -0.057834581 0.0053761336
0.77751648 -0.057087 0.0053881565
0.77774656 -0.056339417 0.0054001794
0.77797669 -0.055591837 0.0054122023
0.77820677 -0.054844268 0.0054242252
0.7784369 -0.054096688 0.0054362481
0.77866703 -0.053349104 0.0054482711
0.77889711 -0.052601535 0.005460294
0.77912724 -0.051853955 0.0054723169
0.77935731 -0.051106371 0.0054843398
0.77958745 -0.050358806 0.0054963622
0.77981752 -0.049611222 0.0055083851
0.78004766 -0.048863638 0.005520408
0.78027773 -0.048116058 0.005532431
0.78050786 -0.047368474 0.0055444543
0.78073794 -0.046620909 0.0055564768
0.78096807 -0.045873325 0.0055684997
0.7811982 -0.045125745 0.0055805226
0.78142828 -0.044378161 0.0055925455
0.78086925 -0.043165829 0.0050539165
0.78109962 -0.042417221 0.0050659557
0.78133005 -0.041668613 0.0050779954
0.78156048 -0.040919989 0.005090035
0.78179091 -0.040171381 0.0051020742
0.78202134 -0.039422777 0.0051141139
0.78225178 -0.038674168 0.0051261531
0.78248221 -0.037925545 0.0051381928
0.78271264 -0.037176937 0.0051502325
0.78294301 -0.036428329 0.0051622717
0.78395945 -0.036154814 0.005724797
0.78418958 -0.035407234 0.0057368199
0.78441966 -0.03465965 0.0057488428
