# .PCD v0.7 - Point Cloud Data file format
VERSION 0.7
FIELDS x y z
SIZE 4 4 4
TYPE F F F
COUNT 1 1 1
WIDTH 1352
HEIGHT 1
VIEWPOINT 0 0 0 1 0 0 0
POINTS 1352
DATA ascii
0.4680827 0.030789239 0.0057325833
0.46709606 0.030975068 0.0061869556
0.46572697 0.030669875 0.0066335192
0.46474361 0.030859988 0.0070879883
0.46436051 0.030368118 0.0070801587
0.46337917 0.030560752 0.0075346469
0.46239915 0.03075509 0.0079891616
0.46142048 0.030951126 0.0084437039
0.46103936 0.030461811 0.0084359152
0.46006262 0.030660434 0.0088905198
0.45968217 0.030171964 0.0088827442
0.45870745 0.030373111 0.0093373675
0.45832765 0.029885493 0.0093296058
0.45735493 0.030089194 0.0097842664
0.45638353 0.030294595 0.010238954
0.45600507 0.02980868 0.010231219
0.45503566 0.030016629 0.010685951
0.45465788 0.029531565 0.010678229
0.45369041 0.029742109 0.011133024
0.45331326 0.029257897 0.011125316
0.45293614 0.02877368 0.011117608
0.45197135 0.02898759 0.011572435
0.45100793 0.029203204 0.012027289
0.45063213 0.028720692 0.012019607
0.44967064 0.028938854 0.012474502
0.44929552 0.028457198 0.012466835
0.44833601 0.028677939 0.012921792
0.44796151 0.028197136 0.012914138
0.44700402 0.028420404 0.01336911
0.44663021 0.027940445 0.01336147
0.44567472 0.028166268 0.013816486
0.44530156 0.027687162 0.01380886
0.44434807 0.027915541 0.014263913
0.44339588 0.028145617 0.014718997
0.44302404 0.027668213 0.014711398
0.44207382 0.027900878 0.015166544
0.44170263 0.027424328 0.015158959
0.44075444 0.027659507 0.015614124
0.44038394 0.027183808 0.015606551
0.44001344 0.026708109 0.015598979
0.4390679 0.026946696 0.016054198
0.43869805 0.026471842 0.01604664
0.43832821 0.025996994 0.016039081
0.43738529 0.026238983 0.016494351
0.43701613 0.025764981 0.016486807
0.43607521 0.026009526 0.016942121
0.4357067 0.025536381 0.016934589
0.43533817 0.025063232 0.016927056
0.43496966 0.024590081 0.016919525
0.43403202 0.024838911 0.017374929
0.43366417 0.024366612 0.017367411
0.43329629 0.023894314 0.017359892
0.43236136 0.024146523 0.017815329
0.43199417 0.023675071 0.017807825
0.43162698 0.02320363 0.01780032
0.43069467 0.023459235 0.018255807
0.43032816 0.02298864 0.018248316
0.42996162 0.022518044 0.018240824
0.42959508 0.022047451 0.018233333
0.42866611 0.022307307 0.018688891
0.42830026 0.02183757 0.018681414
0.42793438 0.02136782 0.018673936
0.427008 0.02163112 0.019129571
0.42664281 0.021162227 0.019122107
0.42627761 0.020693336 0.019114643
0.42591241 0.020224445 0.01910718
0.42554718 0.01975554 0.019099714
0.42518198 0.019286649 0.019092251
0.42481679 0.018817758 0.019084787
0.42445159 0.018348865 0.019077323
0.42408639 0.017879974 0.01906986
0.42372116 0.017411072 0.019062396
0.42335597 0.016942179 0.019054931
0.42299077 0.016473288 0.019047467
0.42262557 0.016004397 0.019040003
0.42226037 0.015535505 0.01903254
0.42189515 0.015066601 0.019025076
0.42152995 0.01459771 0.019017611
0.42116475 0.014128818 0.019010147
0.42079955 0.013659927 0.019002683
0.42043436 0.013191035 0.01899522
0.42006913 0.012722132 0.018987756
0.41970393 0.012253241 0.018980291
0.41933873 0.011784349 0.018972827
0.41897354 0.011315458 0.018965364
0.41860834 0.010846565 0.0189579
0.41824311 0.010377662 0.018950436
0.41787791 0.0099087711 0.018942973
0.41751271 0.0094398791 0.018935507
0.41714752 0.008970988 0.018928044
0.41678232 0.0085020959 0.01892058
0.41641709 0.0080331927 0.018913116
0.41605189 0.0075643011 0.018905653
0.4156867 0.0070954096 0.018898187
0.4153215 0.006626518 0.018890724
0.4149563 0.0061576264 0.01888326
0.41459107 0.0056887232 0.018875796
0.41422588 0.0052198316 0.018868333
0.41386068 0.00475094 0.018860869
0.41349548 0.0042820484 0.018853404
0.41313028 0.0038131571 0.01884594
0.41276506 0.0033442536 0.018838476
0.41239986 0.0028753621 0.018831013
0.41203466 0.0024064705 0.018823549
0.41166946 0.001937579 0.018816084
0.41130427 0.0014686874 0.01880862
0.41093904 0.0009997841 0.018801156
0.41057384 0.00053089258 0.018793693
0.41020864 6.2001003e-05 0.018786229
0.40984344 -0.00040689055 0.018778766
0.40947825 -0.00087578211 0.0187713
0.40911302 -0.0013446854 0.018763836
0.40874782 -0.001813577 0.018756373
0.40838262 -0.0022824686 0.018748909
0.40801743 -0.0027513602 0.018741446
0.40765223 -0.0032202518 0.01873398
0.407287 -0.003689155 0.018726517
0.4069218 -0.0041580466 0.018719053
0.40655661 -0.0046269381 0.018711589
0.40619141 -0.0050958297 0.018704126
0.40582621 -0.0055647213 0.018696662
0.40546098 -0.0060336245 0.018689197
0.40509579 -0.0065025161 0.018681733
0.40473059 -0.0069714077 0.018674269
0.40436539 -0.0074402993 0.018666806
0.40400019 -0.0079091908 0.018659342
0.40363497 -0.0083780941 0.018651877
0.40326977 -0.0088469861 0.018644413
0.40290457 -0.0093158772 0.018636949
0.40305546 -0.01057483 0.018165465
0.40268961 -0.01104458 0.018157989
0.40232372 -0.011514328 0.01815051
0.40195787 -0.011984066 0.018143034
0.40159199 -0.012453815 0.018135555
0.40122613 -0.012923553 0.018128078
0.40086025 -0.013393302 0.018120602
0.4004944 -0.01386305 0.018113123
0.40012854 -0.014332788 0.018105647
0.39976266 -0.014802537 0.018098168
0.39939681 -0.015272287 0.018090691
0.39903092 -0.015742024 0.018083213
0.39866507 -0.016211772 0.018075736
0.39829919 -0.016681522 0.018068258
0.39844009 -0.0179532 0.017596593
0.39807358 -0.018423794 0.017589103
0.39821249 -0.019698033 0.017117402
0.3978453 -0.020169487 0.017109897
0.39798224 -0.021446275 0.01663815
0.3981179 -0.0227248 0.016166355
0.39825216 -0.024005005 0.015694555
0.397883 -0.024478996 0.015687011
0.39801526 -0.025761753 0.015215173
0.39764544 -0.026236601 0.015207615
0.3972756 -0.026711449 0.015200056
0.39690575 -0.027186308 0.015192497
0.3965359 -0.027661156 0.015184938
0.39616606 -0.028136004 0.015177379
0.39579621 -0.028610852 0.015169821
0.39542636 -0.029085711 0.015162262
0.39456037 -0.028745003 0.015619103
0.39369568 -0.028402591 0.016075976
0.46828941 0.031432189 0.0051579163
0.46790433 0.03093777 0.0051500462
0.46691799 0.031123342 0.0056054257
0.4655492 0.030817892 0.0060529923
0.46456614 0.031007752 0.0065084617
0.46418303 0.030515879 0.0065006316
0.463202 0.030708259 0.0069561228
0.46222231 0.030902341 0.0074116415
0.46124393 0.031098122 0.0078671863
0.46086282 0.030608805 0.0078593977
0.45988637 0.030807175 0.0083150025
0.4589113 0.031007214 0.0087706158
0.45793757 0.031208949 0.0092262561
0.45755842 0.030722184 0.0092185074
0.45658669 0.030926477 0.0096741812
0.45620823 0.030440567 0.0096664466
0.45523846 0.030647408 0.010122168
0.45486066 0.030162346 0.010114446
0.45389283 0.030371781 0.010570231
0.45351571 0.02988757 0.010562523
0.4525499 0.030099522 0.011018323
0.45217344 0.029616157 0.011010628
0.45179698 0.029132796 0.011002934
0.45083383 0.029348155 0.011458791
0.44987202 0.029565211 0.011914675
0.44949687 0.02908355 0.011907008
0.44912171 0.028601894 0.011899341
0.44816253 0.028822379 0.012355297
0.44778803 0.028341575 0.012347643
0.44683087 0.028564587 0.012803623
0.44645703 0.028084628 0.012795983
0.44550186 0.028310196 0.013252002
0.44512871 0.027831089 0.013244376
0.44417551 0.028059214 0.013700428
0.44322363 0.028289033 0.014156516
0.44285181 0.02781163 0.014148917
0.44190186 0.028044039 0.014605067
0.4415307 0.027567489 0.014597481
0.44058281 0.027802413 0.015053646
0.44021231 0.027326714 0.015046073
0.43926641 0.027564194 0.015502282
0.43889657 0.027089346 0.015494724
0.43852672 0.026614493 0.015487165
0.43758348 0.026855379 0.015943429
0.43721429 0.026381377 0.015935883
0.43627301 0.026624814 0.016392184
0.4359045 0.026151665 0.016384652
0.43553597 0.025678519 0.016377121
0.43459731 0.02592539 0.016833501
0.43422946 0.025453098 0.016825983
0.43386161 0.024980793 0.016818464
0.43292564 0.025231043 0.017274877
0.43255845 0.024759591 0.017267372
0.43219125 0.02428815 0.017259868
0.43125793 0.024541797 0.017716328
0.43032596 0.024797145 0.018172821
0.4299601 0.024327409 0.018165343
0.42959422 0.023857659 0.018157866
0.42922837 0.023387922 0.018150389
0.42829964 0.023647558 0.018606972
0.42793444 0.023178665 0.018599508
0.42756924 0.022709774 0.018592045
0.42720404 0.022240872 0.018584579
0.42683885 0.021771979 0.018577116
0.42591414 0.022036692 0.019033754
0.4255496 0.021568647 0.019026306
0.42518505 0.021100612 0.019018855
0.42482051 0.020632567 0.019011404
0.42445597 0.020164521 0.019003954
0.42409143 0.019696476 0.018996503
0.42372689 0.019228442 0.018989053
0.42336234 0.018760396 0.018981602
0.4229978 0.018292351 0.018974151
0.42263326 0.017824303 0.018966701
0.42226872 0.017356271 0.01895925
0.42190418 0.016888225 0.0189518
0.42153963 0.016420178 0.018944351
0.42117509 0.015952133 0.0189369
0.42081055 0.015484087 0.01892945
0.42044604 0.015016054 0.018921999
0.4200815 0.014548007 0.018914549
0.41971695 0.014079962 0.018907098
0.41935238 0.013611916 0.018899648
0.41898787 0.013143882 0.018892197
0.41862333 0.012675837 0.018884746
0.41825879 0.012207791 0.018877296
0.41789424 0.011739746 0.018869845
0.4175297 0.011271711 0.018862396
0.41716516 0.010803666 0.018854946
0.41680062 0.01033562 0.018847495
0.41643608 0.0098675741 0.018840045
0.41607153 0.0093995407 0.018832594
0.41570699 0.0089314943 0.018825144
0.41534245 0.0084634488 0.018817693
0.41497791 0.0079954034 0.018810242
0.41461337 0.0075273574 0.018802792
0.41424882 0.0070593236 0.018795341
0.41388428 0.0065912777 0.018787891
0.41351974 0.0061232322 0.01878044
0.4131552 0.0056551863 0.01877299
0.41279066 0.0051871524 0.018765541
0.41242611 0.0047191069 0.01875809
0.41206157 0.004251061 0.01875064
0.41169703 0.0037830153 0.018743189
0.41133252 0.0033149815 0.018735738
0.41096798 0.0028469358 0.018728288
0.4106034 0.0023788901 0.018720837
0.41023886 0.0019108444 0.018713387
0.40987435 0.0014428104 0.018705936
0.40950981 0.0009747647 0.018698486
0.40914527 0.00050671899 0.018691035
0.40878072 3.8673279e-05 0.018683586
0.40841618 -0.00042937242 0.018676136
0.40805164 -0.00089740637 0.018668685
0.4076871 -0.0013654521 0.018661235
0.40732256 -0.0018334978 0.018653784
0.40695801 -0.0023015435 0.018646333
0.40659347 -0.0027695775 0.018638883
0.40622893 -0.0032376233 0.018631432
0.40586439 -0.0037056687 0.018623982
0.40549985 -0.0041737147 0.018616531
0.4051353 -0.0046417485 0.01860908
0.40477076 -0.005109794 0.018601632
0.4049266 -0.0063616559 0.018129278
0.4045614 -0.0068305475 0.018121814
0.4041962 -0.0072994391 0.018114351
0.40383101 -0.0077683306 0.018106887
0.40346581 -0.0082372343 0.018099422
0.40310058 -0.0087061254 0.018091958
0.40273538 -0.0091750175 0.018084494
0.40237018 -0.0096439086 0.018077031
0.40200499 -0.010112801 0.018069567
0.40163979 -0.010581704 0.018062102
0.40127456 -0.011050595 0.018054638
0.40090936 -0.011519487 0.018047174
0.40054417 -0.011988378 0.018039711
0.40017897 -0.01245727 0.018032247
0.39981374 -0.012926173 0.018024782
0.39944854 -0.013395065 0.018017318
0.39908335 -0.013863957 0.018009854
0.39871815 -0.014332848 0.018002391
0.39835295 -0.014801751 0.017994927
0.39798772 -0.015270643 0.017987464
0.3981297 -0.016540406 0.017514801
0.39776385 -0.017010143 0.017507322
0.39739797 -0.017479893 0.017499845
0.39753726 -0.018753018 0.017027151
0.39767522 -0.020027859 0.016554436
0.39781183 -0.021304391 0.016081685
0.39794716 -0.022582661 0.015608888
0.39808115 -0.023862612 0.015136087
0.39771196 -0.024336603 0.015128543
0.39734277 -0.024810605 0.015120997
0.39697361 -0.025284607 0.015113452
0.39660442 -0.025758609 0.015105907
0.39623523 -0.026232611 0.015098361
0.39586607 -0.026706601 0.015090817
0.39549688 -0.027180603 0.015083271
0.39512771 -0.027654605 0.015075726
0.39475852 -0.028128607 0.015068181
0.39438933 -0.028602609 0.015060635
0.39352494 -0.028260453 0.015518507
0.39315644 -0.028733596 0.015510975
0.39229402 -0.028388858 0.015968913
0.54062545 0.12903775 0.0074870503
0.46673989 0.031271614 0.0050238953
0.46537143 0.030965911 0.0054724622
0.46438867 0.031155514 0.0059289378
0.46400556 0.030663641 0.0059211082
0.46302485 0.030855766 0.0063775992
0.46204543 0.031049592 0.006834121
0.46106738 0.031245118 0.007290666
0.46068627 0.030755801 0.0072828773
0.45971012 0.030953914 0.0077394885
0.45873538 0.031153698 0.0081961015
0.45776194 0.03135518 0.0086527448
0.4573828 0.030868413 0.0086449962
0.45641136 0.031072449 0.009101674
0.4560329 0.030586541 0.0090939393
0.45506343 0.030793125 0.0095506636
0.45409527 0.031001454 0.010007435
0.45371813 0.030517243 0.0099997269
0.45275199 0.030728087 0.010456519
0.4523755 0.030244727 0.010448825
0.45199904 0.029761363 0.010441131
0.45103556 0.029975614 0.010897974
0.45065975 0.029493107 0.010890293
0.44969824 0.029709905 0.01134718
0.44932309 0.029228244 0.011339514
0.44836351 0.029447628 0.01179646
0.44798905 0.028966818 0.011788806
0.4470315 0.029188728 0.012245775
0.44665769 0.028708771 0.012238135
0.44570214 0.028933231 0.012695141
0.44532898 0.028454125 0.012687515
0.44437543 0.02868114 0.013144557
0.44400296 0.028202886 0.013136945
0.44305137 0.028432449 0.013594035
0.44210109 0.028663753 0.014051171
0.44172993 0.0281872 0.014043585
0.44135877 0.02771065 0.014036
0.44041118 0.027945319 0.014493171
0.44004068 0.027469618 0.014485599
0.43909508 0.027706845 0.014942808
0.43872523 0.027231997 0.014935249
0.43778163 0.02747177 0.015392502
0.43741244 0.026997773 0.015384957
0.43647081 0.027240103 0.015842248
0.4361023 0.026766952 0.015834715
0.43573377 0.026293803 0.015827185
0.43536526 0.025820658 0.015819652
0.4344269 0.026067274 0.016277036
0.43405905 0.025594981 0.016269518
0.43312275 0.025844118 0.016726917
0.43218774 0.026094953 0.017184341
0.43182123 0.025624359 0.017176852
0.43145469 0.025153764 0.01716936
0.43052235 0.025408011 0.017626841
0.43015647 0.024938261 0.017619362
0.42979062 0.024468524 0.017611885
0.42886087 0.024726201 0.018069444
0.42849568 0.02425731 0.018061981
0.42813048 0.023788417 0.018054517
0.42720342 0.024049468 0.018512106
0.42683887 0.023581421 0.018504655
0.42647436 0.023113389 0.018497204
0.42610982 0.022645343 0.018489754
0.42574528 0.022177296 0.018482303
0.42538071 0.02170925 0.018474853
0.42501619 0.021241216 0.018467402
0.42465165 0.020773171 0.018459952
0.42428711 0.020305125 0.018452501
0.42392257 0.01983708 0.01844505
0.42300281 0.020107493 0.018902792
0.42263892 0.019640304 0.018895356
0.42227507 0.019173115 0.018887918
0.42191118 0.018705916 0.018880481
0.42154729 0.018238729 0.018873045
0.42118344 0.01777154 0.018865608
0.42081955 0.01730434 0.01885817
0.42045566 0.016837152 0.018850734
0.42009178 0.016369965 0.018843297
0.41972789 0.015902765 0.018835859
0.41936404 0.015435576 0.018828424
0.41900015 0.014968388 0.018820986
0.41863626 0.014501188 0.018813549
0.41827241 0.014034 0.018806113
0.41790852 0.013566813 0.018798675
0.41754463 0.013099612 0.01879124
0.41718078 0.012632424 0.018783802
0.41681689 0.012165236 0.018776365
0.416453 0.011698036 0.018768929
0.41608912 0.011230848 0.018761491
0.41572526 0.01076366 0.018754054
0.41536137 0.010296472 0.018746618
0.41499749 0.0098292725 0.018739181
0.41463363 0.0093620839 0.018731745
0.41426975 0.0088948961 0.018724307
0.41390586 0.0084276963 0.01871687
0.41354197 0.0079605076 0.018709434
0.41317812 0.0074933199 0.018701997
0.41281423 0.0070261201 0.018694559
0.41245034 0.0065589319 0.018687123
0.41208649 0.0060917437 0.018679686
0.4117226 0.0056245439 0.018672248
0.41135871 0.0051573562 0.018664813
0.41099483 0.004690168 0.018657375
0.41063094 0.0042229681 0.018649938
0.41026708 0.0037557799 0.018642502
0.4099032 0.0032885917 0.018635064
0.40953931 0.0028213919 0.018627629
0.40917546 0.002354204 0.018620191
0.40881157 0.0018870159 0.018612754
0.40844768 0.001419816 0.018605318
0.40808383 0.00095262792 0.01859788
0.40771994 0.00048543984 0.018590443
0.40735605 1.8239998e-05 0.018583007
0.40751821 -0.0012248476 0.018109782
0.40715367 -0.0016928933 0.018102331
0.40678912 -0.0021609389 0.018094882
0.40642461 -0.002628973 0.018087432
0.40606007 -0.0030970187 0.018079981
0.40569553 -0.0035650644 0.018072531
0.40533099 -0.0040331101 0.01806508
0.40496644 -0.0045011439 0.018057629
0.4046019 -0.0049691899 0.018050179
0.40423736 -0.0054372353 0.018042728
0.40387282 -0.0059052813 0.018035278
0.40350828 -0.0063733151 0.018027827
0.40314373 -0.0068413606 0.018020378
0.40277919 -0.0073094065 0.018012928
0.40241465 -0.007777452 0.018005477
0.40205011 -0.0082454979 0.017998027
0.40168557 -0.0087135322 0.017990576
0.40132102 -0.0091815777 0.017983126
0.40095648 -0.0096496232 0.017975675
0.40059194 -0.010117669 0.017968224
0.4002274 -0.010585703 0.017960774
0.39986286 -0.011053748 0.017953323
0.39949831 -0.011521794 0.017945873
0.39913377 -0.01198984 0.017938422
0.39876923 -0.012457874 0.017930973
0.39840469 -0.01292592 0.017923523
0.39804015 -0.013393966 0.017916072
0.3976756 -0.013862011 0.017908622
0.39731109 -0.014330045 0.017901171
0.39745337 -0.015598674 0.017427543
0.39708817 -0.016067566 0.01742008
0.39722848 -0.017338777 0.016946387
0.39736748 -0.018611647 0.016472692
0.3975051 -0.019886233 0.015998971
0.39764142 -0.02116251 0.015525221
0.39727357 -0.021634808 0.015517703
0.39740795 -0.022913678 0.015043887
0.39754096 -0.024194209 0.014570071
0.39717177 -0.024668211 0.014562526
0.39680257 -0.025142211 0.01455498
0.39643341 -0.025616214 0.014547436
0.39606422 -0.026090216 0.01453989
0.39569503 -0.026564207 0.014532345
0.39532587 -0.027038209 0.0145248
0.39495668 -0.027512211 0.014517254
0.39458749 -0.027986212 0.014509709
0.39421833 -0.028460214 0.014502164
0.39335424 -0.028118314 0.014961039
0.39298573 -0.028591458 0.014953507
0.39212361 -0.028246975 0.015412449
0.53936869 0.13070107 0.0078405319
0.53822333 0.12923056 0.007817124
0.4642112 0.031303275 0.0053494107
0.46382812 0.030811405 0.0053415811
0.46284768 0.031003272 0.0057990756
0.46186858 0.031196844 0.0062566004
0.46089083 0.031392112 0.0067141489
0.46050972 0.030902797 0.0067063598
0.4595339 0.031100655 0.0071639712
0.45855942 0.031300183 0.0076215877
0.45758632 0.031501409 0.0080792345
0.45720717 0.031014642 0.0080714859
0.45623603 0.031218423 0.0085291667
0.45526624 0.031423908 0.0089868773
0.45429769 0.031631127 0.0094446409
0.45392057 0.031146916 0.0094369333
0.45295405 0.031356651 0.0098947128
0.45257759 0.030873293 0.0098870182
0.45161307 0.031085586 0.010344838
0.45123726 0.030603072 0.010337157
0.45086145 0.030120565 0.010329477
0.44989958 0.030336257 0.01078735
0.44952446 0.029854601 0.010779683
0.44914931 0.02937294 0.010772016
0.44819003 0.029592067 0.011229969
0.44781557 0.029111257 0.011222315
0.44685835 0.029332913 0.011680284
0.44648451 0.028852955 0.011672644
0.44552928 0.029077159 0.012130653
0.44515613 0.028598052 0.012123026
0.44420287 0.028824812 0.012581076
0.4438304 0.028346557 0.012573463
0.44287914 0.028575867 0.013031553
0.44192916 0.028806914 0.013489693
0.441558 0.028330361 0.013482108
0.44061005 0.02856393 0.013940265
0.44023955 0.028088225 0.013932693
0.43986905 0.027612526 0.013925121
0.43892375 0.027849494 0.014383337
0.4385539 0.027374646 0.014375778
0.4376106 0.027614163 0.014834031
0.43724141 0.027140168 0.014826486
0.4363001 0.027382242 0.015284779
0.43593159 0.026909091 0.015277248
0.43556306 0.026435941 0.015269715
0.43462437 0.026681455 0.01572809
0.43368703 0.026928639 0.016186465
0.43331984 0.026457192 0.01617896
0.43238449 0.026706927 0.016637372
0.43201795 0.026236326 0.01662988
0.4310846 0.026488613 0.017088337
0.43071872 0.026018877 0.017080858
0.43035287 0.025549127 0.017073382
0.42942211 0.025804855 0.017531918
0.42905691 0.025335964 0.017524453
0.42869169 0.024867062 0.017516989
0.42776364 0.025126163 0.017975554
0.4273991 0.024658117 0.017968103
0.42703456 0.024190072 0.017960653
0.42610914 0.024452569 0.018419271
0.42574528 0.023985382 0.018411836
0.42538139 0.023518194 0.018404398
0.42501751 0.023050994 0.018396961
0.42465365 0.022583805 0.018389525
0.42428976 0.022116618 0.018382087
0.42392588 0.021649418 0.01837465
0.42356199 0.02118223 0.018367214
0.42319813 0.020715041 0.018359777
0.42283425 0.020247841 0.018352341
0.42247036 0.019780654 0.018344903
0.4221065 0.019313466 0.018337466
0.42174262 0.018846266 0.01833003
0.42137873 0.018379077 0.018322593
0.42101485 0.017911891 0.018315155
0.42065099 0.017444691 0.018307719
0.4202871 0.016977502 0.018300282
0.41992322 0.016510313 0.018292844
0.41955933 0.016043114 0.018285409
0.41919547 0.015575926 0.018277971
0.41883159 0.015108737 0.018270535
0.4184677 0.014641537 0.018263098
0.41810384 0.01417435 0.01825566
0.41773996 0.013707162 0.018248225
0.41737607 0.013239962 0.018240787
0.41646791 0.013524592 0.018699761
0.41610467 0.01305825 0.018692339
0.41574147 0.012591908 0.018684914
0.41537824 0.012125566 0.018677492
0.41501504 0.011659224 0.018670067
0.41465181 0.011192881 0.018662645
0.41428861 0.010726551 0.018655222
0.41392541 0.010260209 0.018647797
0.41356218 0.0097938664 0.018640375
0.41319898 0.0093275243 0.018632952
0.41283575 0.0088611813 0.018625528
0.41247255 0.0083948392 0.018618105
0.41210932 0.0079284972 0.018610682
0.41174611 0.0074621551 0.018603258
0.41138288 0.006995813 0.018595835
0.41101968 0.0065294821 0.018588413
0.41065645 0.00606314 0.018580988
0.41029325 0.0055967979 0.018573565
0.40993002 0.0051304558 0.018566141
0.40956682 0.0046641133 0.018558718
0.40920359 0.0041977712 0.018551296
0.40884039 0.0037314289 0.018543871
0.40847716 0.0032650868 0.018536448
0.40811396 0.0027987445 0.018529026
0.40775073 0.002332414 0.018521601
0.40738752 0.0018660718 0.018514179
0.40702429 0.0013997296 0.018506754
0.40718749 0.00015858954 0.018032555
0.40682361 -0.00030859857 0.018025117
0.40645975 -0.00077578664 0.018017681
0.40609586 -0.0012429865 0.018010244
0.40573198 -0.0017101746 0.018002808
0.40536809 -0.0021773626 0.017995371
0.40500423 -0.0026445624 0.017987933
0.40464035 -0.0031117506 0.017980497
0.40427646 -0.0035789388 0.01797306
0.40391257 -0.0040461384 0.017965622
0.40354872 -0.0045133266 0.017958187
0.40318483 -0.0049805148 0.017950749
0.40282094 -0.0054477146 0.017943311
0.40245709 -0.0059149028 0.017935876
0.4020932 -0.0063820905 0.017928438
0.40172932 -0.0068492903 0.017921001
0.40136543 -0.0073164785 0.017913565
0.40100157 -0.0077836667 0.017906127
0.40063769 -0.0082508661 0.017898692
0.4002738 -0.0087180547 0.017891254
0.39990994 -0.0091852425 0.017883817
0.39954606 -0.0096524423 0.017876381
0.39918217 -0.010119631 0.017868944
0.39881828 -0.010586819 0.017861506
0.3984544 -0.011054019 0.01785407
0.39809054 -0.011521206 0.017846633
0.39772666 -0.011988395 0.017839195
0.39736277 -0.012455595 0.01783176
0.39699891 -0.012922782 0.017824322
0.39663503 -0.013389971 0.017816886
0.39677766 -0.014657486 0.017342269
0.39641312 -0.015125532 0.017334819
0.39655378 -0.016395597 0.016860161
0.39669314 -0.017667398 0.016385451
0.39683113 -0.018940881 0.015910739
0.39696783 -0.020216046 0.015436004
0.39660063 -0.020687498 0.015428499
0.39673531 -0.021965224 0.014953719
0.39686871 -0.023244685 0.014478888
0.3965002 -0.023717841 0.014471356
0.39613166 -0.024190985 0.014463824
0.39576316 -0.02466413 0.014456293
0.39539462 -0.025137285 0.014448761
0.39502612 -0.02561043 0.014441229
0.39465761 -0.026083574 0.014433698
0.39428908 -0.02655673 0.014426166
0.39392057 -0.027029876 0.014418635
0.39355204 -0.02750303 0.014411103
0.39318353 -0.027976176 0.014403571
0.39232105 -0.027632793 0.014863502
0.3919532 -0.028105093 0.014855984
0.39109275 -0.027759206 0.01531593
0.54253584 0.13079171 0.0058957427
0.54215205 0.13029899 0.0058878995
0.54138458 0.12931354 0.0058722128
0.54027051 0.12933329 0.0063279965
0.54061705 0.1283281 0.0058565265
0.54023325 0.12783538 0.005848683
0.53839296 0.12837265 0.0067681526
0.53728294 0.12839748 0.0072239949
0.53980887 0.12584051 0.0053614811
0.53831446 0.12537177 0.0058094668
0.46267053 0.031150781 0.0052205515
0.46169174 0.031344097 0.0056790765
0.46071428 0.031539109 0.0061376318
0.46033317 0.031049792 0.0061298427
0.45935765 0.031247394 0.0065884572
0.4583835 0.031446666 0.0070470772
0.45741066 0.031647637 0.0075057237
0.45703155 0.031160871 0.0074979751
0.45606071 0.031364396 0.0079566594
0.45509121 0.031569622 0.008415374
0.45412299 0.031776588 0.008874137
0.45374584 0.031292379 0.0088664293
0.45277965 0.031501859 0.0093252119
0.4518148 0.031713042 0.0097840205
0.45143899 0.031230535 0.0097763399
0.45106319 0.030748023 0.0097686592
0.45010096 0.030962614 0.010227523
0.44972581 0.030480953 0.010219855
0.44935066 0.029999297 0.010212189
0.44839105 0.030217316 0.010671131
0.44801655 0.029736506 0.010663478
0.44764209 0.029255696 0.010655824
0.44668517 0.029477095 0.011114797
0.44631135 0.028997138 0.011107156
0.44535643 0.029221086 0.011566169
0.44498327 0.02874198 0.011558542
0.44403031 0.028968485 0.012017592
0.44307873 0.029196687 0.012476671
0.44270688 0.028719284 0.012469073
0.4417572 0.028950075 0.012928215
0.44138604 0.028473523 0.012920629
0.44043842 0.028706836 0.013379791
0.44006792 0.028231129 0.013372218
0.43969741 0.02775543 0.013364647
0.43875241 0.027992144 0.013823862
0.43838257 0.027517296 0.013816304
0.43743959 0.027756559 0.014275559
0.4364979 0.027997531 0.014734843
0.43612939 0.02752438 0.014727311
0.43518966 0.027767934 0.015186661
0.43482181 0.027295636 0.015179142
0.43388411 0.027541712 0.015638508
0.43351692 0.027070265 0.015631003
0.43314973 0.026598819 0.015623498
0.43221468 0.026848298 0.016082913
0.43184817 0.026377697 0.016075423
0.43091512 0.026629729 0.016534882
0.43054923 0.026159992 0.016527405
0.42961812 0.026414607 0.016986927
0.42925292 0.025945716 0.016979462
0.42832384 0.026202848 0.017439002
0.42795932 0.025734814 0.017431553
0.42759478 0.025266768 0.017424103
0.42723024 0.024798723 0.017416652
0.42630446 0.025060119 0.01787626
0.42594057 0.024592919 0.017868824
0.42501682 0.024856864 0.018328473
0.42465359 0.024390522 0.018321048
0.42429039 0.023924191 0.018313626
0.42392716 0.023457849 0.018306203
0.42356396 0.022991506 0.018298779
0.42320073 0.022525165 0.018291356
0.42283753 0.022058822 0.018283933
0.42247429 0.021592481 0.018276509
0.42211109 0.021126138 0.018269086
0.42174786 0.020659795 0.018261662
0.42138466 0.020193454 0.018254239
0.42102146 0.019727124 0.018246816
0.42065823 0.019260781 0.018239392
0.42029503 0.018794438 0.018231969
0.4199318 0.018328097 0.018224547
0.41956857 0.017861754 0.018217122
0.41920537 0.017395413 0.0182097
0.41884214 0.01692907 0.018202277
0.41847894 0.016462727 0.018194852
0.41811571 0.015996385 0.01818743
0.4177525 0.015530054 0.018180007
0.4173893 0.015063712 0.018172583
0.41702607 0.01459737 0.01816516
0.41666287 0.014131028 0.018157735
0.41629964 0.013664686 0.018150313
0.41593644 0.013198344 0.01814289
0.41557321 0.012732001 0.018135466
0.41521001 0.012265659 0.018128043
0.41484678 0.011799317 0.01812062
0.41448358 0.011332975 0.018113196
0.41412035 0.010866644 0.018105773
0.41375715 0.010400302 0.018098349
0.41339391 0.0099339597 0.018090926
0.41303071 0.0094676176 0.018083503
0.41266748 0.0090012755 0.018076079
0.41176757 0.0092958603 0.018536216
0.41194105 0.0080685914 0.018061234
0.41157785 0.0076022488 0.018053809
0.41121462 0.0071359067 0.018046387
0.41031736 0.0074338983 0.018506577
0.41048822 0.0062032337 0.018031539
0.41012499 0.0057368916 0.018024117
0.40976176 0.0052705496 0.018016692
0.40886715 0.0055719363 0.018476939
0.40903533 0.0043378649 0.018001847
0.40814206 0.004640955 0.018462118
0.40777951 0.0041754707 0.018454708
0.40794569 0.0029388382 0.017979577
0.40758249 0.0024725078 0.017972153
0.40721926 0.0020061655 0.01796473
0.40685606 0.0015398234 0.017957306
0.40649283 0.001073481 0.017949883
0.40665504 -0.0001682499 0.01747467
0.40629119 -0.00063543802 0.017467232
0.4059273 -0.0011026378 0.017459795
0.40556341 -0.0015698259 0.017452359
0.40519953 -0.0020370141 0.017444922
0.40483564 -0.0025042139 0.017437484
0.40447178 -0.0029714019 0.017430048
0.4041079 -0.0034385901 0.017422611
0.40374401 -0.0039057899 0.017415175
0.40338016 -0.0043729781 0.017407738
0.40301627 -0.0048401658 0.0174003
0.40265238 -0.0053073657 0.017392864
0.4022885 -0.0057745539 0.017385427
0.40140781 -0.0054552983 0.017845957
0.40104461 -0.0059216404 0.017838534
0.40068138 -0.0063879709 0.017831109
0.40031818 -0.006854313 0.017823687
0.39995494 -0.0073206555 0.017816264
0.39959174 -0.0077869976 0.01780884
0.39922851 -0.0082533397 0.017801417
0.39886531 -0.0087196818 0.017793993
0.39850208 -0.0091860238 0.01778657
0.39813888 -0.0096523669 0.017779147
0.39777565 -0.010118709 0.017771723
0.39741245 -0.010585039 0.0177643
0.39704925 -0.011051381 0.017756877
0.39668602 -0.011517724 0.017749453
0.39632282 -0.011984066 0.01774203
0.39595959 -0.012450408 0.017734606
0.39610258 -0.013716822 0.017259
0.39573869 -0.01418401 0.017251562
0.39587972 -0.015452974 0.016775915
0.3960194 -0.01672364 0.016300242
0.3961578 -0.017996032 0.015824519
0.3962948 -0.019270105 0.015348789
0.39592829 -0.019740701 0.015341299
0.39606333 -0.021017313 0.014865533
0.39619705 -0.022295639 0.014389737
0.3958292 -0.022767939 0.014382219
0.39546132 -0.023240237 0.0143747
0.39509347 -0.023712534 0.014367183
0.39472562 -0.024184834 0.014359664
0.39435777 -0.024657132 0.014352146
0.39398992 -0.02512943 0.014344628
0.39362207 -0.02560173 0.014337109
0.39325419 -0.026074028 0.014329592
0.39288634 -0.026546326 0.014322073
0.39251849 -0.027018625 0.014314556
0.39215064 -0.027490912 0.014307037
0.39128983 -0.027146127 0.014767974
0.39092264 -0.027617579 0.014760468
0.54159051 0.12995428 0.0052995295
0.54120678 0.12946156 0.0052916859
0.54009306 0.12948105 0.0057484694
0.54043925 0.12847611 0.0052759997
0.54005551 0.12798339 0.0052681561
0.53894377 0.12800543 0.00572498
0.53856063 0.12751356 0.0057171504
0.53668606 0.12655608 0.006158364
0.46151489 0.031491347 0.005101556
0.46053773 0.031686105 0.0055611115
0.46015662 0.031196788 0.0055533224
0.4591814 0.031394135 0.0060129403
0.45820758 0.031593151 0.0064725629
0.45723504 0.031793866 0.006932213
0.45685592 0.031307098 0.0069244644
0.45588541 0.031510368 0.0073841517
0.45491621 0.031715341 0.0078438697
0.45394829 0.03192205 0.0083036367
0.45357114 0.03143784 0.0082959291
0.45260525 0.031647064 0.0087557137
0.4516407 0.031857993 0.0092155235
0.45126489 0.031375486 0.0092078429
0.4503023 0.031588964 0.0096676955
0.44992718 0.031107308 0.0096600289
0.44955203 0.030625647 0.0096523613
0.44859207 0.030842561 0.01011229
0.44821757 0.030361757 0.010104638
0.4478431 0.029880947 0.010096983
0.44688582 0.030101238 0.010556946
0.44651201 0.029621281 0.010549305
0.44555673 0.029844122 0.011009308
0.44518358 0.029365014 0.011001681
0.44423026 0.029590413 0.01146172
0.44385776 0.029112156 0.011454107
0.44290647 0.029340103 0.011914191
0.44253463 0.0288627 0.011906591
0.44158527 0.029093236 0.012366737
0.44121411 0.028616684 0.012359152
0.44026679 0.02884974 0.012819316
0.43989629 0.028374035 0.012811744
0.43895093 0.028609646 0.013271949
0.43858108 0.028134793 0.013264391
0.43763775 0.028372955 0.013724633
0.43726856 0.027898952 0.013717088
0.43632719 0.028139669 0.014177375
0.43595868 0.027666518 0.014169843
0.43501925 0.027909817 0.014630192
0.4340812 0.028154787 0.015090547
0.43371403 0.02768334 0.015083042
0.43334684 0.027211893 0.015075537
0.43241143 0.027460264 0.015535942
0.43204489 0.026989669 0.015528452
0.43111148 0.027240595 0.015988901
0.43074563 0.026770845 0.015981423
0.42981416 0.027024359 0.016441936
0.42944896 0.026555467 0.016434472
0.42851952 0.026811497 0.016895002
0.42815498 0.026343452 0.016887551
0.42779043 0.025875418 0.016880101
0.42686364 0.026134843 0.017340686
0.42649978 0.025667654 0.017333249
0.4261359 0.025200468 0.017325811
0.42521176 0.0254633 0.017786451
0.42484856 0.024996957 0.017779028
0.42392641 0.02526235 0.018239707
0.42356387 0.024796866 0.018232297
0.42320129 0.024331369 0.018224888
0.42283875 0.023865884 0.018217478
0.4224762 0.023400389 0.018210068
0.42211366 0.022934902 0.018202659
0.42175111 0.022469418 0.018195249
0.42138854 0.022003923 0.018187838
0.42102599 0.021538438 0.018180428
0.42066345 0.021072941 0.018173018
0.4203009 0.020607457 0.018165609
0.41993833 0.020141961 0.018158199
0.41957578 0.019676477 0.01815079
0.41921324 0.019210979 0.01814338
0.41885069 0.018745495 0.01813597
0.41848812 0.018279998 0.018128561
0.41812557 0.017814513 0.018121151
0.41776302 0.017349018 0.01811374
0.41740048 0.016883533 0.01810633
0.41703793 0.016418049 0.018098921
0.41667536 0.015952552 0.018091511
0.41631281 0.015487067 0.018084101
0.41595027 0.015021571 0.018076692
0.41558772 0.014556087 0.018069282
0.41522515 0.01409059 0.018061873
0.4148626 0.013625106 0.018054463
0.41450006 0.013159609 0.018047053
0.41413748 0.012694124 0.018039644
0.41377494 0.012228628 0.018032232
0.41341239 0.011763143 0.018024823
0.41304985 0.011297659 0.018017413
0.41268727 0.010832163 0.018010003
0.41232473 0.010366678 0.018002594
0.41196218 0.0099011818 0.017995184
0.41159964 0.0094356975 0.017987775
0.41123706 0.008970201 0.017980365
0.41087452 0.0085047157 0.017972955
0.41051197 0.0080392193 0.017965546
0.41014943 0.007573735 0.017958136
0.40978685 0.0071082385 0.017950725
0.4094243 0.0066427542 0.017943315
0.40906176 0.0061772694 0.017935906
0.40869921 0.0057117729 0.017928496
0.40833667 0.0052462886 0.017921086
0.40797409 0.0047807922 0.017913677
0.40761155 0.0043153074 0.017906267
0.407249 0.0038498112 0.017898858
0.40688646 0.0033843266 0.017891448
0.40652388 0.0029188301 0.017884038
0.40616134 0.0024533456 0.017876629
0.40579879 0.0019878494 0.017869217
0.40596136 0.00074723171 0.017393015
0.40559813 0.00028088948 0.017385591
0.40523493 -0.00018545274 0.017378168
0.4048717 -0.00065179495 0.017370744
0.4045085 -0.0011181372 0.017363321
0.40414527 -0.0015844794 0.017355898
0.40378207 -0.0020508098 0.017348474
0.40341887 -0.0025171521 0.017341051
0.40305564 -0.0029834944 0.017333629
0.40269244 -0.0034498365 0.017326204
0.40232921 -0.0039161788 0.017318781
0.40196598 -0.0043825209 0.017311359
0.40160277 -0.004848863 0.017303934
0.40123954 -0.0053152055 0.017296512
0.40087634 -0.0057815476 0.017289087
0.40051314 -0.0062478781 0.017281665
0.40014991 -0.0067142202 0.017274242
0.39978671 -0.0071805627 0.017266817
0.39942348 -0.0076469048 0.017259395
0.39906028 -0.0081132473 0.017251972
0.39869705 -0.0085795894 0.017244548
0.39833385 -0.0090459315 0.017237125
0.39797062 -0.0095122736 0.0172297
0.39760742 -0.0099786157 0.017222278
0.39724419 -0.010444947 0.017214855
0.39688098 -0.010911289 0.017207431
0.39651775 -0.011377631 0.017200008
0.39615455 -0.011843973 0.017192585
0.39579132 -0.012310315 0.017185161
0.39542812 -0.012776658 0.017177738
0.39506489 -0.013243 0.017170316
0.39520627 -0.014510849 0.016693678
0.39534628 -0.015780414 0.016217014
0.39548501 -0.017051671 0.015740322
0.39562243 -0.018324666 0.015263583
0.39525658 -0.018794402 0.015256105
0.39539197 -0.020069923 0.014779346
0.39552602 -0.021347137 0.014302564
0.39515886 -0.021818578 0.014295059
0.39479166 -0.02229003 0.014287555
0.39442447 -0.022761472 0.01428005
0.39405727 -0.023232926 0.014272545
0.39369008 -0.023704365 0.014265041
0.39332289 -0.024175819 0.014257536
0.39295569 -0.02464726 0.014250032
0.3925885 -0.025118712 0.014242527
0.3922213 -0.025590165 0.014235022
0.39185411 -0.026061606 0.014227518
0.39148691 -0.026533058 0.014220012
0.39111972 -0.027004499 0.014212509
0.39026055 -0.026658267 0.014674471
0.53876626 0.1281532 0.0051454566
0.53838319 0.12766133 0.005137627
0.45900518 0.031540874 0.0054374263
0.45803162 0.031739637 0.0058980491
0.45705941 0.031940095 0.0063587022
0.4566803 0.031453326 0.0063509541
0.45571008 0.03165634 0.0068116444
0.45474118 0.031861059 0.0072723618
0.45377359 0.032067511 0.0077331322
0.45339644 0.031583302 0.0077254246
0.45243087 0.031792272 0.0081862127
0.45146662 0.032002944 0.0086470293
0.45050368 0.032215323 0.0091078682
0.45012853 0.031733658 0.0091002015
0.4497534 0.031252004 0.009092534
0.44879305 0.03146781 0.009553453
0.44841859 0.030987 0.0095457993
0.44804409 0.030506196 0.0095381457
0.44708648 0.030725373 0.0099990973
0.44671264 0.030245421 0.0099914577
0.445757 0.030467156 0.010452446
0.44538385 0.02998805 0.010444819
0.4444302 0.030212339 0.010905849
0.4440577 0.029734084 0.010898235
0.44310606 0.029960923 0.011359309
0.44273421 0.029483519 0.011351709
0.4417845 0.029712953 0.011812845
0.44141334 0.029236397 0.01180526
0.44046566 0.029468346 0.012266411
0.44009516 0.028992645 0.012258838
0.43972462 0.028516941 0.012251266
0.43877959 0.028752297 0.012712475
0.43840978 0.028277442 0.012704915
0.43746671 0.028515348 0.013166165
0.43652499 0.028754957 0.013627438
0.43615648 0.028281808 0.013619906
0.4352167 0.028523998 0.014081245
0.43484885 0.0280517 0.014073728
0.43391111 0.028296413 0.014535085
0.43354392 0.027824966 0.014527581
0.43260816 0.028072231 0.014988972
0.43224162 0.027601635 0.014981481
0.43130788 0.027851453 0.01544292
0.430942 0.027381711 0.015435442
0.43001017 0.027634112 0.015896944
0.42964497 0.027165219 0.015889481
0.4287152 0.027420148 0.016351001
0.42835066 0.026952103 0.016343551
0.42798612 0.026484057 0.0163361
0.42705896 0.026742393 0.016797671
0.42669508 0.026275193 0.016790234
0.42576995 0.026536077 0.017251849
0.42540672 0.026069734 0.017244425
0.42448357 0.026333168 0.017706081
0.42412102 0.025867684 0.017698672
0.42375845 0.025402188 0.017691262
0.42283791 0.025669063 0.018152993
0.42247602 0.025204424 0.018145597
0.42211413 0.024739785 0.018138202
0.42175224 0.024275146 0.018130805
0.42139035 0.023810508 0.018123409
0.42102847 0.023345869 0.018116012
0.42066658 0.02288123 0.018108616
0.42030469 0.022416592 0.018101221
0.4199428 0.021951953 0.018093824
0.41958091 0.021487314 0.018086428
0.41921902 0.021022676 0.018079031
0.41885713 0.020558037 0.018071635
0.41849524 0.020093398 0.018064238
0.41813335 0.019628759 0.018056843
0.41777146 0.019164121 0.018049447
0.41740957 0.018699482 0.01804205
0.41704768 0.018234843 0.018034654
0.41668579 0.017770205 0.018027257
0.4163239 0.017305564 0.018019861
0.41596201 0.016840925 0.018012466
0.41560012 0.016376287 0.018005069
0.41523823 0.015911648 0.017997673
0.41487634 0.01544701 0.017990276
0.41451445 0.014982372 0.01798288
0.41415256 0.014517733 0.017975485
0.41379067 0.014053082 0.017968088
0.41342878 0.013588443 0.017960692
0.41306689 0.013123805 0.017953295
0.412705 0.012659166 0.017945899
0.41234311 0.012194527 0.017938502
0.41198123 0.011729889 0.017931107
0.41161934 0.01126525 0.017923711
0.41125745 0.010800611 0.017916314
0.41089556 0.010335973 0.017908918
0.41053367 0.0098713338 0.017901521
0.41017178 0.0094066951 0.017894125
0.40980989 0.0089420555 0.01788673
0.409448 0.0084774168 0.017879333
0.40908611 0.0080127781 0.017871937
0.40872422 0.0075481399 0.01786454
0.40836233 0.0070835007 0.017857144
0.40800044 0.006618862 0.017849749
0.40763855 0.0061542233 0.017842352
0.40727666 0.0056895847 0.017834956
0.40691477 0.005224946 0.017827559
0.40655288 0.0047603073 0.017820163
0.40619099 0.0042956686 0.017812766
0.4058291 0.0038310299 0.017805371
0.40546721 0.0033663909 0.017797975
0.40563083 0.0021276872 0.017320773
0.40526828 0.0016622025 0.017313363
0.40490574 0.001196718 0.017305953
0.40454319 0.00073122163 0.017298544
0.40418065 0.00026573701 0.017291134
0.40381807 -0.00019975935 0.017283725
0.40345553 -0.00066524395 0.017276315
0.40309298 -0.0011307403 0.017268904
0.40273044 -0.001596225 0.017261494
0.40236786 -0.0020617212 0.017254084
0.40200531 -0.002527206 0.017246675
0.40164277 -0.0029927022 0.017239265
0.40128019 -0.0034581868 0.017231856
0.40091765 -0.0039236834 0.017224446
0.4005551 -0.0043891678 0.017217036
0.40019256 -0.0048546526 0.017209627
0.39982998 -0.005320149 0.017202217
0.39946744 -0.0057856333 0.017194806
0.39910489 -0.0062511298 0.017187396
0.39874235 -0.0067166146 0.017179986
0.39837977 -0.0071821106 0.017172577
0.39801723 -0.0076475954 0.017165167
0.39765468 -0.0081130918 0.017157758
0.39729214 -0.0085785761 0.017150348
0.39692956 -0.0090440726 0.017142938
0.39656702 -0.0095095569 0.017135529
0.39620447 -0.0099750422 0.017128119
0.39584193 -0.010440539 0.01712071
0.39547938 -0.010906023 0.017113298
0.39511681 -0.011371519 0.017105889
0.39475426 -0.011837004 0.017098479
0.39439172 -0.0123025 0.017091069
0.39453343 -0.013569248 0.016613442
0.39467382 -0.0148377 0.016135789
0.39481288 -0.016107844 0.015658112
0.39495063 -0.017379703 0.015180403
0.39458543 -0.017848594 0.01517294
0.39472121 -0.019123036 0.014695169
0.39485565 -0.020399148 0.014217393
0.39448911 -0.020869741 0.014209902
0.39412257 -0.021340337 0.014202411
0.39375606 -0.021810932 0.01419492
0.39338952 -0.022281528 0.014187429
0.39302298 -0.022752123 0.014179938
0.39265648 -0.023222717 0.014172447
0.39228994 -0.023693312 0.014164956
0.3919234 -0.024163907 0.014157465
0.39155689 -0.024634503 0.014149974
0.39069667 -0.02429023 0.014612916
0.39033082 -0.024759978 0.014605438
0.38996497 -0.025229717 0.014597962
0.39009076 -0.026516894 0.01412001
0.4578557 0.031886119 0.0053235386
0.45688379 0.032086324 0.0057851919
0.45650467 0.031599555 0.0057774433
0.45553476 0.031802315 0.0062391371
0.45456618 0.032006778 0.006700858
0.45359889 0.032212973 0.0071626315
0.45322174 0.031728763 0.0071549239
0.45225647 0.031937476 0.0076167122
0.45129251 0.032147896 0.0080785314
0.4503299 0.032360017 0.0085403742
0.44995475 0.031878356 0.0085327066
0.44899407 0.032093052 0.0089946156
0.44861957 0.031612247 0.008986962
0.44766095 0.031829476 0.0094488868
0.44728711 0.031349517 0.0094412463
0.44633046 0.031569298 0.0099032149
0.4459573 0.031090191 0.0098955883
0.44558415 0.030611083 0.0098879617
0.44463015 0.030834267 0.010349977
0.44425765 0.030356012 0.010342364
0.44330564 0.030581748 0.010804427
0.4429338 0.030104339 0.010796827
0.44198373 0.030332666 0.01125895
0.44161257 0.029856116 0.011251364
0.44066453 0.030086949 0.011713509
0.44029403 0.02961125 0.011705936
0.43992352 0.029135551 0.011698363
0.43897811 0.029369794 0.012160558
0.43860829 0.028894946 0.012153
0.43766487 0.029131744 0.012615239
0.43729571 0.028657742 0.012607694
0.43635428 0.028897095 0.01306997
0.43598577 0.028423946 0.013062438
0.43504632 0.028665882 0.013524781
0.4341082 0.028909488 0.013987129
0.433741 0.028438041 0.013979624
0.43337381 0.027966594 0.013972119
0.43243837 0.028213602 0.014434514
0.43207183 0.027743006 0.014427023
0.4311384 0.027992569 0.014889462
0.43077251 0.027522827 0.014881984
0.42984101 0.027774971 0.015344489
0.42947578 0.02730608 0.015337025
0.42854631 0.027560752 0.015799548
0.42818177 0.027092706 0.015792098
0.42725429 0.027349928 0.01625466
0.4268904 0.026882742 0.016247222
0.42596489 0.027142512 0.016709827
0.42560169 0.026676171 0.016702404
0.42467818 0.026938504 0.017165046
0.42431563 0.026473006 0.017157637
0.42395306 0.026007522 0.017150227
0.42303216 0.026273284 0.017612947
0.42267027 0.025808645 0.017605552
0.42230839 0.025344005 0.017598156
0.4219465 0.024879366 0.017590759
0.42158461 0.024414727 0.017583363
0.42122272 0.023950089 0.017575966
0.42086083 0.02348545 0.01756857
0.42049894 0.023020811 0.017561175
0.42013705 0.022556173 0.017553778
0.41977516 0.022091534 0.017546382
0.41941327 0.021626895 0.017538985
0.41905138 0.021162257 0.017531589
0.41868949 0.020697618 0.017524194
0.4183276 0.020232979 0.017516797
0.41796571 0.019768341 0.017509401
0.41760382 0.019303702 0.017502004
0.41724193 0.018839063 0.017494608
0.41688004 0.018374424 0.017487211
0.41651815 0.017909786 0.017479816
0.41615626 0.017445147 0.01747242
0.41579437 0.016980508 0.017465023
0.41543248 0.01651587 0.017457627
0.41507059 0.016051231 0.01745023
0.4147087 0.015586592 0.017442835
0.41434681 0.015121954 0.017435439
0.41398492 0.014657315 0.017428042
0.41362303 0.014192664 0.017420646
0.41326115 0.013728025 0.017413249
0.41289926 0.013263387 0.017405853
0.41253737 0.012798748 0.017398458
0.41217548 0.012334109 0.017391061
0.41181359 0.011869471 0.017383665
0.4114517 0.011404832 0.017376268
0.41108981 0.010940193 0.017368872
0.41072792 0.010475555 0.017361475
0.41036603 0.010010916 0.01735408
0.41000414 0.0095462771 0.017346684
0.40964225 0.0090816384 0.017339287
0.40928036 0.0086169997 0.017331891
0.40891847 0.0081523601 0.017324494
0.40855658 0.0076877219 0.017317098
0.40819469 0.0072230832 0.017309703
0.4078328 0.0067584445 0.017302306
0.40747091 0.0062938058 0.01729491
0.40710902 0.0058291666 0.017287513
0.40674713 0.0053645279 0.017280117
0.40638524 0.0048998892 0.017272722
0.40602335 0.0044352505 0.017265325
0.40566146 0.0039706118 0.017257929
0.40529957 0.0035059731 0.017250532
0.40493768 0.0030413345 0.017243136
0.40457579 0.0025766955 0.017235739
0.40421391 0.0021120568 0.017228344
0.40385202 0.0016474181 0.017220948
0.40349013 0.0011827794 0.017213551
0.40312824 0.00071814068 0.017206155
0.40276635 0.00025350193 0.017198758
0.40240446 -0.00021113682 0.017191363
0.40204257 -0.00067577558 0.017183967
0.40168068 -0.0011404143 0.01717657
0.40131879 -0.0016050531 0.017169174
0.4009569 -0.0020696919 0.017161777
0.40059501 -0.0025343306 0.017154381
0.40023312 -0.0029989693 0.017146986
0.39987123 -0.003463608 0.017139589
0.39950934 -0.0039282469 0.017132193
0.39914745 -0.0043928856 0.017124796
0.39878556 -0.0048575243 0.0171174
0.39842367 -0.005322163 0.017110005
0.39806178 -0.0057868017 0.017102608
0.39769989 -0.0062514404 0.017095212
0.397338 -0.0067160791 0.017087815
0.39697611 -0.0071807178 0.017080419
0.39661422 -0.0076453569 0.017073022
0.3962523 -0.0081100073 0.017065628
0.39589041 -0.008574646 0.017058231
0.39552853 -0.0090392847 0.017050834
0.39516664 -0.0095039234 0.017043438
0.39480475 -0.0099685621 0.017036041
0.39444286 -0.010433201 0.017028645
0.39408097 -0.010897839 0.01702125
0.39371908 -0.011362478 0.017013853
0.3938612 -0.012628146 0.016535215
0.39400196 -0.013895498 0.016056575
0.39414138 -0.015164539 0.015577904
0.39427948 -0.016435286 0.01509921
0.39391494 -0.016903332 0.015091759
0.39405105 -0.018176625 0.01461302
0.39418587 -0.019451668 0.014134233
0.39381999 -0.019921407 0.014126755
0.39345413 -0.020391155 0.014119278
0.39308825 -0.020860905 0.0141118
0.3927224 -0.021330642 0.014104323
0.39235654 -0.021800391 0.014096846
0.39199066 -0.022270128 0.014089368
0.39162481 -0.022739878 0.014081891
0.39125893 -0.023209628 0.014074413
0.39089307 -0.023679364 0.014066936
0.39052719 -0.024149114 0.014059458
0.39016134 -0.024618862 0.01405198
0.38979548 -0.025088601 0.014044503
0.3894296 -0.025558349 0.014037025
0.38857299 -0.025210034 0.014501061
0.45670816 0.032232553 0.0052116811
0.45632905 0.031745784 0.0052039325
0.45535943 0.031948287 0.0056666262
0.45439115 0.032152493 0.0061293538
0.45342416 0.032358438 0.006592127
0.45304704 0.031874225 0.0065844194
0.45208207 0.032082684 0.0070472113
0.45111844 0.032292847 0.0075100339
0.45015612 0.032504711 0.0079728803
0.44978097 0.03202305 0.0079652127
0.44882059 0.032237493 0.0084281247
0.44786158 0.032453615 0.0088910386
0.44748777 0.031973656 0.008883399
0.44653076 0.032192327 0.0093463529
0.4461576 0.031713225 0.0093387272
0.44520259 0.031934448 0.0098017184
0.44483009 0.031456195 0.0097941058
0.44387704 0.031679973 0.010257144
0.44350523 0.031202568 0.010249545
0.44313338 0.030725166 0.010241946
0.44218296 0.030952379 0.010705058
0.4418118 0.030475827 0.010697472
0.4408634 0.030705562 0.011160603
0.4404929 0.030229857 0.01115303
0.44012237 0.029754156 0.011145458
0.43917665 0.029987298 0.011608646
0.4388068 0.029512445 0.011601088
0.43786302 0.029748134 0.012064313
0.43749386 0.029274138 0.012056768
0.43712467 0.028800135 0.012049222
0.43618357 0.029039234 0.012512502
0.43581507 0.028566085 0.01250497
0.43487591 0.028807765 0.012968316
0.43393812 0.029051116 0.013431664
0.43357092 0.028579667 0.013424159
0.4326351 0.028825575 0.013887543
0.43226859 0.028354974 0.013880052
0.43133476 0.028603435 0.014343484
0.43096891 0.028133685 0.014336007
0.43003702 0.028384728 0.014799498
0.42967182 0.027915832 0.014792033
0.42874199 0.028169403 0.015255544
0.42837745 0.027701357 0.015248094
0.42801291 0.027233312 0.015240643
0.42708573 0.027490279 0.015704211
0.42615986 0.027748948 0.016167801
0.42579666 0.027282607 0.016160378
0.42487279 0.027543826 0.016624011
0.42451021 0.027078342 0.0166166
0.42358831 0.027342143 0.017080298
0.42322642 0.026877504 0.017072903
0.42286453 0.026412865 0.017065506
0.42194527 0.026680041 0.017529232
0.42158407 0.026216259 0.017521851
