# .PCD v0.7 - Point Cloud Data file format
VERSION 0.7
FIELDS x y z
SIZE 4 4 4
TYPE F F F
COUNT 1 1 1
WIDTH 1380
HEIGHT 1
VIEWPOINT 0 0 0 1 0 0 0
POINTS 1380
DATA ascii
0.4621942 -0.065711118 0.12036138
0.46180379 -0.066212341 0.12035341
0.46083066 -0.065877825 0.12060682
0.46044093 -0.066378213 0.12059885
0.45888841 -0.065203764 0.12111368
0.52942228 -0.047091994 0.10935453
0.52900338 -0.047629818 0.10934597
0.52858448 -0.048167642 0.10933741
0.5275169 -0.047955114 0.10958985
0.52709866 -0.048492085 0.10958131
0.52668047 -0.049029056 0.10957276
0.52561551 -0.048813116 0.10982527
0.52519798 -0.049349241 0.10981674
0.52478039 -0.049885366 0.1098082
0.5243628 -0.05042148 0.10979967
0.52394527 -0.050957609 0.10979113
0.52352768 -0.051493734 0.1097826
0.52246737 -0.051271815 0.11003523
0.52205044 -0.051807083 0.11002671
0.52099216 -0.051582638 0.11027935
0.51993519 -0.051356487 0.11053202
0.51887953 -0.051128633 0.11078472
0.51846462 -0.05166135 0.11077624
0.51741093 -0.051430915 0.11102901
0.51699668 -0.051962789 0.11102054
0.51594502 -0.051729824 0.11127332
0.51489466 -0.051495168 0.11152613
0.51384562 -0.051258806 0.11177896
0.5134334 -0.051788118 0.11177053
0.51238632 -0.051549211 0.11202341
0.51134056 -0.051308565 0.11227634
0.51092964 -0.051836174 0.11226793
0.50988591 -0.051593013 0.11252088
0.50947565 -0.052119762 0.11251249
0.50843394 -0.051874053 0.11276548
0.50802433 -0.052399956 0.1127571
0.50698459 -0.052151684 0.11301012
0.50594616 -0.051901709 0.11326318
0.50490904 -0.051649995 0.11351628
0.5045014 -0.052173354 0.11350795
0.50346631 -0.051919125 0.11376107
0.50243253 -0.05166319 0.11401421
0.5020262 -0.052184854 0.11400591
0.50161994 -0.052706506 0.1139976
0.50121361 -0.053228162 0.1139893
0.50018317 -0.052967977 0.11424251
0.49977753 -0.053488784 0.11423422
0.49874902 -0.053226002 0.11448751
0.49834403 -0.053745952 0.11447923
0.49793905 -0.054265913 0.11447095
0.49691325 -0.053999759 0.11472426
0.49650893 -0.054518864 0.11471599
0.4954851 -0.054250173 0.11496934
0.49508145 -0.054768417 0.1149611
0.49405962 -0.054497167 0.11521448
0.49365664 -0.055014566 0.11520624
0.49263677 -0.054740764 0.11545968
0.49223444 -0.05525732 0.11545146
0.49183214 -0.055773862 0.11544324
0.49142981 -0.056290414 0.11543501
0.49041322 -0.056012329 0.11568853
0.49001154 -0.056528024 0.11568032
0.4896099 -0.05704372 0.11567211
0.48920825 -0.057559416 0.1156639
0.488195 -0.057277109 0.11591747
0.48779401 -0.057791948 0.11590928
0.48739302 -0.058306798 0.11590108
0.48638245 -0.058021083 0.11615469
0.4853732 -0.057733666 0.11640834
0.48497352 -0.058246803 0.11640017
0.48396626 -0.057956837 0.11665387
0.48356727 -0.058469124 0.11664571
0.48256192 -0.058176577 0.11689946
0.481558 -0.057882346 0.11715321
0.48116031 -0.058392931 0.11714509
0.48076263 -0.058903527 0.11713696
0.48036495 -0.059414126 0.11712883
0.47936431 -0.059115641 0.11738265
0.47896728 -0.05962538 0.11737454
0.47857025 -0.060135122 0.11736643
0.47817326 -0.060644861 0.11735831
0.47777623 -0.0611546 0.1173502
0.4773792 -0.061664339 0.11734208
0.47698221 -0.062174078 0.11733397
0.47658518 -0.062683828 0.11732586
0.47618815 -0.063193575 0.11731774
0.47579113 -0.063703313 0.11730962
0.47539413 -0.064213052 0.11730151
0.4749971 -0.064722791 0.1172934
0.47460008 -0.06523253 0.11728528
0.47420308 -0.065742269 0.11727717
0.47380605 -0.066252008 0.11726905
0.47340903 -0.066761762 0.11726094
0.473012 -0.067271501 0.11725283
0.472615 -0.06778124 0.11724471
0.47221798 -0.068290979 0.1172366
0.4712306 -0.067975476 0.1174907
0.47083426 -0.068484373 0.1174826
0.46984881 -0.068166278 0.11773675
0.46827638 -0.067018725 0.11825316
0.46670657 -0.065867774 0.11876963
0.46631354 -0.066372402 0.1187616
0.46533406 -0.066046663 0.11901587
0.46435598 -0.065719247 0.11927015
0.4633792 -0.065390125 0.11952447
0.46240374 -0.065059304 0.1197788
0.46201333 -0.065560542 0.11977082
0.46162295 -0.066061765 0.11976285
0.46065012 -0.06572751 0.12001727
0.46026039 -0.066227898 0.1200093
0.45870849 -0.065053955 0.12052613
0.52922821 -0.046930429 0.10872085
0.52945906 -0.048216648 0.1084503
0.52839047 -0.048006076 0.10870373
0.52732319 -0.047793802 0.10895719
0.52690494 -0.048330773 0.10894864
0.52648669 -0.048867747 0.10894009
0.52606851 -0.049404718 0.10893155
0.52565026 -0.049941689 0.108923
0.52523202 -0.050478663 0.10891445
0.52481383 -0.051015634 0.1089059
0.52375185 -0.050796553 0.10915947
0.52333426 -0.051332679 0.10915094
0.52291667 -0.051868793 0.1091424
0.52185732 -0.051646285 0.10939604
0.52079934 -0.051422093 0.10964969
0.52038312 -0.051956516 0.10964119
0.5193271 -0.051729765 0.10989488
0.5182724 -0.051501319 0.11014859
0.51785749 -0.052034035 0.11014011
0.51680475 -0.051803011 0.11039389
0.51575339 -0.0515703 0.11064767
0.51470339 -0.051335901 0.11090148
0.51429045 -0.051866069 0.11089304
0.51324236 -0.051629107 0.11114689
0.51219565 -0.051390454 0.11140077
0.51178408 -0.05191892 0.11139236
0.51073927 -0.051677674 0.11164629
0.50969589 -0.051434767 0.11190024
0.50928563 -0.051961519 0.11189185
0.50824416 -0.051716063 0.11214585
0.50783455 -0.05224197 0.11213747
0.50679511 -0.051993951 0.11239149
0.50575703 -0.051744234 0.11264555
0.50534874 -0.052268434 0.11263721
0.50431257 -0.052016132 0.11289132
0.50327778 -0.05176216 0.11314546
0.5028708 -0.052284669 0.11313713
0.50183797 -0.052028146 0.11339129
0.5014317 -0.052549798 0.11338299
0.50102538 -0.05307145 0.11337468
0.49999526 -0.052811522 0.11362889
0.49958962 -0.053332329 0.11362061
0.49856141 -0.053069804 0.11387489
0.49815643 -0.053589754 0.11386661
0.49775147 -0.054109715 0.11385833
0.49734649 -0.054629665 0.11385006
0.49632165 -0.054362919 0.11410438
0.49529812 -0.054094486 0.11435874
0.49489447 -0.05461273 0.11435049
0.49449083 -0.055130988 0.11434224
0.49346995 -0.054859135 0.11459664
0.49306697 -0.055376533 0.11458841
0.49204808 -0.055102143 0.11484285
0.49164575 -0.055618685 0.11483463
0.49124342 -0.056135237 0.1148264
0.49084112 -0.056651793 0.11481819
0.49043879 -0.057168335 0.11480996
0.48942384 -0.0568888 0.11506451
0.48902217 -0.057404496 0.1150563
0.48862052 -0.057920191 0.1150481
0.48760825 -0.057637285 0.11530268
0.48720726 -0.058152135 0.11529449
0.48680627 -0.058666985 0.11528629
0.48579666 -0.058380667 0.11554092
0.48478839 -0.058092646 0.11579558
0.48438871 -0.058605794 0.11578742
0.48338243 -0.058315229 0.11604212
0.48298341 -0.058827527 0.11603397
0.48197904 -0.058534376 0.11628873
0.4815807 -0.059045818 0.11628059
0.48057839 -0.058750141 0.11653538
0.48018071 -0.059260737 0.11652725
0.4791804 -0.058962509 0.11678208
0.47878337 -0.059472252 0.11677396
0.47838634 -0.059981991 0.11676585
0.47798935 -0.06049173 0.11675774
0.47759232 -0.061001468 0.11674961
0.47719529 -0.061511211 0.1167415
0.4767983 -0.06202095 0.11673339
0.47640127 -0.062530704 0.11672527
0.47600424 -0.063040443 0.11671716
0.47560722 -0.063550182 0.11670905
0.47521019 -0.064059921 0.11670093
0.47481319 -0.06456966 0.11669282
0.47441617 -0.065079398 0.11668471
0.47401914 -0.065589137 0.11667659
0.47362214 -0.066098876 0.11666848
0.47322512 -0.06660863 0.11666036
0.47282809 -0.067118369 0.11665225
0.47243106 -0.067628108 0.11664414
0.47203407 -0.068137854 0.11663602
0.47163704 -0.068647593 0.1166279
0.47124001 -0.069157332 0.11661979
0.47025427 -0.068840384 0.11687491
0.46926981 -0.068521693 0.11713009
0.46828672 -0.068201348 0.11738526
0.5301038 -0.046977475 0.10783278
0.52968425 -0.047516152 0.10782421
0.52926469 -0.048054826 0.10781563
0.52819639 -0.047844507 0.10807007
0.52777749 -0.048382331 0.10806151
0.52735859 -0.048920155 0.10805295
0.52693975 -0.049457978 0.10804439
0.52652085 -0.04999581 0.10803583
0.52610195 -0.050533626 0.10802726
0.5250383 -0.050317351 0.10828179
0.52462006 -0.050854322 0.10827324
0.52420181 -0.051391296 0.10826469
0.52378362 -0.051928267 0.10825615
0.52272326 -0.051707737 0.10851073
0.5216642 -0.051485483 0.10876539
0.52124733 -0.052020751 0.10875686
0.5201903 -0.051795967 0.10901152
0.51913458 -0.051569473 0.10926622
0.51871902 -0.05210305 0.10925773
0.51766533 -0.051874004 0.10951246
0.51661289 -0.051643234 0.10976724
0.51556182 -0.051410779 0.11002202
0.51514822 -0.051941793 0.11001357
0.51409918 -0.051706806 0.1102684
0.51305139 -0.051470097 0.11052325
0.51263916 -0.051999409 0.11051483
0.5115934 -0.051760163 0.11076971
0.51054889 -0.051519174 0.11102466
0.51013798 -0.052046783 0.11101626
0.50909555 -0.051803276 0.11127122
0.50868529 -0.052330039 0.11126284
0.50764483 -0.05208398 0.11151784
0.50660568 -0.051836219 0.11177287
0.50619674 -0.05236128 0.11176451
0.50515962 -0.052110959 0.11201959
0.50412375 -0.051858909 0.1122747
0.50371611 -0.052382275 0.11226637
0.50268227 -0.052127704 0.11252151
0.50227535 -0.052650213 0.11251319
0.50124347 -0.052393086 0.11276837
0.50083721 -0.052914739 0.11276006
0.50043088 -0.053436391 0.11275176
0.49940172 -0.053175874 0.11300699
0.49899608 -0.05369667 0.1129987
0.49796885 -0.053433552 0.113254
0.49756387 -0.053953514 0.11324572
0.49715889 -0.054473463 0.11323744
0.49675393 -0.054993413 0.11322916
0.49573004 -0.054726079 0.11348451
0.49470749 -0.054457042 0.11373988
0.49430382 -0.054975301 0.11373163
0.49390018 -0.055493545 0.11372338
0.49288028 -0.055221099 0.1139788
0.4924773 -0.055738501 0.11397056
0.49145937 -0.055463508 0.11422603
0.49105707 -0.055980064 0.11421781
0.49065474 -0.056496616 0.11420958
0.49025244 -0.057013158 0.11420137
0.4898501 -0.057529714 0.11419314
0.48883611 -0.057249572 0.1144487
0.48843446 -0.057765268 0.11444049
0.48803279 -0.058280978 0.11443228
0.48702151 -0.057997469 0.11468789
0.48662052 -0.058512319 0.11467969
0.48621953 -0.059027169 0.1146715
0.48521087 -0.058740251 0.11492714
0.48481053 -0.059254255 0.11491896
0.4838039 -0.058964789 0.11517466
0.48279858 -0.058673631 0.11543038
0.48239955 -0.059185918 0.11542223
0.48139617 -0.058892179 0.115678
0.48039418 -0.058596756 0.1159338
0.4799965 -0.059107352 0.11592567
0.47899646 -0.058809381 0.11618149
0.47859946 -0.05931912 0.11617338
0.47820243 -0.059828859 0.11616527
0.47780541 -0.060338598 0.11615715
0.47740841 -0.06084834 0.11614904
0.47701138 -0.061358079 0.11614092
0.47661436 -0.061867818 0.11613281
0.47621733 -0.062377572 0.1161247
0.47582033 -0.062887311 0.11611658
0.47542331 -0.06339705 0.11610847
0.47502628 -0.063906789 0.11610036
0.47462928 -0.064416528 0.11609224
0.47423226 -0.064926267 0.11608413
0.47383523 -0.065436013 0.11607601
0.47343823 -0.065945752 0.11606789
0.47304121 -0.066455498 0.11605978
0.47264418 -0.066965237 0.11605167
0.47224715 -0.067474984 0.11604355
0.47185016 -0.067984723 0.11603544
0.47145313 -0.068494461 0.11602733
0.4710561 -0.0690042 0.11601921
0.47065911 -0.069513939 0.1160111
0.46967432 -0.069196396 0.11626723
0.46927795 -0.069705285 0.11625913
0.52990943 -0.046815652 0.1071981
0.52884012 -0.046607293 0.10745353
0.52907032 -0.047893003 0.10718095
0.52800232 -0.047682941 0.1074364
0.52758348 -0.048220765 0.10742784
0.52716458 -0.048758589 0.10741927
0.52674568 -0.049296413 0.10741071
0.52632678 -0.04983424 0.10740215
0.52590787 -0.05037206 0.10739359
0.52548897 -0.050909888 0.10738503
0.52507013 -0.051447708 0.10737647
0.5240081 -0.05122998 0.10763203
0.52358985 -0.051766954 0.10762347
0.52252984 -0.051546682 0.10787907
0.52211225 -0.052082807 0.10787054
0.52105415 -0.051859949 0.1081262
0.51999748 -0.051635426 0.10838187
0.5195812 -0.052169837 0.10837336
0.51852649 -0.051942762 0.10862907
0.5174731 -0.05171397 0.1088848
0.51642096 -0.051483452 0.10914059
0.51600671 -0.052015316 0.10913212
0.51495665 -0.051782273 0.10938792
0.51390785 -0.051547538 0.10964375
0.51286042 -0.051311087 0.10989961
0.51244819 -0.051840398 0.10989118
0.51140273 -0.05160141 0.11014707
0.5109911 -0.052129865 0.11013866
0.5099476 -0.051888283 0.11039463
0.50890547 -0.051645029 0.11065058
0.50849521 -0.052171793 0.1106422
0.50745505 -0.051925994 0.11089821
0.50704545 -0.052451897 0.11088984
0.50600731 -0.052203543 0.11114588
0.50559837 -0.052728605 0.11113752
0.5045622 -0.052477695 0.11139362
0.50352728 -0.052225053 0.11164974
0.50311965 -0.052748412 0.11164141
0.50208682 -0.052493248 0.11189757
0.50167984 -0.053015746 0.11188926
0.50064898 -0.052758031 0.11214545
0.50024271 -0.053279683 0.11213714
0.49983639 -0.053801335 0.11212884
0.49880818 -0.053540215 0.11238509
0.49840254 -0.054061022 0.11237679
0.49737626 -0.053797316 0.11263311
0.49697128 -0.054317266 0.11262483
0.49656633 -0.054837212 0.11261655
0.49554273 -0.054570135 0.1128729
0.49513844 -0.055089239 0.11286464
0.49411684 -0.054819614 0.11312102
0.4937132 -0.055337857 0.11311277
0.4926936 -0.055065669 0.1133692
0.49229062 -0.055583071 0.11336096
0.49188763 -0.05610048 0.11335272
0.49087068 -0.055824887 0.1136092
0.49046835 -0.056341439 0.11360098
0.49006605 -0.056857981 0.11359276
0.48966372 -0.057374537 0.11358453
0.48865005 -0.057094652 0.1138411
0.48824838 -0.057610352 0.1138329
0.48784673 -0.058126058 0.11382469
0.48683575 -0.057842802 0.11408129
0.48643476 -0.058357652 0.11407309
0.48603377 -0.058872502 0.11406489
0.48502544 -0.058585841 0.11432155
0.4846251 -0.059099846 0.11431337
0.48361877 -0.058810636 0.11457007
0.48261374 -0.058519732 0.11482679
0.48221472 -0.059032023 0.11481863
0.48121166 -0.058738537 0.11507542
0.48020995 -0.058443367 0.11533221
0.47981226 -0.058953967 0.11532409
0.47941458 -0.059464552 0.11531596
0.4790169 -0.059975147 0.11530783
0.47861922 -0.060485736 0.1152997
0.47822154 -0.060996331 0.11529157
0.47782388 -0.06150692 0.11528344
0.47742617 -0.062017515 0.11527532
0.47702852 -0.062528104 0.11526719
0.47663084 -0.063038699 0.11525907
0.47623312 -0.063549295 0.11525094
0.47583547 -0.064059883 0.11524281
0.47543779 -0.064570479 0.11523468
0.47504011 -0.065081067 0.11522655
0.47464243 -0.065591663 0.11521842
0.47424474 -0.066102251 0.11521029
0.47384706 -0.066612847 0.11520217
0.47344938 -0.067123443 0.11519404
0.4730517 -0.067634031 0.11518592
0.47265401 -0.068144627 0.11517779
0.47225633 -0.068655215 0.11516966
0.47185865 -0.069165811 0.11516153
0.47146097 -0.069676392 0.1151534
0.47106329 -0.070186995 0.11514527
0.47007817 -0.069870546 0.11540241
0.46968114 -0.0703803 0.11539429
0.52971506 -0.04665383 0.10656343
0.52864605 -0.046445727 0.10681985
0.52822721 -0.046983551 0.10681129
0.52780831 -0.047521371 0.10680273
0.52738941 -0.048059195 0.10679417
0.52697051 -0.048597019 0.10678561
0.5265516 -0.049134843 0.10677705
0.5261327 -0.049672674 0.10676849
0.52571386 -0.050210491 0.10675993
0.52529496 -0.050748322 0.10675137
0.52487606 -0.051286139 0.10674281
0.52445716 -0.05182397 0.10673424
0.52339613 -0.051605642 0.10699081
0.52297789 -0.052142613 0.10698226
0.52191883 -0.051921748 0.10723887
0.52086103 -0.05169915 0.10749555
0.52044415 -0.052234419 0.10748702
0.51938838 -0.052009288 0.1077437
0.51833397 -0.051782474 0.10800042
0.51728088 -0.051553935 0.10825714
0.51686597 -0.052086655 0.10824867
0.51581484 -0.051855538 0.10850547
0.51476502 -0.051622748 0.10876227
0.51371658 -0.051388271 0.10901911
0.51330364 -0.051918428 0.10901067
0.51225722 -0.051681388 0.10926754
0.51121205 -0.051442657 0.10952444
0.51080048 -0.051971111 0.10951602
0.50975728 -0.051729783 0.10977299
0.50934631 -0.052257404 0.10976458
0.50830513 -0.05201355 0.11002157
0.50789487 -0.052540313 0.11001318
0.50685573 -0.052293908 0.1102702
0.50644606 -0.052819826 0.11026184
0.50540888 -0.052570872 0.1105189
0.50499994 -0.053095933 0.11051054
0.50396472 -0.052844431 0.11076764
0.50293082 -0.05259119 0.11102479
0.50252318 -0.053114545 0.11101646
0.50149131 -0.052858777 0.11127362
0.50108439 -0.053381287 0.11126531
0.50005448 -0.053122971 0.11152253
0.49964818 -0.053644624 0.11151422
0.49924186 -0.054166287 0.11150591
0.49821463 -0.053904567 0.11176318
0.49780899 -0.054425374 0.11175489
0.4967837 -0.054161064 0.11201222
0.49637872 -0.054681014 0.11200394
0.49597374 -0.055200975 0.11199567
0.49495113 -0.054933295 0.11225303
0.49392986 -0.054663926 0.11251041
0.49352622 -0.05518217 0.11250217
0.49312258 -0.055700429 0.11249392
0.49271894 -0.056218673 0.11248566
0.49170095 -0.055945046 0.11274312
0.49129796 -0.056462448 0.11273488
0.490282 -0.056186263 0.11299238
0.48987967 -0.056702804 0.11298415
0.48947734 -0.05721936 0.11297593
0.48846397 -0.056939732 0.1132335
0.48806232 -0.057455428 0.1132253
0.48766065 -0.057971135 0.11321709
0.487259 -0.058486834 0.11320888
0.486249 -0.058202989 0.11346649
0.48584801 -0.058717839 0.1134583
0.48483998 -0.058431432 0.11371595
0.48443964 -0.058945436 0.11370777
0.4834336 -0.05865648 0.11396547
0.48242891 -0.058365833 0.1142232
0.48202989 -0.058878124 0.11421505
0.48102713 -0.058584891 0.11447283
0.48062879 -0.059096336 0.11446469
0.48023042 -0.059607778 0.11445655
0.47923037 -0.059311163 0.11471437
0.47883269 -0.059821762 0.11470624
0.47843501 -0.060332347 0.11469811
0.47803733 -0.060842942 0.11468998
0.47763965 -0.061353531 0.11468185
0.47724196 -0.061864126 0.11467373
0.47684428 -0.062374711 0.1146656
0.4764466 -0.062885307 0.11465748
0.47604892 -0.06339591 0.11464935
0.47565123 -0.063906491 0.11464122
0.47525355 -0.064417094 0.11463309
0.47485587 -0.064927675 0.11462496
0.47445819 -0.065438271 0.11461683
0.47406051 -0.065948859 0.11460871
0.47366282 -0.066459455 0.11460058
0.47326514 -0.066970058 0.11459245
0.47286746 -0.067480639 0.11458433
0.47246978 -0.067991234 0.1145762
0.47207209 -0.068501823 0.11456807
0.47167441 -0.069012418 0.11455994
0.47127676 -0.069523007 0.11455181
0.47087908 -0.070033602 0.11454368
0.4704814 -0.070544191 0.11453556
0.47008371 -0.071054786 0.11452743
0.46968603 -0.071565382 0.11451931
0.46870318 -0.071246646 0.11477748
0.46772167 -0.070926204 0.11503568
0.46732533 -0.071435101 0.11502758
0.46576259 -0.070280194 0.11555217
0.46420252 -0.069121927 0.11607681
0.52887094 -0.045746334 0.10619475
0.52845204 -0.046284158 0.10618619
0.52803314 -0.046821982 0.10617763
0.52761424 -0.047359806 0.10616907
0.52719533 -0.047897629 0.10616051
0.52677649 -0.048435453 0.10615194
0.52635759 -0.048973277 0.10614338
0.52593869 -0.049511109 0.10613482
0.52551979 -0.050048925 0.10612626
0.52510089 -0.050586756 0.1061177
0.52468204 -0.051124573 0.10610913
0.52426314 -0.0516624 0.10610057
0.52320236 -0.051444329 0.10635815
0.52278417 -0.051981304 0.1063496
0.52172542 -0.051760692 0.10660721
0.52066791 -0.051538348 0.10686488
0.52025104 -0.052073617 0.10685636
0.51919556 -0.051848747 0.10711405
0.51814145 -0.051622182 0.10737176
0.51708865 -0.0513939 0.10762949
0.51667374 -0.05192662 0.10762101
0.51562291 -0.05169576 0.10787883
0.51457345 -0.051463228 0.10813662
0.51415986 -0.051994242 0.10812818
0.51311237 -0.051759161 0.10838602
0.51206625 -0.051522378 0.1086439
0.51165396 -0.052051701 0.10863547
0.51060981 -0.051812354 0.10889339
0.5095669 -0.051571283 0.10915135
0.50915593 -0.052098904 0.10914295
0.50811511 -0.051855307 0.10940094
0.50770479 -0.052382071 0.10939255
0.50729454 -0.05290883 0.10938416
0.50625634 -0.05266184 0.10964221
0.50584674 -0.053187743 0.10963383
0.50481051 -0.052938201 0.10989191
0.5037756 -0.052686952 0.11015001
0.5033673 -0.053211167 0.11014167
0.50233436 -0.052957326 0.11039983
0.50192678 -0.053480681 0.11039151
0.50089586 -0.053224321 0.11064969
0.50048888 -0.053746831 0.11064137
0.49945995 -0.053487916 0.1108996
0.49905366 -0.054009579 0.1108913
0.49802673 -0.053748112 0.11114956
0.49762109 -0.054268919 0.11114127
0.49721545 -0.054789726 0.11113299
0.49619111 -0.054524817 0.11139133
0.49578613 -0.055044778 0.11138305
0.49476385 -0.054777354 0.11164141
0.49435955 -0.055296458 0.11163315
0.49333924 -0.055026483 0.11189155
0.49293557 -0.055544738 0.11188331
0.49253193 -0.056062985 0.11187505
0.49151427 -0.055789616 0.11213351
0.49111128 -0.056307018 0.11212528
0.49009562 -0.056031086 0.11238377
0.48969331 -0.056547627 0.11237555
0.48929098 -0.057064179 0.11236732
0.48888865 -0.057580724 0.1123591
0.48787627 -0.057300508 0.11261769
0.48747459 -0.057816215 0.11260948
0.48707294 -0.058331911 0.11260127
0.48606324 -0.058048323 0.1128599
0.48566222 -0.058563173 0.1128517
0.48465452 -0.058277022 0.11311036
0.48425418 -0.058791026 0.11310218
0.48324847 -0.058502328 0.11336088
0.48284879 -0.059015475 0.11335272
0.48184505 -0.058724225 0.11361145
0.48084259 -0.058431249 0.11387024
0.48044425 -0.058942694 0.1138621
0.48004591 -0.059454136 0.11385396
0.47904614 -0.059157778 0.11411279
0.47864845 -0.059668373 0.11410466
0.47825077 -0.060178962 0.11409653
0.47785309 -0.060689557 0.1140884
0.47745541 -0.061200142 0.11408027
0.47705773 -0.061710741 0.11407214
0.47666007 -0.062221326 0.11406402
0.47626236 -0.062731922 0.11405589
0.47586468 -0.063242525 0.11404777
0.47546703 -0.063753106 0.11403964
0.47506934 -0.064263701 0.11403151
0.47467166 -0.06477429 0.11402338
0.47427398 -0.065284885 0.11401525
0.4738763 -0.065795474 0.11400712
0.47347862 -0.066306069 0.11399899
0.47308093 -0.066816665 0.11399087
0.47268325 -0.067327254 0.11398274
0.47228557 -0.067837849 0.11397462
0.47188789 -0.068348438 0.11396649
0.4714902 -0.068859033 0.11395836
0.47109252 -0.069369622 0.11395023
0.47069484 -0.069880217 0.1139421
0.47029716 -0.070390806 0.11393397
0.46989948 -0.070901401 0.11392584
0.46950179 -0.071411997 0.11391772
0.46910411 -0.071922585 0.11390959
0.46812224 -0.071603261 0.11416879
0.46714172 -0.071282223 0.11442799
0.46616244 -0.070959456 0.11468726
0.52867687 -0.045584764 0.10556107
0.52825797 -0.046122588 0.10555251
0.52783906 -0.046660412 0.10554395
0.52742022 -0.047198236 0.10553539
0.52700132 -0.04773606 0.10552683
0.52658242 -0.048273884 0.10551827
0.52616352 -0.048811708 0.10550971
0.52574462 -0.049349539 0.10550115
0.52532578 -0.049887355 0.10549258
0.52490687 -0.050425187 0.10548402
0.52448797 -0.050963003 0.10547546
0.52406907 -0.051500835 0.1054669
0.52365017 -0.052038651 0.10545834
0.5225904 -0.051819991 0.10571694
0.52217215 -0.052356973 0.10570838
0.52111441 -0.052135751 0.10596702
0.52005792 -0.051912818 0.1062257
0.51900274 -0.051688202 0.10648438
0.51794893 -0.051461894 0.1067431
0.51753336 -0.051995456 0.10673461
0.51648158 -0.051766589 0.10699336
0.51543105 -0.051535983 0.10725217
0.51501679 -0.052067854 0.1072437
0.51396829 -0.051834721 0.10750253
0.51292109 -0.051599897 0.10776138
0.51187521 -0.051363364 0.10802025
0.51146299 -0.05189269 0.10801183
0.51041913 -0.051653601 0.10827074
0.5100075 -0.052182067 0.10826233
0.50896561 -0.051940404 0.10852132
0.50855464 -0.052468013 0.10851292
0.50814372 -0.052995622 0.10850452
0.50710452 -0.052750587 0.10876353
0.5066942 -0.053277351 0.10875515
0.50565696 -0.053029753 0.1090142
0.50462109 -0.052780464 0.10927328
0.50421214 -0.053305525 0.10926492
0.50317818 -0.053053688 0.10952404
0.50276989 -0.053577889 0.1095157
0.50173795 -0.053323459 0.10977488
0.50070733 -0.053067356 0.11003406
0.50030035 -0.053589866 0.11002575
0.49927175 -0.053331204 0.11028498
0.49886543 -0.053852867 0.11027668
0.49845913 -0.05437452 0.11026838
0.49743319 -0.054112464 0.11052766
0.49702755 -0.054633271 0.11051937
0.49662191 -0.055154078 0.11051108
0.49559855 -0.05488858 0.11077044
0.49519357 -0.055408526 0.11076216
0.49417225 -0.055140514 0.11102154
0.49376795 -0.055659615 0.11101328
0.49274859 -0.055389054 0.1112727
0.49234495 -0.055907298 0.11126444
0.4919413 -0.056425557 0.1112562
0.4909246 -0.056151584 0.11151566
0.48990923 -0.055875909 0.11177517
0.48950693 -0.056392454 0.11176695
0.4891046 -0.056909006 0.11175872
0.4887023 -0.057425547 0.11175051
0.48769021 -0.057145588 0.1120101
0.48728853 -0.057661295 0.11200189
0.48688689 -0.058176991 0.11199368
0.48587748 -0.057893656 0.11225329
0.48547646 -0.058408506 0.1122451
0.4850755 -0.058923345 0.1122369
0.48406875 -0.058636617 0.11249658
0.48366842 -0.05915061 0.1124884
0.48266366 -0.058861319 0.11274812
0.48166022 -0.058570325 0.11300786
0.48126119 -0.059082627 0.11299971
0.48025972 -0.058789052 0.11325952
0.47986138 -0.059300493 0.11325137
0.47946304 -0.059811939 0.11324323
0.47906467 -0.06032338 0.11323509
0.47866634 -0.060834825 0.11322695
0.478268 -0.061346266 0.11321881
0.47786966 -0.061857712 0.11321067
0.47747132 -0.062369153 0.11320253
0.47707295 -0.062880598 0.11319438
0.47667462 -0.063392043 0.11318625
0.47627628 -0.063903481 0.1131781
0.47528279 -0.063599721 0.11343805
0.47488511 -0.064110316 0.11342993
0.47448742 -0.064620905 0.1134218
0.47408974 -0.0651315 0.11341367
0.47369206 -0.065642089 0.11340554
0.47329438 -0.066152684 0.11339741
0.4728967 -0.06666328 0.11338928
0.47249901 -0.067173868 0.11338116
0.47210133 -0.067684464 0.11337303
0.47170368 -0.068195052 0.11336491
0.47130597 -0.068705648 0.11335678
0.47090831 -0.069216236 0.11334865
0.47051063 -0.069726832 0.11334052
0.47011295 -0.07023742 0.11333239
0.46971527 -0.070748016 0.11332426
0.46931759 -0.071258612 0.11331613
0.4689199 -0.0717692 0.11330801
0.46793833 -0.071450129 0.1135682
0.46695811 -0.071129352 0.11382842
0.5289017 -0.044885375 0.10493597
0.52848279 -0.045423198 0.10492741
0.52806395 -0.045961022 0.10491884
0.52764505 -0.046498846 0.10491028
0.52722615 -0.04703667 0.10490172
0.52680725 -0.047574494 0.10489316
0.52638835 -0.048112318 0.1048846
0.52596951 -0.048650142 0.10487604
0.5255506 -0.049187969 0.10486748
0.5251317 -0.04972579 0.10485892
0.5247128 -0.050263617 0.10485035
0.5242939 -0.050801437 0.10484179
0.523875 -0.051339265 0.10483323
0.52345616 -0.051877085 0.10482467
0.52239668 -0.051658679 0.10508426
0.52197844 -0.052195661 0.10507572
0.52092099 -0.051974695 0.10533535
0.51986474 -0.05175202 0.10559504
0.51880991 -0.051527657 0.10585473
0.5183937 -0.052062079 0.10584623
0.51734084 -0.051835168 0.10610595
0.51628935 -0.051606555 0.10636571
0.51587445 -0.052139275 0.10635723
0.51482487 -0.051908076 0.10661705
0.51377666 -0.051675197 0.10687688
0.51272982 -0.05144063 0.10713673
0.51231688 -0.051970799 0.10712829
0.51127201 -0.05173368 0.10738818
0.51085973 -0.052262992 0.10737976
0.50981683 -0.05202331 0.10763969
0.50877523 -0.051781904 0.10789967
0.50836426 -0.052309513 0.10789128
0.50795335 -0.052837122 0.10788288
0.50691444 -0.052592345 0.1081429
0.50650418 -0.053119104 0.10813451
0.50546724 -0.052871767 0.10839457
0.50505763 -0.053397685 0.1083862
0.50402266 -0.053147793 0.10864629
0.50361371 -0.053672854 0.10863794
0.50258076 -0.053420413 0.10889807
0.50154912 -0.053166237 0.10915826
0.50114149 -0.053689592 0.10914993
0.50011182 -0.0534329 0.10941014
0.49970487 -0.053955398 0.10940181
0.49867722 -0.053696159 0.10966206
0.49827093 -0.054217812 0.10965376
0.49786463 -0.054739464 0.10964545
0.49683964 -0.054476816 0.10990576
0.496434 -0.054997623 0.10989746
0.49602836 -0.055518419 0.10988917
0.49500597 -0.055252329 0.11014955
0.49460098 -0.05577229 0.11014127
0.49358064 -0.055503674 0.11040167
0.49317634 -0.056022774 0.1103934
0.49215797 -0.055751611 0.11065384
0.49175432 -0.056269869 0.11064559
0.49073792 -0.055996154 0.11090606
0.48972288 -0.055720732 0.11116657
0.48932055 -0.056237277 0.11115834
0.48891824 -0.056753829 0.11115012
0.48851591 -0.05727037 0.1111419
0.48750412 -0.056990668 0.11140249
0.48710248 -0.057506375 0.11139429
0.4867008 -0.058022071 0.11138608
0.48569173 -0.057738993 0.1116467
0.48529071 -0.058253843 0.11163851
0.48488975 -0.058768682 0.11163031
0.48388329 -0.058482207 0.11189099
0.48348296 -0.058996201 0.11188281
0.4824785 -0.058707166 0.11214353
0.48147538 -0.058416426 0.11240427
0.48107636 -0.058928728 0.11239611
0.48007518 -0.05863541 0.11265693
0.47967684 -0.059146851 0.11264879
0.4792785 -0.059658296 0.11264065
0.47888017 -0.060169738 0.11263251
0.4784818 -0.060681183 0.11262436
0.47808346 -0.061192624 0.11261623
0.47768512 -0.061704069 0.11260808
0.47728679 -0.062215511 0.11259994
0.47688845 -0.062726952 0.1125918
0.47649008 -0.063238397 0.11258366
0.47609174 -0.063749842 0.11257552
0.47509858 -0.063446335 0.11283647
0.4747009 -0.063956931 0.11282834
0.47430322 -0.06446752 0.11282022
0.47390553 -0.064978115 0.11281209
0.47350785 -0.065488704 0.11280396
0.47311017 -0.065999299 0.11279583
0.47271249 -0.066509895 0.1127877
0.4723148 -0.067020483 0.11277957
0.47191712 -0.067531079 0.11277145
0.47151944 -0.068041667 0.11276332
0.47112176 -0.068552263 0.11275519
0.47072408 -0.069062844 0.11274707
0.47032639 -0.069573447 0.11273894
0.46992871 -0.070084028 0.11273081
0.46953103 -0.070594631 0.11272268
0.46913335 -0.071105227 0.11271455
0.46873567 -0.071615808 0.11270643
0.46833798 -0.072126411 0.1126983
0.52870768 -0.044723809 0.1043023
0.52893764 -0.046006538 0.10402475
0.52851808 -0.046545211 0.10401618
0.52809852 -0.047083888 0.1040076
0.52767897 -0.047622561 0.10399903
0.52725947 -0.048161238 0.10399045
0.52683991 -0.048699908 0.10398187
0.52642035 -0.049238585 0.1039733
0.5260008 -0.049777258 0.10396473
0.52558124 -0.050315935 0.10395616
0.52516168 -0.050854608 0.10394758
0.52474213 -0.051393285 0.103939
0.52432257 -0.051931962 0.10393043
0.52326208 -0.051715516 0.10419101
0.52284318 -0.052253347 0.10418244
0.52178472 -0.052034352 0.10444305
0.52072752 -0.05181364 0.10470369
0.52030998 -0.052349769 0.10469516
0.51925474 -0.052126486 0.10495586
0.51820087 -0.051901534 0.10521657
0.51714838 -0.05167488 0.1054773
0.51609713 -0.05144652 0.10573806
0.51568222 -0.05197924 0.10572958
0.51463294 -0.051748298 0.1059904
0.51358509 -0.051515676 0.10625123
0.51317149 -0.05204669 0.10624278
0.51212561 -0.051811531 0.10650365
0.51108104 -0.05157467 0.10676454
0.51066875 -0.052103981 0.10675611
0.50962615 -0.051864557 0.10701706
0.50921458 -0.052393023 0.10700864
0.50817394 -0.052151013 0.10726964
0.50776297 -0.052678622 0.10726124
0.50672436 -0.052434102 0.10752226
0.5063141 -0.052960861 0.10751388
0.50527745 -0.052713778 0.10777494
0.50486785 -0.053239696 0.10776656
0.50383323 -0.05299006 0.10802766
0.50342429 -0.053515118 0.1080193
0.50239164 -0.053262938 0.10828044
0.50198334 -0.053787149 0.1082721
0.50095266 -0.053532369 0.1085333
0.50054502 -0.054055728 0.10852497
0.49951637 -0.053798433 0.1087862
0.49910939 -0.054320943 0.10877788
0.49808273 -0.0540611 0.10903914
0.49767643 -0.054582752 0.10903084
0.49727014 -0.055104405 0.10902253
0.49686381 -0.055626068 0.10901423
0.49584046 -0.055361964 0.10927556
0.49543482 -0.055882771 0.10926726
0.49441341 -0.055616088 0.10952866
0.49339336 -0.055347729 0.10979006
0.49298903 -0.055866834 0.10978179
0.49197099 -0.055595923 0.11004323
0.49156731 -0.056114178 0.11003498
0.49055123 -0.055840719 0.11029646
0.48953649 -0.055565558 0.11055797
0.48913419 -0.0560821 0.11054974
0.48873186 -0.056598652 0.11054152
0.48832956 -0.057115197 0.1105333
0.48731807 -0.056835745 0.11079489
0.48691639 -0.057351451 0.11078668
0.48651475 -0.057867151 0.11077847
0.48550597 -0.057584327 0.1110401
0.48510495 -0.058099177 0.1110319
0.48470399 -0.058614016 0.11102372
0.48369783 -0.058327798 0.11128539
0.4832975 -0.058841791 0.11127721
0.48229337 -0.058553014 0.11153894
0.48129055 -0.058262531 0.11180069
0.48089153 -0.058774833 0.11179253
0.48049253 -0.05928712 0.11178438
0.47949231 -0.058993209 0.1120462
0.47909397 -0.059504654 0.11203806
0.47869563 -0.060016096 0.11202992
0.47829729 -0.060527541 0.11202178
0.47789893 -0.061038982 0.11201364
0.47750059 -0.061550427 0.11200549
0.47710225 -0.062061869 0.11199736
0.47670391 -0.062573314 0.11198922
0.47630557 -0.063084759 0.11198107
0.47590721 -0.063596196 0.11197293
0.47491434 -0.063292943 0.11223488
0.47451666 -0.063803546 0.11222675
0.47411898 -0.064314127 0.11221863
0.4737213 -0.06482473 0.1122105
0.47332361 -0.065335311 0.11220237
0.47292593 -0.065845907 0.11219424
0.47252825 -0.06635651 0.11218611
0.47213057 -0.066867091 0.11217799
0.47173288 -0.067377694 0.11216986
0.4713352 -0.067888275 0.11216173
0.47093752 -0.068398871 0.1121536
0.47053987 -0.068909459 0.11214548
0.47014216 -0.069420055 0.11213735
0.4697445 -0.069930643 0.11212922
0.46934682 -0.070441239 0.11212109
0.46894914 -0.070951834 0.11211296
0.46855146 -0.071462423 0.11210484
0.52916288 -0.045306038 0.10339866
0.52874333 -0.045844715 0.10339008
0.52832377 -0.046383388 0.10338151
0.52790421 -0.046922065 0.10337293
0.52748466 -0.047460739 0.10336436
0.5270651 -0.047999416 0.10335578
0.52664554 -0.048538085 0.1033472
0.52622598 -0.049076762 0.10333863
0.52580643 -0.049615435 0.10333006
0.52538687 -0.050154112 0.10332149
0.52496731 -0.050692786 0.10331291
0.52454776 -0.051231463 0.10330433
0.5241282 -0.051770139 0.10329576
0.52370864 -0.052308813 0.10328718
0.52264917 -0.052091777 0.10354877
0.52159095 -0.051873039 0.10381038
0.5211727 -0.05241001 0.10380184
0.52011651 -0.052188709 0.10406349
0.51906163 -0.051965687 0.1043252
0.51800805 -0.051740989 0.10458691
0.51695585 -0.051514588 0.10484864
0.51654029 -0.052048154 0.10484014
0.51549 -0.051819205 0.10510192
0.51444107 -0.05158852 0.10536375
0.51339352 -0.051356155 0.10562558
0.51297992 -0.051887169 0.10561713
0.51193428 -0.051652268 0.105879
0.5115214 -0.052182436 0.10587057
0.51047778 -0.051944971 0.10613248
0.50943547 -0.0517058 0.10639441
0.5090239 -0.052234266 0.106386
0.50798357 -0.051992513 0.10664801
0.50757265 -0.052520122 0.10663961
0.50653434 -0.052275855 0.10690162
0.50612402 -0.052802619 0.10689324
0.50508773 -0.052555788 0.10715531
0.50467813 -0.053081706 0.10714693
0.50364381 -0.052832328 0.10740904
0.50323486 -0.053357389 0.10740068
0.50220251 -0.053105459 0.10766282
0.50179422 -0.053629674 0.10765447
0.50138593 -0.054153875 0.10764613
0.5003562 -0.053898506 0.10790835
0.49932784 -0.053641468 0.10817058
0.49892089 -0.054163978 0.10816225
0.49851391 -0.054686487 0.10815394
0.4974882 -0.054426044 0.10841621
0.49708191 -0.054947697 0.10840791
0.49667561 -0.05546936 0.10839961
0.49565256 -0.055205509 0.10866194
0.49524692 -0.055726316 0.10865365
0.4942258 -0.055459891 0.10891604
0.49320605 -0.055191785 0.10917845
0.49280176 -0.055710889 0.10917018
0.49178398 -0.055440236 0.10943262
0.49138033 -0.055958491 0.10942437
0.49036458 -0.055685289 0.10968685
0.48935014 -0.055410381 0.10994936
0.48894781 -0.055926923 0.10994114
0.48854548 -0.056443475 0.10993291
0.48814318 -0.05696002 0.10992469
0.48713201 -0.056680825 0.11018729
0.48673034 -0.057196535 0.11017909
0.48632869 -0.057712231 0.11017088
0.48532021 -0.057429664 0.1104335
0.48491919 -0.057944514 0.11042531
0.4845182 -0.058459353 0.11041711
0.48351237 -0.058173388 0.1106798
0.48311207 -0.058687381 0.11067162
0.48210821 -0.058398858 0.11093435
0.48170856 -0.058912005 0.11092617
0.48070669 -0.058620933 0.11118894
0.4803077 -0.05913322 0.11118078
0.47990867 -0.059645522 0.11117263
0.47950968 -0.060157813 0.11116447
0.4785111 -0.059862453 0.11142734
0.47811276 -0.060373899 0.11141919
0.47771442 -0.06088534 0.11141105
0.47731605 -0.061396785 0.11140291
0.47691771 -0.061908226 0.11139477
0.47651938 -0.062419672 0.11138663
0.47612104 -0.062931113 0.11137848
0.4757227 -0.063442558 0.11137035
0.47473013 -0.063139558 0.1116333
0.47433242 -0.063650161 0.11162517
0.47393477 -0.064160742 0.11161704
0.47353709 -0.064671338 0.11160892
0.47313941 -0.065181926 0.11160079
0.47274172 -0.065692522 0.11159266
0.47234404 -0.066203117 0.11158453
0.47194636 -0.066713706 0.1115764
0.47154868 -0.067224301 0.11156828
0.47115099 -0.06773489 0.11156015
0.47075331 -0.068245485 0.11155202
0.47035563 -0.068756074 0.11154389
0.46995795 -0.069266669 0.11153577
0.46956027 -0.069777258 0.11152764
0.46916258 -0.070287853 0.11151951
0.4687649 -0.070798449 0.11151138
0.46895084 -0.07213708 0.11123195
0.52896851 -0.045144215 0.10276399
0.52854896 -0.045682892 0.10275541
0.5281294 -0.046221565 0.10274684
0.52770984 -0.046760242 0.10273826
0.52729028 -0.047298916 0.10272969
0.52687073 -0.047837593 0.10272111
0.52645117 -0.048376262 0.10271253
0.52603161 -0.048914939 0.10270396
0.52561206 -0.049453612 0.10269538
0.5251925 -0.049992289 0.10268681
0.52477294 -0.050530963 0.10267824
0.52435338 -0.05106964 0.10266966
0.52393389 -0.051608317 0.10266109
0.52351433 -0.05214699 0.10265251
0.52309477 -0.052685667 0.10264394
0.52203619 -0.052468028 0.10290654
0.52097899 -0.052248698 0.10316917
0.51992309 -0.052027654 0.10343183
0.5195055 -0.052563783 0.1034233
0.51845157 -0.052340165 0.10368601
0.51739901 -0.052114867 0.10394874
0.51634777 -0.051887866 0.10421149
0.51529783 -0.051659174 0.10447428
0.51424915 -0.051428743 0.1047371
0.51320189 -0.051196631 0.10499993
0.5127883 -0.051727649 0.10499148
0.51174301 -0.051493 0.10525436
0.51133007 -0.052023169 0.10524592
0.51028681 -0.051785957 0.10550883
0.5092448 -0.051547043 0.10577177
0.50883323 -0.052075513 0.10576336
0.50779319 -0.051834013 0.10602637
0.50738227 -0.052361622 0.10601797
0.50634426 -0.052117612 0.106281
0.505934 -0.052644376 0.10627261
0.50489795 -0.052397799 0.10653567
0.50448835 -0.052923717 0.1065273
0.50407875 -0.053449634 0.10651893
0.50304538 -0.053199653 0.10678204
0.50201339 -0.052947983 0.10704519
0.50160509 -0.053472195 0.10703684
0.5011968 -0.053996395 0.1070285
0.50016737 -0.053741284 0.10729173
0.49975973 -0.054264642 0.1072834
0.49873236 -0.054007012 0.10754663
0.49832538 -0.054529522 0.10753832
0.4973 -0.054269332 0.10780159
0.4968937 -0.054790985 0.10779329
0.49648738 -0.055312648 0.10778499
0.49546465 -0.055049051 0.10804832
0.49505901 -0.055569857 0.10804003
0.49403819 -0.055303693 0.10830344
0.49301875 -0.055035841 0.10856684
0.49261445 -0.055554945 0.10855857
0.491597 -0.055284545 0.10882201
0.49119335 -0.055802803 0.10881376
0.4901779 -0.055529855 0.10907724
0.48916376 -0.055255204 0.10934076
0.48876143 -0.055771746 0.10933254
0.48835912 -0.056288302 0.10932431
0.48795679 -0.056804843 0.1093161
0.48694593 -0.056525905 0.10957969
0.48654428 -0.057041612 0.10957149
0.48614261 -0.057557307 0.10956328
0.48513445 -0.057274997 0.10982691
0.48473343 -0.057789847 0.10981871
0.48433244 -0.058304686 0.10981052
0.48332694 -0.058018982 0.11007421
0.48292661 -0.058532972 0.11006603
0.48192307 -0.058244705 0.11032975
0.48152339 -0.058757853 0.11032158
0.48052186 -0.058467034 0.11058535
0.48012286 -0.058979325 0.1105772
0.47972384 -0.059491623 0.11056904
0.47932485 -0.060003914 0.11056089
0.47892582 -0.060516205 0.11055273
0.47852683 -0.061028503 0.11054458
0.47812781 -0.061540794 0.11053642
0.47772881 -0.062053096 0.11052827
0.47732982 -0.062565386 0.11052011
0.4769308 -0.063077681 0.11051196
0.4765318 -0.063589975 0.1105038
0.47553816 -0.063288912 0.11076775
0.4751398 -0.063800357 0.11075961
0.47474146 -0.064311802 0.11075147
0.47375053 -0.064007357 0.11101546
0.47335285 -0.064517953 0.11100733
0.47295517 -0.065028541 0.1109992
0.47255749 -0.065539137 0.11099108
0.4721598 -0.066049732 0.11098295
0.47176212 -0.066560321 0.11097482
0.47136444 -0.067070916 0.1109667
0.47096676 -0.067581505 0.11095857
0.47056907 -0.0680921 0.11095044
0.47017142 -0.068602689 0.11094231
0.46977374 -0.069113284 0.11093418
0.46937606 -0.069623873 0.11092605
0.46897838 -0.070134468 0.11091793
0.46858069 -0.070645064 0.1109098
0.52984297 -0.045186158 0.10186592
0.52942276 -0.045725685 0.10185733
0.52900255 -0.046265215 0.10184875
0.52858233 -0.046804734 0.10184016
0.52816212 -0.04734426 0.10183157
0.52774191 -0.04788379 0.10182299
0.5273217 -0.048423316 0.1018144
0.52690148 -0.048962839 0.10180581
0.52648127 -0.049502369 0.10179722
0.52606106 -0.050041892 0.10178863
0.52564085 -0.050581414 0.10178004
0.52522063 -0.051120948 0.10177145
0.52415907 -0.050907817 0.10203499
0.52373952 -0.051446494 0.10202642
0.52331996 -0.051985167 0.10201784
0.5229004 -0.052523844 0.10200927
0.52184218 -0.052306462 0.10227288
0.52078527 -0.052087385 0.10253651
0.52036703 -0.05262436 0.10252795
0.51931208 -0.052402724 0.10279163
0.51825845 -0.052179366 0.10305536
0.51720619 -0.051954322 0.10331909
0.51615524 -0.051727578 0.10358284
0.51510561 -0.05149914 0.10384662
0.5146907 -0.05203186 0.10383814
0.51364303 -0.051800828 0.10410199
0.51259673 -0.051568124 0.10436583
0.51155174 -0.051333729 0.10462971
0.5111388 -0.051863901 0.10462127
0.51009583 -0.051626947 0.10488519
0.50905418 -0.05138829 0.10514913
0.50864255 -0.051916756 0.10514072
0.50760281 -0.051675513 0.10540473
0.5071919 -0.052203123 0.10539633
0.50615418 -0.051959366 0.10566036
0.50574392 -0.052486129 0.10565197
0.50470823 -0.052239813 0.10591605
0.50429863 -0.052765731 0.10590767
0.50388902 -0.053291649 0.1058993
0.50285596 -0.05304192 0.10616341
0.5018242 -0.052790504 0.10642756
0.50141591 -0.053314716 0.10641921
0.50100768 -0.05383892 0.10641087
0.49997854 -0.053584062 0.1066751
0.49957091 -0.05410742 0.10666677
0.49854383 -0.053850047 0.10693101
0.49813688 -0.054372557 0.10692269
0.49711177 -0.054112621 0.10718698
0.49670547 -0.054634273 0.10717867
0.49629918 -0.05515594 0.10717037
0.49527675 -0.0548926 0.1074347
0.49487111 -0.055413403 0.10742641
0.49385059 -0.055147495 0.10769082
0.49283147 -0.0548799 0.10795522
0.49242717 -0.055399004 0.10794696
0.49141002 -0.055128861 0.10821141
0.49100637 -0.055647116 0.10820316
0.48999122 -0.055374425 0.10846765
0.48897737 -0.055100027 0.10873216
0.48857507 -0.055616569 0.10872393
0.48817274 -0.056133125 0.10871571
0.48777044 -0.056649666 0.10870749
0.48675987 -0.056370985 0.10897209
0.4863582 -0.056886692 0.10896388
0.48595655 -0.057402387 0.10895567
0.48494869 -0.057120331 0.1092203
0.48454767 -0.057635181 0.10921211
0.48414668 -0.058150019 0.10920392
0.48374569 -0.05866487 0.10919572
0.48274115 -0.058378562 0.10946043
0.48234081 -0.058892556 0.10945225
0.48133826 -0.058603697 0.10971699
0.48093858 -0.059116844 0.10970882
0.47993803 -0.058825426 0.10997361
0.47953901 -0.059337728 0.10996545
0.47914001 -0.059850015 0.10995729
0.47874099 -0.060362305 0.10994914
0.478342 -0.060874607 0.10994098
0.47794297 -0.061386894 0.10993283
0.47754398 -0.061899196 0.10992467
0.47714496 -0.062411487 0.10991652
0.47674596 -0.062923789 0.10990836
0.47634697 -0.063436076 0.10990021
0.47535363 -0.063135274 0.11016516
0.47495529 -0.063646711 0.11015703
0.47455692 -0.064158157 0.11014888
0.47356632 -0.063853972 0.11041388
0.47316864 -0.064364567 0.11040575
0.47277096 -0.064875156 0.11039762
0.47237328 -0.065385751 0.11038949
0.47197559 -0.065896347 0.11038136
0.47157791 -0.066406935 0.11037324
0.47118023 -0.066917531 0.11036512
0.47078255 -0.067428119 0.11035699
0.47038487 -0.067938715 0.11034886
0.46998718 -0.068449304 0.11034073
0.4695895 -0.068959899 0.1103326
0.46919182 -0.06947048 0.11032447
0.46879414 -0.069981083 0.11031634
0.46839646 -0.070491679 0.11030822
0.53029734 -0.04576629 0.10095726
0.52987647 -0.04630667 0.10094865
0.5294556 -0.046847049 0.10094005
0.52903473 -0.047387421 0.10093145
0.52861381 -0.047927801 0.10092285
0.52819294 -0.04846818 0.10091425
0.52777207 -0.049008556 0.10090564
0.5273512 -0.049548931 0.10089704
0.52693033 -0.050089311 0.10088844
0.5265094 -0.05062969 0.10087984
0.52608854 -0.051170059 0.10087124
0.52502596 -0.050958868 0.10113578
0.52460575 -0.051498391 0.10112719
0.52418554 -0.05203791 0.1011186
0.52376527 -0.052577443 0.10111001
0.52270603 -0.052362021 0.1013746
0.52164811 -0.052144893 0.1016392
0.52122921 -0.052682724 0.10163064
0.52017325 -0.052463047 0.1018953
0.51911867 -0.052241668 0.10215997
0.51806533 -0.052018564 0.1024247
0.51701337 -0.051793776 0.10268942
0.51659709 -0.052328199 0.10268091
0.51554716 -0.052100863 0.10294569
0.51449847 -0.051871825 0.10321049
0.5134511 -0.051641047 0.10347533
0.51240516 -0.051408604 0.10374019
0.51136047 -0.051174466 0.10400506
0.51094753 -0.051704634 0.10399663
0.50990486 -0.051467936 0.10426155
0.50886351 -0.051229537 0.1045265
0.50845188 -0.051758002 0.10451809
0.50741249 -0.051517017 0.1047831
0.50700152 -0.052044623 0.1047747
0.50596416 -0.051801123 0.10503972
0.5055539 -0.052327886 0.10503134
0.50451851 -0.052081823 0.10529641
0.50410885 -0.052607741 0.10528804
0.50369924 -0.053133659 0.10527966
0.50266653 -0.052884188 0.10554479
0.50225759 -0.053409249 0.10553643
0.50122678 -0.05315724 0.1058016
0.50081849 -0.053681444 0.10579325
0.50041026 -0.054205656 0.10578491
0.49938208 -0.053950198 0.10605015
0.49897447 -0.054473553 0.10604181
0.49794835 -0.054215591 0.10630707
0.4975414 -0.054738089 0.10629875
0.49651727 -0.054477565 0.10656405
0.49611095 -0.054999229 0.10655575
0.49508882 -0.054736145 0.10682109
0.49468321 -0.055256952 0.1068128
0.49366298 -0.054991294 0.1070782
0.49325803 -0.055511244 0.10706992
0.49223986 -0.05524306 0.10733535
0.49122304 -0.054973174 0.1076008
0.49081939 -0.055491429 0.10759255
0.48980454 -0.055218991 0.10785803
0.48879102 -0.054944851 0.10812355
0.48838869 -0.055461392 0.10811533
0.48798636 -0.055977948 0.1081071
0.48758405 -0.056494489 0.10809888
0.48657382 -0.056216065 0.10836449
0.48617214 -0.056731772 0.10835629
0.48577049 -0.057247467 0.10834808
0.48476294 -0.056965668 0.10861371
0.48436192 -0.057480518 0.10860552
0.48396093 -0.057995357 0.10859732
0.48355994 -0.058510207 0.10858913
0.48315895 -0.059025057 0.10858093
0.48215538 -0.058738146 0.10884665
0.48175502 -0.05925215 0.10883847
0.48075345 -0.058962692 0.10910423
0.48035377 -0.059475839 0.10909607
0.47935417 -0.059183829 0.10936186
0.47895515 -0.059696119 0.10935371
0.47855616 -0.060208406 0.10934556
0.47815716 -0.060720708 0.1093374
0.47775814 -0.061232999 0.10932925
0.47735915 -0.061745297 0.10932109
0.47696012 -0.062257588 0.10931294
0.47656113 -0.06276989 0.10930478
0.47616211 -0.063282177 0.10929662
0.47516909 -0.062981628 0.10956258
0.47477075 -0.063493073 0.10955444
0.47437242 -0.064004518 0.1095463
0.47338209 -0.063700579 0.10981229
0.4729844 -0.064211182 0.10980416
0.47258672 -0.064721763 0.10979603
0.47218904 -0.065232366 0.1097879
0.47179136 -0.065742962 0.10977978
0.47139367 -0.066253543 0.10977165
0.47099599 -0.066764146 0.10976353
0.47059831 -0.067274727 0.1097554
0.47020063 -0.06778533 0.10974727
0.46980298 -0.068295911 0.10973914
0.46940526 -0.068806507 0.10973101
0.46900761 -0.069317095 0.10972288
0.46860993 -0.069827691 0.10971475
0.53117257 -0.045804657 0.10005523
0.53010237 -0.045603961 0.10032059
0.5296815 -0.046144336 0.10031199
0.52926064 -0.046684716 0.10030338
0.52883977 -0.047225092 0.10029478
0.52841884 -0.047765467 0.10028618
0.52799797 -0.048305847 0.10027757
0.5275771 -0.048846222 0.10026897
0.52715623 -0.049386602 0.10026037
0.52673537 -0.049926978 0.10025177
0.52631444 -0.050467357 0.10024317
0.52589357 -0.051007725 0.10023457
0.5254727 -0.051548105 0.10022596
0.52505183 -0.052088484 0.10021736
0.52399087 -0.05187583 0.10048293
0.52357066 -0.052415363 0.10047434
0.52251166 -0.052200198 0.10073993
0.5220921 -0.052738871 0.10073135
0.52103519 -0.052521158 0.10099698
0.51997954 -0.052301735 0.10126263
0.51892525 -0.052080613 0.10152831
0.51787221 -0.051857762 0.10179403
0.51682055 -0.051633231 0.10205977
0.51640427 -0.052167654 0.10205127
0.51535463 -0.051940575 0.10231704
0.51430631 -0.05171179 0.10258283
0.51325923 -0.051481269 0.10284868
0.51221353 -0.051249079 0.10311454
0.5111692 -0.051015198 0.10338042
0.51075625 -0.051545367 0.10337198
0.50971389 -0.051308926 0.1036379
0.50867283 -0.05107078 0.10390385
0.5082612 -0.051599246 0.10389544
0.50722212 -0.051358514 0.10416146
0.50681114 -0.051886123 0.10415305
0.50577408 -0.05164288 0.10441909
0.50536382 -0.052169643 0.10441071
0.50432873 -0.051923838 0.10467678
0.50391912 -0.052449752 0.10466841
0.50350952 -0.05297567 0.10466003
0.50247705 -0.052726455 0.10492615
0.5020681 -0.053251516 0.1049178
0.50103766 -0.052999765 0.10518397
0.50062937 -0.053523965 0.10517562
0.50022107 -0.054048181 0.10516728
0.49981281 -0.054572381 0.10515893
0.49878564 -0.054316331 0.10542519
0.49837801 -0.054839689 0.10541686
0.49735287 -0.054581124 0.10568313
0.49694592 -0.055103634 0.10567482
0.49592274 -0.054842517 0.10594113
0.49551645 -0.055364169 0.10593283
0.49449527 -0.055100497 0.10619918
0.49347538 -0.054835096 0.10646559
0.49307042 -0.055355042 0.10645732
0.49205256 -0.055087116 0.10672374
0.49103606 -0.054817483 0.10699019
0.49063239 -0.055335741 0.10698194
0.48961785 -0.055063561 0.10724843
0.48860464 -0.054789677 0.10751496
0.48820233 -0.055306219 0.10750673
0.4878 -0.055822771 0.1074985
0.48739767 -0.056339312 0.10749029
0.48638773 -0.056061141 0.10775689
0.48598608 -0.056576852 0.10774869
0.48558441 -0.057092547 0.10774048
0.48518276 -0.057608243 0.10773227
0.48417616 -0.057325851 0.10799892
0.48377517 -0.05784069 0.10799073
0.48337418 -0.05835554 0.10798253
0.48297319 -0.05887039 0.10797434
0.4825722 -0.059385244 0.10796614
0.48156959 -0.059097741 0.10823287
0.48116925 -0.059611734 0.10822469
