# .PCD v0.7 - Point Cloud Data file format
VERSION 0.7
FIELDS x y z
SIZE 4 4 4
TYPE F F F
COUNT 1 1 1
WIDTH 1408
HEIGHT 1
VIEWPOINT 0 0 0 1 0 0 0
POINTS 1408
DATA ascii
0.48472264 -0.19711094 0.10456599
0.48373431 -0.19678625 0.10480412
0.4832803 -0.19736917 0.10479484
0.48282629 -0.19795209 0.10478556
0.48184055 -0.19762397 0.10502377
0.48085624 -0.19729416 0.10526199
0.48040354 -0.1978754 0.10525274
0.4794212 -0.19754303 0.10549098
0.47844017 -0.19720897 0.10572927
0.47693208 -0.1959579 0.10621514
0.47595435 -0.19561958 0.10645349
0.474978 -0.19527955 0.10669187
0.47400293 -0.19493784 0.10693027
0.47250348 -0.1936757 0.10741631
0.47153172 -0.19332972 0.10765478
0.4705613 -0.19298206 0.10789329
0.46959215 -0.19263265 0.10813183
0.46862438 -0.19228157 0.10837039
0.46765795 -0.19192879 0.10860897
0.46669284 -0.19157432 0.10884757
0.46572903 -0.19121812 0.10908621
0.46476653 -0.1908602 0.10932488
0.46380538 -0.1905006 0.10956358
0.46284556 -0.19013931 0.10980229
0.46240547 -0.19070438 0.1097933
0.46144766 -0.19034052 0.11003206
0.46049115 -0.18997498 0.11027084
0.45953593 -0.18960771 0.11050967
0.4590978 -0.19017021 0.11050072
0.45814461 -0.18980041 0.11073957
0.45770717 -0.19036207 0.11073063
0.45675597 -0.18998972 0.11096953
0.45631918 -0.19055052 0.1109606
0.4558824 -0.19111133 0.11095167
0.45493385 -0.19073556 0.11119061
0.45355111 -0.19091716 0.11142071
0.45260587 -0.19053715 0.11165973
0.45166197 -0.19015545 0.11189876
0.45122784 -0.19071282 0.11188989
0.45028594 -0.19032855 0.11212897
0.44985247 -0.1908851 0.11212011
0.4489125 -0.19049829 0.11235923
0.44797388 -0.19010974 0.11259841
0.44754171 -0.19066457 0.11258958
0.44660512 -0.19027349 0.11282876
0.44617364 -0.19082749 0.11281994
0.44574213 -0.19138148 0.11281113
0.44480819 -0.19098699 0.11305038
0.44437736 -0.19154015 0.11304157
0.44344538 -0.19114311 0.11328085
0.44301522 -0.19169539 0.11327206
0.44258505 -0.1922477 0.11326326
0.4416557 -0.19184722 0.11350262
0.44122618 -0.19239867 0.11349384
0.44029886 -0.19199567 0.11373323
0.43987003 -0.19254628 0.11372447
0.43944117 -0.19309686 0.1137157
0.4385165 -0.19269046 0.11395513
0.43808833 -0.1932402 0.11394639
0.43766016 -0.19378994 0.11393763
0.43723199 -0.19433966 0.11392888
0.43680382 -0.19488941 0.11392013
0.43588313 -0.1944779 0.11415964
0.43545562 -0.1950268 0.11415091
0.43502811 -0.1955757 0.11414217
0.43460059 -0.19612457 0.11413343
0.43417308 -0.19667347 0.1141247
0.43325636 -0.19625686 0.11436429
0.4328295 -0.1968049 0.11435556
0.43191472 -0.1963857 0.11459523
0.43148854 -0.19693288 0.11458652
0.43057579 -0.19651118 0.11482619
0.43015027 -0.19705752 0.1148175
0.42923948 -0.19663325 0.11505722
0.42929924 -0.19815017 0.1148001
0.49014005 -0.19289553 0.10347455
0.48968405 -0.19348101 0.10346523
0.48922804 -0.19406646 0.10345591
0.48877203 -0.19465195 0.10344659
0.48831603 -0.19523743 0.10343727
0.48732272 -0.19491981 0.10367629
0.48686737 -0.19550443 0.10366698
0.48641202 -0.19608906 0.10365768
0.48595667 -0.19667369 0.10364837
0.48496667 -0.1963518 0.10388747
0.484512 -0.19693556 0.10387818
0.48405731 -0.19751936 0.10386889
0.48306996 -0.19719405 0.10410803
0.48261595 -0.19777697 0.10409875
0.48163053 -0.1974491 0.10433797
0.48064652 -0.19711956 0.10457718
0.48019382 -0.19770078 0.10456793
0.47921178 -0.19736867 0.10480719
0.47823107 -0.19703487 0.10504647
0.47672361 -0.19578432 0.10553435
0.47574618 -0.19544625 0.10577369
0.47477013 -0.19510648 0.10601308
0.47379538 -0.19476502 0.10625248
0.47229654 -0.19350339 0.10674053
0.4713251 -0.19315767 0.10698
0.47035497 -0.19281027 0.10721951
0.46938613 -0.1924611 0.10745905
0.46841866 -0.1921103 0.10769862
0.46745253 -0.19175777 0.1079382
0.46648771 -0.19140355 0.10817781
0.46552423 -0.19104761 0.10841744
0.46456203 -0.19068995 0.10865713
0.4636012 -0.19033061 0.10889682
0.46264169 -0.18996957 0.10913654
0.4622016 -0.19053462 0.10912754
0.46124408 -0.19017103 0.1093673
0.4602879 -0.18980575 0.10960709
0.45933297 -0.18943873 0.10984693
0.45889485 -0.19000123 0.10983798
0.45794198 -0.18963169 0.11007783
0.45750451 -0.19019334 0.11006889
0.45655364 -0.18982124 0.11030878
0.45611683 -0.19038205 0.11029986
0.45568004 -0.19094285 0.11029093
0.45429569 -0.19112729 0.11052196
0.45334938 -0.19074921 0.11076197
0.45240447 -0.19036944 0.11100199
0.45146087 -0.18998799 0.11124203
0.45102674 -0.19054537 0.11123316
0.45008513 -0.19016136 0.11147325
0.44965166 -0.19071791 0.11146439
0.44871202 -0.19033135 0.11170451
0.4482792 -0.19088705 0.11169566
0.44734153 -0.19049791 0.11193585
0.4469094 -0.19105273 0.11192703
0.44597375 -0.19066107 0.11216722
0.44554225 -0.19121505 0.11215841
0.4446086 -0.19082083 0.11239865
0.44417778 -0.19137397 0.11238985
0.4432461 -0.1909772 0.11263014
0.44281596 -0.19152948 0.11262134
0.44238579 -0.19208178 0.11261255
0.44145674 -0.19168156 0.11285292
0.44102722 -0.192233 0.11284414
0.44059774 -0.19278444 0.11283536
0.43967137 -0.19238088 0.11307576
0.43924254 -0.19293146 0.11306699
0.43881369 -0.19348206 0.11305823
0.43788999 -0.19307506 0.11329868
0.43746182 -0.19362479 0.11328992
0.43703365 -0.19417451 0.11328118
0.43660548 -0.19472426 0.11327242
0.43568507 -0.194313 0.11351294
0.43525755 -0.1948619 0.11350421
0.43483004 -0.1954108 0.11349547
0.43440256 -0.19595967 0.11348673
0.43397504 -0.19650857 0.11347799
0.43305862 -0.19609223 0.11371858
0.43263176 -0.19664025 0.11370987
0.43171731 -0.19622132 0.11395054
0.43129113 -0.19676849 0.11394183
0.43037868 -0.19634706 0.1141825
0.42995313 -0.19689338 0.11417381
0.42904267 -0.19646938 0.11441453
0.42910209 -0.19798605 0.11415641
0.49092579 -0.19303191 0.10254478
0.49046913 -0.19361824 0.10253545
0.49001247 -0.19420455 0.10252611
0.48955578 -0.19479091 0.10251678
0.48909912 -0.19537723 0.10250744
0.48864245 -0.19596356 0.10249811
0.48764879 -0.19564703 0.10273813
0.48719278 -0.19623251 0.10272881
0.48673677 -0.19681798 0.10271949
0.48574573 -0.19649807 0.10295956
0.48529038 -0.1970827 0.10295025
0.48483506 -0.19766732 0.10294095
0.48437971 -0.19825195 0.10293164
0.483392 -0.19792774 0.10317178
0.48240563 -0.19760185 0.10341194
0.48142052 -0.19727424 0.10365216
0.4804368 -0.19694495 0.10389239
0.4799841 -0.19752619 0.10388313
0.47900239 -0.19719432 0.10412339
0.47802198 -0.19686078 0.10436368
0.47651511 -0.19561073 0.10485356
0.47553802 -0.19527292 0.1050939
0.47456226 -0.19493341 0.10533429
0.47358781 -0.19459221 0.1055747
0.47208959 -0.19333109 0.10606475
0.47111845 -0.19298562 0.10630523
0.47014862 -0.19263847 0.10654574
0.46918011 -0.19228958 0.10678629
0.46821296 -0.19193901 0.10702685
0.46724713 -0.19158673 0.10726743
0.46628261 -0.19123277 0.10750805
0.46531945 -0.19087709 0.10774869
0.46435755 -0.19051969 0.10798937
0.46339703 -0.1901606 0.10823007
0.46243784 -0.18979982 0.10847078
0.46199772 -0.19036488 0.10846179
0.46104053 -0.19000153 0.10870256
0.46008462 -0.1896365 0.10894334
0.45964584 -0.19019988 0.10893437
0.4586919 -0.18983226 0.10917523
0.45773932 -0.18946296 0.10941608
0.45730188 -0.19002461 0.10940714
0.4559145 -0.19021358 0.10963912
0.45547771 -0.1907744 0.10963019
0.45409366 -0.19095908 0.10986222
0.45314768 -0.19058125 0.11010323
0.45220307 -0.19020174 0.11034426
0.45125976 -0.18982054 0.1105853
0.45082563 -0.19037792 0.11057643
0.44988433 -0.18999417 0.11081752
0.44945085 -0.19055071 0.11080866
0.44851151 -0.19016442 0.11104978
0.44807872 -0.19072011 0.11104093
0.44714135 -0.19033122 0.11128214
0.44670922 -0.19088607 0.1112733
0.44577387 -0.19049464 0.11151451
0.44534239 -0.19104864 0.11150569
0.44440904 -0.19065465 0.11174694
0.44397822 -0.19120781 0.11173814
0.44304684 -0.19081129 0.11197942
0.4426167 -0.19136357 0.11197063
0.44218653 -0.19191587 0.11196184
0.44125777 -0.19151591 0.1122032
0.44082826 -0.19206734 0.11219443
0.44039878 -0.19261877 0.11218565
0.43947271 -0.19221547 0.11242705
0.43904388 -0.19276606 0.11241829
0.43861505 -0.19331665 0.11240952
0.43769163 -0.19290991 0.11265097
0.43726346 -0.19345964 0.11264222
0.43683532 -0.19400936 0.11263347
0.43640715 -0.19455911 0.11262471
0.43597895 -0.19510886 0.11261597
0.43555078 -0.19565859 0.11260721
0.434632 -0.19524591 0.11284877
0.43420452 -0.19579479 0.11284003
0.433777 -0.19634368 0.11283129
0.43286088 -0.19592759 0.11307289
0.43243405 -0.19647563 0.11306416
0.43151987 -0.19605693 0.11330584
0.43109369 -0.19660412 0.11329713
0.43018153 -0.19618292 0.11353881
0.42975602 -0.19672926 0.11353011
0.42884588 -0.19630551 0.11377183
0.42842102 -0.19685099 0.11376315
0.49071425 -0.19285578 0.10185396
0.49025759 -0.19344209 0.10184462
0.4898009 -0.19402842 0.10183529
0.48934421 -0.19461477 0.10182596
0.48888755 -0.1952011 0.10181662
0.48843089 -0.19578741 0.10180729
0.48797423 -0.19637375 0.10179796
0.48751757 -0.19696008 0.10178863
0.48706087 -0.19754642 0.10177929
0.4860695 -0.19722758 0.10202035
0.4856135 -0.19781306 0.10201103
0.48515749 -0.19839855 0.10200171
0.48416877 -0.19807632 0.10224283
0.48318139 -0.19775237 0.10248397
0.48219532 -0.19742674 0.10272513
0.48121053 -0.19709939 0.10296635
0.48022711 -0.19677034 0.10320757
0.47977442 -0.19735157 0.10319833
0.478793 -0.19701996 0.10343958
0.47781289 -0.19668669 0.10368088
0.47630665 -0.19543715 0.10417276
0.47532985 -0.19509959 0.10441411
0.47435439 -0.19476034 0.10465551
0.47338027 -0.19441938 0.10489692
0.47188264 -0.19315879 0.10538898
0.4709118 -0.19281358 0.10563045
0.4699423 -0.19246668 0.10587196
0.46897408 -0.19211803 0.10611352
0.46800724 -0.19176774 0.10635508
0.46704173 -0.19141571 0.10659666
0.46607751 -0.191062 0.10683829
0.46511465 -0.19070658 0.10707992
0.46415305 -0.19034943 0.10732161
0.46319285 -0.18999059 0.10756331
0.46223396 -0.18963008 0.10780504
0.46179384 -0.19019513 0.10779604
0.46083695 -0.18983205 0.10803781
0.45988137 -0.18946727 0.10827959
0.45944259 -0.19003063 0.10827063
0.45848894 -0.18966326 0.10851248
0.45753667 -0.18929423 0.10875434
0.45709923 -0.18985589 0.1087454
0.45571217 -0.19004512 0.10897838
0.45527536 -0.19060592 0.10896945
0.45389163 -0.19079086 0.10920249
0.45294595 -0.1904133 0.1094445
0.45200163 -0.19003405 0.10968652
0.45105866 -0.1896531 0.10992857
0.45062453 -0.19021048 0.1099197
0.44968352 -0.18982698 0.11016179
0.44925004 -0.19038352 0.11015293
0.44831103 -0.18999749 0.11039506
0.44787821 -0.19055317 0.11038622
0.44694117 -0.19016454 0.11062841
0.446509 -0.19071938 0.11061957
0.44557399 -0.19032821 0.11086179
0.44514251 -0.19088221 0.11085296
0.44420946 -0.19048849 0.11109522
0.44377863 -0.19104163 0.11108642
0.44284758 -0.19064537 0.11132871
0.44241741 -0.19119765 0.11131991
0.44198725 -0.19174996 0.11131112
0.44105881 -0.19135025 0.11155349
0.4406293 -0.19190168 0.11154471
0.44019982 -0.19245312 0.11153594
0.43977031 -0.19300458 0.11152715
0.43884522 -0.19260065 0.11176957
0.43841639 -0.19315125 0.11176081
0.43798757 -0.19370183 0.11175205
0.43706512 -0.19329451 0.11199451
0.43663695 -0.19384423 0.11198576
0.43620878 -0.19439396 0.11197701
0.43578061 -0.19494371 0.11196826
0.43535244 -0.19549344 0.11195951
0.43443397 -0.19508103 0.11220206
0.43400648 -0.19562989 0.11219332
0.43357897 -0.19617879 0.11218458
0.43266314 -0.19576296 0.11242719
0.43223631 -0.19631098 0.11241847
0.43132246 -0.19589256 0.11266114
0.43089628 -0.19643974 0.11265243
0.42998442 -0.1960188 0.11289511
0.4295589 -0.19656514 0.11288641
0.42864907 -0.19614165 0.11312915
0.42822421 -0.19668712 0.11312047
0.49204144 -0.19388613 0.10066994
0.49104309 -0.19357692 0.10091185
0.49058577 -0.19416408 0.10090251
0.49012843 -0.19475126 0.10089315
0.48967108 -0.19533846 0.10088381
0.48867601 -0.19502495 0.1011258
0.48821935 -0.19561128 0.10111647
0.48776266 -0.19619761 0.10110714
0.487306 -0.19678393 0.1010978
0.48684931 -0.19737028 0.10108847
0.48639265 -0.19795661 0.10107914
0.48540226 -0.19763717 0.10132121
0.48494625 -0.19822265 0.1013119
0.48395783 -0.19790068 0.10155401
0.48297074 -0.197577 0.10179616
0.48251608 -0.1981608 0.10178687
0.48153096 -0.19783457 0.10202905
0.48054716 -0.19750659 0.10227128
0.4795647 -0.19717696 0.10251352
0.47858357 -0.19684562 0.10275578
0.47760379 -0.19651258 0.10299809
0.47609815 -0.19526356 0.10349197
0.47512168 -0.19492628 0.10373433
0.47414654 -0.19458728 0.10397672
0.47317269 -0.19424658 0.10421913
0.47167569 -0.19298647 0.10471319
0.47070518 -0.19264153 0.10495567
0.46973598 -0.1922949 0.10519818
0.46876806 -0.19194649 0.10544074
0.46780151 -0.19159645 0.10568331
0.4668363 -0.19124469 0.1059259
0.46587241 -0.19089124 0.10616852
0.46490985 -0.19053607 0.10641116
0.46394858 -0.19017917 0.10665385
0.46298867 -0.18982059 0.10689656
0.46203008 -0.18946032 0.10713928
0.46158996 -0.19002539 0.10713029
0.4606334 -0.18966256 0.10737306
0.45967811 -0.18929803 0.10761585
0.45923933 -0.1898614 0.10760688
0.45880055 -0.19042476 0.10759791
0.45784786 -0.19005682 0.10784079
0.45689657 -0.18968716 0.10808365
0.45550981 -0.18987665 0.10831764
0.45507303 -0.19043745 0.1083087
0.4536896 -0.19062264 0.10854275
0.45325348 -0.19118261 0.10853384
0.45230877 -0.19080442 0.10877687
0.45136541 -0.19042459 0.10901991
0.45042342 -0.19004303 0.10926297
0.44948271 -0.18965977 0.10950606
0.44904923 -0.19021633 0.1094972
0.44811052 -0.18983056 0.10974034
0.44767773 -0.19038624 0.10973149
0.44674096 -0.18999785 0.10997469
0.44630882 -0.1905527 0.10996586
0.4453741 -0.19016179 0.11020907
0.44494262 -0.19071579 0.11020025
0.44400987 -0.19032232 0.11044351
0.44357905 -0.19087547 0.1104347
0.44314823 -0.19142862 0.1104259
0.44221815 -0.19103174 0.1106692
0.44178799 -0.19158405 0.11066041
0.44135785 -0.19213632 0.11065162
0.44092765 -0.19268863 0.11064283
0.44000086 -0.19228746 0.11088623
0.43957135 -0.19283892 0.11087745
0.43914187 -0.19339035 0.11086867
0.43871236 -0.19394179 0.11085989
0.4377889 -0.19353643 0.11110334
0.43736008 -0.19408701 0.11109458
0.43693125 -0.19463761 0.11108581
0.43601045 -0.19422881 0.11132931
0.43558228 -0.19477856 0.11132056
0.43515408 -0.19532831 0.11131181
0.43472591 -0.19587804 0.11130305
0.43380845 -0.19546501 0.11154663
0.43338093 -0.1960139 0.11153789
0.43295342 -0.19656278 0.11152915
0.43203858 -0.19614635 0.11177276
0.43112502 -0.19572818 0.11201644
0.43069884 -0.19627535 0.11200773
0.42978731 -0.19585468 0.11225142
0.42936179 -0.19640101 0.11224271
0.42845225 -0.19597778 0.11248645
0.42802739 -0.19652325 0.11247776
0.49282867 -0.19401671 0.099734217
0.49237001 -0.1946056 0.099724844
0.4913713 -0.19429749 0.09996774
0.4909133 -0.19488554 0.099958383
0.4904553 -0.19547355 0.099949025
0.4899973 -0.1960616 0.099939659
0.4890019 -0.19574924 0.10018264
0.48854455 -0.19633643 0.10017329
0.48808724 -0.1969236 0.10016394
0.48762992 -0.19751076 0.10015459
0.48717257 -0.19809796 0.10014525
0.48618111 -0.19778048 0.10038832
0.48572445 -0.19836679 0.10037899
0.48526776 -0.19895312 0.10036965
0.48427901 -0.19863226 0.10061277
0.48329154 -0.19830969 0.10085589
0.48230544 -0.19798543 0.10109905
0.48132065 -0.19765945 0.10134224
0.48033714 -0.19733174 0.10158548
0.47935498 -0.19700237 0.10182872
0.47837418 -0.19667128 0.10207199
0.4773947 -0.19633849 0.10231528
0.47588968 -0.19508998 0.10281117
0.47491351 -0.19475295 0.10305454
0.47393867 -0.1944142 0.10329793
0.47296515 -0.19407375 0.10354134
0.47146875 -0.19281417 0.10403741
0.47049853 -0.19246948 0.1042809
0.46952966 -0.1921231 0.10452441
0.46856204 -0.19177496 0.10476797
0.46759582 -0.19142517 0.10501155
0.46663091 -0.19107366 0.10525513
0.46566731 -0.19072047 0.10549875
0.46470505 -0.19036555 0.1057424
0.46374407 -0.19000891 0.1059861
0.4627845 -0.18965058 0.1062298
0.46182621 -0.18929057 0.10647353
0.46138611 -0.18985564 0.10646453
0.46042982 -0.18949306 0.10670831
0.45947486 -0.1891288 0.10695209
0.45903605 -0.18969217 0.10694313
0.4585973 -0.19025551 0.10693416
0.45764491 -0.18988784 0.10717804
0.45669395 -0.18951844 0.10742191
0.45625648 -0.19008009 0.10741297
0.45581904 -0.19064175 0.10740403
0.4548707 -0.19026898 0.10764797
0.45443392 -0.19082977 0.10763904
0.45305145 -0.19101439 0.1078741
0.45210704 -0.19063647 0.10811812
0.45167157 -0.19119556 0.10810923
0.45072919 -0.19081514 0.10835329
0.44978815 -0.19043298 0.10859737
0.44884843 -0.19004914 0.10884148
0.44791004 -0.18966362 0.10908561
0.44747722 -0.1902193 0.10907677
0.44654077 -0.18983118 0.10932097
0.44610864 -0.19038603 0.10931214
0.44567648 -0.19094086 0.1093033
0.44474274 -0.19054936 0.10954753
0.44431123 -0.19110335 0.10953872
0.44387975 -0.19165735 0.1095299
0.44294867 -0.19126245 0.10977418
0.44251785 -0.19181557 0.10976537
0.44208702 -0.19236872 0.10975657
0.4416562 -0.19292188 0.10974777
0.44122538 -0.19347499 0.10973896
0.44029826 -0.19307499 0.10998333
0.43986809 -0.1936273 0.10997453
0.43894291 -0.1932247 0.11021896
0.4385134 -0.19377613 0.11021018
0.43808392 -0.19432756 0.1102014
0.43765441 -0.19487903 0.11019263
0.43673259 -0.19447221 0.1104371
0.43630376 -0.19502279 0.11042834
0.43587491 -0.19557339 0.11041957
0.43495575 -0.19516316 0.1106641
0.43452758 -0.19571289 0.11065535
0.43361041 -0.19530012 0.11089993
0.4331829 -0.19584902 0.11089119
0.43275538 -0.19639789 0.11088245
0.43184084 -0.19598171 0.11112706
0.4309276 -0.19556379 0.11137174
0.4305014 -0.19611098 0.11136303
0.4295902 -0.19569056 0.11160772
0.42916468 -0.19623689 0.11159902
0.42825544 -0.19581391 0.11184376
0.42831361 -0.19732957 0.11158163
0.49307486 -0.19325092 0.099049769
0.49261618 -0.19383982 0.099040389
0.49215752 -0.1944287 0.099031016
0.49169886 -0.19501759 0.099021643
0.49124023 -0.19560646 0.099012271
0.49078158 -0.19619533 0.099002898
0.49032289 -0.19678423 0.098993525
0.48932713 -0.19647299 0.099237479
0.48886916 -0.197061 0.099228121
0.48841116 -0.19764905 0.099218756
0.48741806 -0.19733438 0.09946277
0.48749515 -0.19882511 0.09920004
0.48650339 -0.19850874 0.099444076
0.48604605 -0.19909593 0.099434733
0.48505622 -0.19877699 0.099678837
0.48406777 -0.19845638 0.099922948
0.48308063 -0.19813406 0.10016708
0.48209479 -0.19781005 0.10041124
0.4811103 -0.19748433 0.10065543
0.48012713 -0.19715688 0.10089967
0.47914529 -0.19682775 0.10114392
0.47816479 -0.19649692 0.10138818
0.47718561 -0.1961644 0.10163248
0.47568122 -0.1949164 0.10213039
0.47470534 -0.19457962 0.10237475
0.4737308 -0.19424112 0.10261914
0.47275758 -0.19390094 0.10286357
0.4712618 -0.19264187 0.10336164
0.47029191 -0.19229743 0.10360612
0.46932331 -0.1919513 0.10385064
0.46835601 -0.19160342 0.1040952
0.46739009 -0.19125389 0.10433977
0.46642548 -0.19090264 0.10458437
0.46546221 -0.19054969 0.10482899
0.46450028 -0.19019504 0.10507364
0.4635396 -0.18983865 0.10531834
0.46258029 -0.18948059 0.10556304
0.46162233 -0.18912083 0.10580777
0.46118224 -0.18968588 0.10579878
0.46022624 -0.18932357 0.10604355
0.45927158 -0.18895955 0.10628835
0.4588328 -0.18952292 0.10627938
0.45839402 -0.19008628 0.10627042
0.45744196 -0.18971884 0.1065153
0.45700386 -0.19028135 0.10650634
0.45605385 -0.18991137 0.10675123
0.45561638 -0.19047302 0.10674229
0.45466834 -0.19010051 0.10698723
0.45423159 -0.1906613 0.1069783
0.45284939 -0.19084617 0.10721436
0.45190531 -0.19046851 0.1074594
0.45146987 -0.1910276 0.1074505
0.45052779 -0.19064742 0.10769556
0.450093 -0.19120568 0.10768668
0.44915292 -0.19082294 0.10793176
0.44821414 -0.19043851 0.10817689
0.4477807 -0.19099504 0.10816804
0.44684392 -0.19060805 0.1084132
0.4464111 -0.19116376 0.10840435
0.44597831 -0.19171946 0.10839551
0.44504416 -0.19132902 0.10864075
0.444612 -0.19188386 0.10863192
0.44417986 -0.19243871 0.10862308
0.44324839 -0.19204493 0.10886835
0.44281691 -0.19259889 0.10885954
0.44238544 -0.19315289 0.10885072
0.44195396 -0.19370688 0.1088419
0.44152248 -0.19426088 0.10883308
0.44059497 -0.19386198 0.10907844
0.44016415 -0.19441512 0.10906964
0.43923867 -0.19401367 0.10931503
0.4388085 -0.19456597 0.10930624
0.43837833 -0.19511825 0.10929745
0.43794817 -0.19567055 0.10928866
0.43702596 -0.1952648 0.10953413
0.43659645 -0.19581623 0.10952535
0.43616697 -0.19636767 0.10951658
0.43524742 -0.19595857 0.1097621
0.4348186 -0.19650915 0.10975333
0.43341234 -0.19513522 0.11025322
0.43298483 -0.19568412 0.11024448
0.43255734 -0.19623299 0.11023574
0.4316431 -0.19581708 0.11048136
0.43073016 -0.19539942 0.11072704
0.43030399 -0.1959466 0.11071833
0.42939305 -0.19552644 0.11096402
0.42896754 -0.19607277 0.11095533
0.42854202 -0.19661911 0.11094663
0.49340379 -0.19396794 0.098101698
0.49294448 -0.19455768 0.09809231
0.49248517 -0.19514741 0.098082922
0.4914864 -0.19484068 0.098327816
0.49102774 -0.19542955 0.098318443
0.49056908 -0.19601843 0.098309062
0.49011043 -0.19660732 0.09829969
0.48965177 -0.1971962 0.098290317
0.48972923 -0.19868581 0.098026596
0.48873445 -0.19837397 0.098271571
0.4882758 -0.19896284 0.098262198
0.48781714 -0.19955173 0.098252818
0.48682499 -0.1992365 0.098497853
0.48583418 -0.19891955 0.098742917
0.48484468 -0.19860084 0.098988011
0.48385653 -0.19828048 0.099233128
0.48286968 -0.19795844 0.099478267
0.48188418 -0.19763468 0.099723428
0.48089999 -0.19730923 0.099968627
0.47991711 -0.19698201 0.10021386
0.47893557 -0.19665316 0.10045911
0.47795537 -0.19632258 0.10070439
0.47697651 -0.19599031 0.10094969
0.47547272 -0.19474281 0.10144959
0.47449717 -0.19440629 0.10169496
0.47352293 -0.19406806 0.10194036
0.47255003 -0.19372812 0.10218578
0.47105485 -0.19246957 0.10268585
0.47008526 -0.19212538 0.10293134
0.46911699 -0.19177951 0.10317686
0.46814999 -0.19143188 0.10342243
0.46718436 -0.19108261 0.103668
0.46622008 -0.19073161 0.1039136
0.46525711 -0.19037892 0.10415923
0.46429548 -0.19002452 0.10440488
0.4633351 -0.18966839 0.10465058
0.46237612 -0.18931058 0.10489629
0.46193537 -0.18987648 0.10488728
0.46097836 -0.18951614 0.10513302
0.46002269 -0.18915407 0.1053788
0.45958322 -0.18971829 0.10536982
0.45862955 -0.18935369 0.10561564
0.45819077 -0.18991704 0.10560667
0.457239 -0.18954986 0.10585254
0.45680091 -0.19011237 0.10584359
0.45636278 -0.19067487 0.10583464
0.45541373 -0.19030429 0.10608055
0.45446602 -0.18993205 0.10632649
0.45402923 -0.19049282 0.10631756
0.45264736 -0.19067797 0.10655462
0.45221126 -0.19123791 0.10654571
0.45126814 -0.19085965 0.10679176
0.45083266 -0.19141874 0.10678286
0.44989157 -0.19103797 0.10702894
0.44945678 -0.19159622 0.10702006
0.44851765 -0.19121289 0.10726616
0.44757989 -0.19082785 0.10751231
0.44714642 -0.1913844 0.10750345
0.44621062 -0.19099683 0.10774963
0.4457778 -0.19155252 0.10774078
0.44534501 -0.1921082 0.10773194
0.4449122 -0.19266391 0.10772309
0.44397968 -0.19227202 0.10796937
0.44354752 -0.19282687 0.10796053
0.44311538 -0.1933817 0.1079517
0.44268322 -0.19393657 0.10794286
0.44225109 -0.19449142 0.10793404
0.44181892 -0.19504625 0.1079252
0.44089109 -0.19464844 0.10817154
0.44045961 -0.19520244 0.10816272
0.43953374 -0.19480211 0.10840911
0.43910295 -0.19535524 0.10840032
0.43817908 -0.19495234 0.10864673
0.43774891 -0.19550464 0.10863794
0.43731877 -0.19605692 0.10862914
0.43688861 -0.19660921 0.10862035
0.43596801 -0.19620201 0.10886687
0.4355385 -0.19675347 0.10885809
0.43461993 -0.19634375 0.10910463
0.43370274 -0.19593233 0.10935119
0.43327454 -0.19648206 0.10934243
0.43235931 -0.19606811 0.10958904
0.43144539 -0.19565244 0.10983566
0.43053275 -0.19523504 0.11008234
0.43010655 -0.19578221 0.11007363
0.42919594 -0.19536231 0.11032033
0.42877042 -0.19590864 0.11031163
0.49365035 -0.19320105 0.097416244
0.49319103 -0.19379078 0.097406857
0.49273169 -0.19438051 0.097397469
0.49227238 -0.19497025 0.097388081
0.49127394 -0.19466378 0.097633988
0.49189222 -0.19704679 0.097114019
0.49143222 -0.19763736 0.097104616
0.49097225 -0.19822794 0.097095214
0.49051225 -0.19881855 0.097085819
0.49005228 -0.19940913 0.097076416
0.48905715 -0.19909838 0.097322375
0.48859781 -0.19968811 0.097312987
0.48714602 -0.1999637 0.097549625
0.48615485 -0.19964786 0.097795673
0.485165 -0.19933031 0.098041743
0.48417646 -0.19901103 0.098287866
0.48318925 -0.19869009 0.098533995
0.48220339 -0.19836745 0.098780148
0.48121887 -0.19804306 0.09902633
0.48023567 -0.19771703 0.099272534
0.47925374 -0.19738923 0.099518791
0.47827318 -0.19705978 0.099765055
0.47729394 -0.1967286 0.10001134
0.47579011 -0.19548248 0.10051324
0.474289 -0.19423297 0.10101517
0.47331506 -0.19389498 0.10126156
0.47234246 -0.19355531 0.10150799
0.4708479 -0.19229726 0.10201008
0.46987861 -0.19195333 0.10225656
0.46891066 -0.19160771 0.10250309
0.46794397 -0.19126035 0.10274966
0.46697867 -0.19091132 0.10299623
0.46601468 -0.19056058 0.10324284
0.46505201 -0.19020815 0.10348947
0.46409068 -0.18985401 0.10373612
0.46313062 -0.18949813 0.10398281
0.46268919 -0.19006488 0.1039738
0.46173117 -0.18970649 0.10422052
0.46077448 -0.18934639 0.10446727
0.45981911 -0.18898459 0.10471405
0.45937967 -0.18954881 0.10470507
0.45894024 -0.19011299 0.10469609
0.45798752 -0.1897478 0.10494292
0.45754874 -0.19031115 0.10493395
0.45659795 -0.18994339 0.10518085
0.45615983 -0.19050589 0.1051719
0.4552111 -0.19013557 0.10541881
0.45477363 -0.19069722 0.10540987
0.4538269 -0.19032435 0.10565683
0.45339012 -0.19088517 0.10564789
0.45200923 -0.19106969 0.10588598
0.45063096 -0.19125079 0.10612413
0.45019549 -0.19180988 0.10611523
0.44925535 -0.19142851 0.10636232
0.44831654 -0.19104545 0.10660943
0.44788244 -0.19160283 0.10660056
0.44694561 -0.19121721 0.10684773
0.44651213 -0.19177374 0.10683886
0.44607866 -0.1923303 0.10683
0.4451445 -0.19194126 0.10707721
0.44471169 -0.19249697 0.10706836
0.4442789 -0.19305266 0.10705952
0.44384608 -0.19360834 0.10705067
0.44341326 -0.19416405 0.10704183
0.44298047 -0.19471975 0.10703298
0.44254765 -0.19527543 0.10702413
0.44211483 -0.19583115 0.10701529
0.44118661 -0.19543441 0.10726265
0.44075444 -0.19598925 0.10725382
0.43982825 -0.19559002 0.10750119
0.43939677 -0.19614401 0.10749236
0.43847254 -0.19574222 0.10773978
0.43804172 -0.19629537 0.10773098
0.43761089 -0.19684848 0.10772218
0.43668932 -0.1964433 0.10796965
0.43625918 -0.19699559 0.10796086
0.43582901 -0.19754787 0.10795207
0.43491006 -0.19713925 0.1081996
0.43448055 -0.19769068 0.10819082
0.4330762 -0.19631691 0.10869472
0.43264803 -0.19686666 0.10868598
0.43124765 -0.19548781 0.10918996
0.43082079 -0.19603583 0.10918124
0.42990914 -0.19561784 0.10942894
0.42948294 -0.19616504 0.10942023
0.49305907 -0.19509761 0.096446387
0.4925991 -0.19568819 0.096436992
0.4921391 -0.1962788 0.09642759
0.49167913 -0.19686937 0.096418187
0.49121913 -0.19745995 0.096408784
0.49075916 -0.19805053 0.096399382
0.49029917 -0.19864114 0.096389987
0.4898392 -0.19923171 0.096380584
0.4893792 -0.19982229 0.096371181
0.48449582 -0.1997411 0.097340576
0.48350823 -0.19942121 0.097587712
0.48252201 -0.19909967 0.097834855
0.48153713 -0.19877642 0.098082028
0.48055357 -0.19845149 0.098329224
0.47957131 -0.19812483 0.098576449
0.47806346 -0.19688517 0.099080257
0.47708455 -0.19655426 0.099327542
0.47558132 -0.19530863 0.09983144
0.47408083 -0.19405964 0.10033537
0.47310722 -0.19372191 0.10058278
0.47161126 -0.19246693 0.10108682
0.47064099 -0.19212496 0.1013343
0.46967199 -0.19178128 0.10158179
0.46870431 -0.19143592 0.10182932
0.46773794 -0.19108881 0.10207688
0.46677294 -0.19074005 0.10232447
0.46580926 -0.19038956 0.10257207
0.46484691 -0.19003738 0.1028197
0.46388587 -0.18968348 0.10306735
0.46292612 -0.18932787 0.10331506
0.46248472 -0.18989462 0.10330603
0.46152699 -0.18953648 0.10355377
0.4605706 -0.18917665 0.10380152
0.45961556 -0.18881509 0.1040493
0.45917609 -0.1893793 0.10404032
0.45873669 -0.18994351 0.10403134
0.45778427 -0.18957856 0.10427917
0.45734549 -0.19014192 0.1042702
0.456395 -0.18977441 0.10451811
0.45595688 -0.19033691 0.10450915
0.45500845 -0.18996684 0.10475706
0.45457101 -0.1905285 0.10474812
0.45362458 -0.19015589 0.10499609
0.45318776 -0.1907167 0.10498716
0.4518072 -0.19090147 0.10522623
0.45042923 -0.19108282 0.10546539
0.44999376 -0.19164191 0.10545649
0.44905394 -0.19126081 0.10570459
0.44861913 -0.19181906 0.1056957
0.44818434 -0.19237731 0.10568681
0.44724718 -0.19199277 0.10593496
0.44681305 -0.19255018 0.10592608
0.44637892 -0.19310758 0.10591721
0.44544441 -0.19271965 0.10616542
0.44501093 -0.1932762 0.10615656
0.44457746 -0.19383274 0.1061477
0.4436456 -0.19344141 0.10639594
0.44321275 -0.19399713 0.1063871
0.44277996 -0.19455281 0.10637826
0.44234717 -0.1951085 0.10636941
0.44191432 -0.19566421 0.10636056
0.44148153 -0.19621989 0.10635172
0.44012213 -0.19637741 0.10659127
0.43968996 -0.19693226 0.10658243
0.43876538 -0.19653158 0.10683083
0.4383339 -0.19708557 0.10682201
0.43741134 -0.19668232 0.10707046
0.43698052 -0.19723547 0.10706166
0.43654966 -0.19778861 0.10705286
0.43562976 -0.19738196 0.10730135
0.43519959 -0.19793426 0.10729256
0.43428159 -0.19752502 0.10754111
0.43287787 -0.19615178 0.10804702
0.43244967 -0.19670151 0.10803827
0.43153572 -0.19628721 0.10828689
0.43062308 -0.1958712 0.10853554
0.49284598 -0.1949202 0.095750563
0.49238601 -0.19551077 0.09574116
0.49192601 -0.19610137 0.095731758
0.49146605 -0.19669196 0.095722355
0.49100605 -0.19728254 0.095712952
0.49054608 -0.19787312 0.095703557
0.49008608 -0.19846371 0.095694155
0.48962611 -0.19905429 0.095684752
0.48916611 -0.19964486 0.095675349
0.48284 -0.19983143 0.096887551
0.48185477 -0.19950928 0.097135723
0.48087084 -0.19918543 0.097383901
0.47988823 -0.1988599 0.097632118
0.47838035 -0.19762158 0.098137915
0.47687516 -0.1963799 0.098643743
0.47537255 -0.19513479 0.099149644
0.47439724 -0.19479989 0.099398017
0.47289935 -0.19354884 0.099903993
0.47192734 -0.19320968 0.10015242
0.47043404 -0.19195265 0.10065852
0.46946535 -0.19160923 0.10090701
0.46849799 -0.19126412 0.10115554
0.46753192 -0.19091727 0.10140412
0.46656722 -0.19056876 0.1016527
0.46560386 -0.19021852 0.10190129
0.46464181 -0.18986662 0.10214994
0.46368107 -0.18951297 0.1023986
0.46323901 -0.19008057 0.10238956
0.46228021 -0.18972436 0.10263827
0.46183878 -0.19029112 0.10262925
0.46088207 -0.18993239 0.102878
0.45992664 -0.18957196 0.10312677
0.45948654 -0.190137 0.10311777
0.45853311 -0.18977401 0.10336659
0.45809367 -0.19033822 0.10335761
0.45714223 -0.18997267 0.10360646
0.45670342 -0.19053605 0.10359749
0.45575392 -0.19016792 0.1038464
0.45531583 -0.19073042 0.10383745
0.45436835 -0.19035979 0.10408638
0.45393091 -0.19092144 0.10407744
0.45298544 -0.19054823 0.10432641
0.45254865 -0.19110902 0.10431749
0.45116904 -0.19129321 0.10455758
0.45073292 -0.19185317 0.10454867
0.44935656 -0.19203307 0.10478886
0.44798294 -0.1922096 0.10502908
0.44754812 -0.19276786 0.1050202
0.44711334 -0.1933261 0.10501131
0.44574368 -0.19349751 0.10525161
0.44530952 -0.19405492 0.10524274
0.44394317 -0.19422209 0.10548311
0.4435097 -0.19477865 0.10547426
0.44307622 -0.19533519 0.1054654
0.44264275 -0.19589174 0.10545654
0.44220927 -0.19644828 0.10544768
0.4417758 -0.19700484 0.10543882
0.44084823 -0.19660865 0.10568815
0.44041541 -0.19716436 0.1056793
0.43948978 -0.19676557 0.1059287
0.43905765 -0.19732042 0.10591988
0.43770257 -0.19747312 0.10616048
0.43727106 -0.19802712 0.10615166
0.43635011 -0.19762245 0.10640113
0.43591928 -0.19817558 0.10639233
0.43500033 -0.19776835 0.10664184
0.43408263 -0.19735937 0.1068914
0.43316633 -0.19694872 0.10714097
0.43225133 -0.19653638 0.10739057
0.49309289 -0.19415219 0.095064126
0.4931725 -0.19563656 0.094796441
0.49217293 -0.19533335 0.095045321
0.49171293 -0.19592395 0.095035918
0.49125296 -0.19651453 0.095026515
0.49079296 -0.19710511 0.09501712
0.49033299 -0.19769569 0.095007718
0.48987299 -0.19828629 0.094998315
0.48941302 -0.19887687 0.094988912
0.48895302 -0.19946745 0.09497951
0.48118752 -0.19991888 0.096436583
0.47967762 -0.19868453 0.09694431
0.47817034 -0.19744672 0.097452104
0.47666574 -0.19620556 0.097959936
0.47516376 -0.19496095 0.098467849
0.47418877 -0.1946263 0.09871722
0.47269148 -0.19337577 0.099225208
0.4717198 -0.19303685 0.099474639
0.47022709 -0.19178034 0.099982731
0.46925873 -0.19143718 0.10023224
0.46829167 -0.19109234 0.10048176
0.4673259 -0.19074574 0.10073134
0.46636152 -0.19039747 0.10098093
0.46539843 -0.1900475 0.10123053
0.46443671 -0.18969584 0.10148017
0.46399397 -0.19026428 0.10147113
0.46303421 -0.18991005 0.1017208
0.4625921 -0.19047768 0.10171176
0.46163431 -0.19012086 0.10196149
0.46067786 -0.18976238 0.10221125
0.45972276 -0.18940221 0.10246102
0.45928267 -0.18996724 0.10245202
0.45884255 -0.19053231 0.10244302
0.45789009 -0.19016874 0.10269286
0.45693895 -0.18980344 0.10294271
0.45650017 -0.1903668 0.10293374
0.45555097 -0.18999894 0.10318366
0.45511287 -0.19056144 0.10317471
0.4541657 -0.19019105 0.10342464
0.45372826 -0.1907527 0.1034157
0.45329082 -0.19131434 0.10340676
0.45234632 -0.19094054 0.10365675
0.45190951 -0.19150135 0.10364782
0.45147276 -0.19206214 0.10363889
0.45053089 -0.19168495 0.10388894
0.45009476 -0.19224489 0.10388003
0.44915485 -0.19186512 0.10413013
0.44871938 -0.19242421 0.10412122
0.44828394 -0.1929833 0.10411233
0.44784847 -0.19354239 0.10410342
0.44741303 -0.19410148 0.10409453
0.44647712 -0.19371665 0.10434469
0.4460423 -0.1942749 0.10433581
0.44560751 -0.19483314 0.10432692
0.44467428 -0.19444486 0.10457713
0.44424015 -0.19500227 0.10456826
0.44380599 -0.19555968 0.10455938
0.44337189 -0.19611706 0.10455052
0.44293773 -0.19667445 0.10454164
0.4420085 -0.19628109 0.10479195
0.44157499 -0.19683765 0.10478309
0.44114155 -0.19739418 0.10477423
0.44070807 -0.19795074 0.10476537
0.43978211 -0.19755311 0.10501574
0.43885747 -0.19715373 0.10526615
0.4384253 -0.19770859 0.10525732
0.43707117 -0.19786069 0.10549893
0.43571973 -0.1980094 0.10574061
0.43480104 -0.19760242 0.10599113
0.43388367 -0.1971937 0.10624169
0.43345419 -0.19774513 0.10623291
0.49341974 -0.19486746 0.094109021
0.49295911 -0.19545889 0.094099604
0.49249846 -0.19605033 0.094090194
0.4920378 -0.19664176 0.094080776
0.49157715 -0.1972332 0.094071358
0.49111652 -0.19782463 0.094061948
0.49065584 -0.19841608 0.094052531
0.49019521 -0.1990075 0.094043121
0.48973456 -0.19959895 0.094033703
0.48097628 -0.19974299 0.095746771
0.47946697 -0.19850916 0.096256495
0.47796032 -0.19727185 0.0967663
0.47645634 -0.19603121 0.097276136
0.47495496 -0.19478711 0.097786054
0.47398028 -0.19445272 0.098036431
0.47248361 -0.19320269 0.098546416
0.47151223 -0.19286405 0.098796852
0.47002015 -0.19160804 0.099306956
0.46905208 -0.19126514 0.099557452
0.46808535 -0.19092055 0.099807993
0.46711987 -0.1905742 0.10005857
0.4661558 -0.1902262 0.10030916
0.46519303 -0.18987648 0.10055976
0.4647496 -0.1904458 0.1005507
0.46378887 -0.19009352 0.10080136
0.46334609 -0.19066198 0.10079231
0.46238732 -0.19030717 0.101043
0.46142983 -0.1899506 0.10129374
0.4609884 -0.19051735 0.10128472
0.46003294 -0.19015828 0.10153548
0.45907879 -0.18979751 0.10178627
0.4586387 -0.19036256 0.10177728
0.45768651 -0.18999924 0.10202811
0.4567357 -0.1896342 0.10227896
0.45629692 -0.19019757 0.10226999
0.45534801 -0.18982996 0.10252092
0.45490992 -0.19039246 0.10251196
0.45396307 -0.19002233 0.10276289
0.4535256 -0.19058399 0.10275396
0.45308816 -0.19114561 0.10274502
0.45265073 -0.19170727 0.10273608
0.45221329 -0.19226892 0.10272714
0.45177585 -0.19283055 0.1027182
0.45083362 -0.19245447 0.10296923
0.45039684 -0.19301528 0.1029603
0.4494566 -0.19263662 0.10321137
0.44902048 -0.19319658 0.10320245
0.44858438 -0.19375652 0.10319354
0.44814822 -0.19431648 0.10318463
0.44771212 -0.19487642 0.10317571
0.44677582 -0.19449265 0.10342689
0.44634035 -0.19505174 0.10341799
0.44590491 -0.19561084 0.10340909
0.44497129 -0.19522369 0.1036603
0.44453651 -0.19578193 0.10365141
0.44410169 -0.19634019 0.10364252
0.44366691 -0.19689843 0.10363364
0.44323212 -0.19745669 0.10362475
0.4423025 -0.19706441 0.10387604
0.44186836 -0.19762181 0.10386717
0.44143423 -0.19817919 0.10385829
0.4410001 -0.19873659 0.10384942
0.44007379 -0.19834007 0.10410079
0.43914881 -0.19794185 0.10435217
0.43822509 -0.19754192 0.1046036
0.43779296 -0.19809675 0.10459477
0.43687129 -0.19769427 0.10484622
0.43552014 -0.19784324 0.1050889
0.43460178 -0.19743651 0.10534041
0.49320635 -0.19468978 0.093412183
0.4927457 -0.19528121 0.093402773
0.49228504 -0.19587266 0.093393356
0.49182442 -0.19646409 0.093383938
0.49136376 -0.19705553 0.093374528
0.49090311 -0.19764696 0.09336511
0.49044245 -0.1982384 0.0933557
0.48998183 -0.19882983 0.093346283
0.48952118 -0.19942127 0.093336865
0.48076501 -0.19956711 0.095056951
0.47925636 -0.19833378 0.095568687
0.4777503 -0.19709699 0.096080489
0.47624695 -0.19585685 0.096592344
0.47579491 -0.19643724 0.096583106
0.47377181 -0.19427913 0.097355634
0.47227573 -0.19302963 0.09786763
0.47130468 -0.19269122 0.098119065
0.4698132 -0.19143574 0.098631173
0.46884543 -0.19109309 0.098882675
0.467879 -0.19074875 0.099134214
0.46691385 -0.19040266 0.099385791
0.46595007 -0.19005491 0.099637389
0.46498764 -0.18970545 0.099889003
0.46454421 -0.19027476 0.099879943
0.46358377 -0.18992275 0.1001316
0.46314099 -0.19049121 0.10012255
0.46218252 -0.19013666 0.10037424
0.46122533 -0.18978034 0.10062598
0.4607839 -0.19034709 0.10061696
0.45982873 -0.18998829 0.10086873
0.45887491 -0.18962775 0.10112052
0.45843482 -0.19019282 0.10111152
0.45748296 -0.18982975 0.10136335
0.45653245 -0.18946497 0.10161521
0.45609367 -0.19002834 0.10160624
0.45514506 -0.18966098 0.10185817
0.45470697 -0.19022349 0.10184921
0.45426884 -0.19078599 0.10184026
0.45383075 -0.19134848 0.10183131
0.45339265 -0.19191097 0.10182235
0.45244807 -0.19153854 0.10207433
0.45201063 -0.1921002 0.10206539
0.45157319 -0.19266182 0.10205645
0.45113575 -0.19322348 0.10204751
0.45069829 -0.19378513 0.10203857
0.44975773 -0.1934076 0.10229063
0.44932091 -0.19396842 0.1022817
0.44888413 -0.19452922 0.10227278
0.44844735 -0.19509 0.10226385
0.44801056 -0.19565082 0.10225493
0.44707394 -0.19526817 0.10250706
0.44663784 -0.19582811 0.10249815
0.44620171 -0.19638805 0.10248924
0.44526771 -0.19600198 0.10274145
0.44483227 -0.19656107 0.10273255
0.44439679 -0.19712017 0.10272365
0.4434655 -0.19673073 0.1029759
0.44303069 -0.19728898 0.10296702
0.4425959 -0.19784723 0.10295814
0.44216108 -0.19840547 0.10294925
0.4417263 -0.19896372 0.10294036
0.44079897 -0.19856915 0.10319269
0.44036484 -0.19912654 0.10318382
0.43943951 -0.19872944 0.1034362
0.43851548 -0.19833063 0.1036886
0.43759277 -0.19793008 0.10394105
0.43623993 -0.19808184 0.10418469
0.4933736 -0.19243877 0.092995435
0.49345362 -0.19392067 0.092724763
0.49353224 -0.19540425 0.092454083
0.49307093 -0.19599652 0.092444658
0.49260962 -0.19658881 0.092435233
0.49214831 -0.19718111 0.092425801
0.491687 -0.19777338 0.092416376
0.49122569 -0.19836567 0.092406943
0.49076438 -0.19895796 0.092397518
0.49030307 -0.19955024 0.092388093
0.48055378 -0.19939123 0.094367139
0.47904572 -0.19815841 0.094880871
0.47754028 -0.19692214 0.095394686
0.47603753 -0.19568251 0.095908538
0.47506148 -0.19535118 0.096160874
0.47356331 -0.19410555 0.096674845
0.47206789 -0.19285655 0.097188845
0.47109711 -0.19251841 0.097441278
0.47012764 -0.19217855 0.097693764
0.46915951 -0.191837 0.097946264
0.46819273 -0.19149376 0.098198786
0.46722728 -0.1911488 0.098451339
0.46626309 -0.19080213 0.098703936
0.46530029 -0.1904538 0.09895654
0.46433881 -0.19010374 0.099209175
0.46337867 -0.18975197 0.099461831
0.46293589 -0.19032045 0.099452786
0.46197772 -0.18996614 0.09970548
0.46102086 -0.18961008 0.099958226
0.46057943 -0.19017683 0.099949203
0.45962456 -0.18981828 0.10020197
0.45918381 -0.19038418 0.10019296
0.45823094 -0.19002306 0.10044577
0.45779082 -0.19058813 0.10043678
0.45683998 -0.19022445 0.10068963
0.45640051 -0.19078866 0.10068064
0.45545164 -0.19042245 0.10093353
0.45501286 -0.19098578 0.10092457
0.45457408 -0.19154914 0.1009156
0.45362779 -0.1911795 0.10116857
0.4531897 -0.19174199 0.10115961
0.45224544 -0.19136982 0.10141259
0.45180798 -0.19193147 0.10140365
0.45137054 -0.19249311 0.10139471
0.4509331 -0.19305477 0.10138576
0.45049566 -0.19361642 0.10137682
0.45005819 -0.19417807 0.10136789
0.44962075 -0.19473973 0.10135895
0.4486818 -0.19436075 0.10161204
0.44824502 -0.19492154 0.10160311
0.44780824 -0.19548234 0.10159419
0.44737145 -0.19604313 0.10158526
0.44693467 -0.19660394 0.10157634
0.44599968 -0.19621983 0.10182951
0.44556355 -0.1967798 0.10182059
0.44512743 -0.19733974 0.10181168
0.4446913 -0.1978997 0.10180277
0.44375962 -0.19751132 0.10205603
0.44332415 -0.19807041 0.10204712
0.44288871 -0.1986295 0.10203823
0.44245324 -0.1991886 0.10202932
0.44201776 -0.19974771 0.10202042
0.44109011 -0.19935425 0.10227375
0.44016373 -0.1989591 0.10252709
0.4392387 -0.19856225 0.10278048
0.438315 -0.19816369 0.10303387
0.43739259 -0.1977634 0.10328732
0.49324021 -0.19374299 0.092027932
0.49331853 -0.19522633 0.091756247
0.49285722 -0.19581859 0.091746822
0.49239591 -0.19641088 0.09173739
0.4919346 -0.19700317 0.091727965
0.49147332 -0.19759545 0.09171854
0.49101198 -0.19818774 0.091709107
0.49055067 -0.19878003 0.091699682
0.49008939 -0.19937231 0.09169025
0.48962808 -0.1999646 0.091680825
0.48034254 -0.19921534 0.09367732
0.47883511 -0.19798304 0.094193071
0.47733027 -0.19674727 0.094708882
0.47582814 -0.19550815 0.095224738
0.47485238 -0.19517709 0.09547808
0.47335485 -0.19393197 0.095994055
0.47186002 -0.19268349 0.096510053
0.47088957 -0.19234559 0.096763492
0.46992037 -0.19200599 0.097016983
0.46895257 -0.1916647 0.097270489
0.46798611 -0.19132172 0.09752401
0.46702096 -0.19097702 0.097777568
0.46605709 -0.19063058 0.098031163
0.46509457 -0.19028251 0.098284774
0.46413338 -0.18993272 0.098538399
0.46317354 -0.1895812 0.098792069
0.4627308 -0.19014966 0.098783016
0.46177292 -0.18979561 0.099036716
0.46133086 -0.19036321 0.099027686
0.46037492 -0.19000657 0.099281445
0.45993352 -0.19057333 0.099272422
0.45897964 -0.19021419 0.099526212
0.45853886 -0.19078009 0.099517204
0.45758697 -0.19041838 0.099771023
0.45714685 -0.19098344 0.09976203
0.45619696 -0.19061917 0.10001589
0.45575753 -0.19118336 0.10000692
0.45531809 -0.19174758 0.09999793
0.45437083 -0.1913799 0.10025185
0.45393205 -0.19194327 0.10024288
0.45298675 -0.19157299 0.10049686
0.45254862 -0.19213553 0.1004879
0.4521105 -0.19269802 0.10047895
0.45167241 -0.19326052 0.10047
0.45123428 -0.19382302 0.10046104
0.45079619 -0.19438553 0.10045209
0.44985554 -0.19400935 0.10070614
0.4494181 -0.194571 0.1006972
0.44898066 -0.19513266 0.10068826
0.44854319 -0.19569431 0.10067932
0.44810575 -0.19625597 0.10067038
0.44766831 -0.19681759 0.10066144
0.44723085 -0.19737925 0.1006525
0.44629553 -0.19699627 0.10090666
0.44585875 -0.19755706 0.10089774
0.44542196 -0.19811787 0.10088881
0.44498515 -0.19867867 0.10087989
0.44405314 -0.19829144 0.10113411
0.44361705 -0.19885136 0.1011252
0.44318092 -0.19941133 0.10111628
0.44274479 -0.19997127 0.10110737
0.44045389 -0.19974479 0.10160713
0.43903789 -0.19839506 0.10212474
0.43811449 -0.19799677 0.10237914
0.49302682 -0.19356532 0.091331095
0.49364352 -0.19593999 0.090795152
0.49318153 -0.19653313 0.090785705
0.49271956 -0.19712627 0.090776265
0.4922576 -0.19771941 0.090766825
0.4917956 -0.19831255 0.090757385
0.49133363 -0.19890569 0.090747938
0.49087167 -0.19949883 0.090738498
0.4801313 -0.19903946 0.0929875
0.47862446 -0.19780767 0.093505256
0.47712025 -0.19657241 0.094023079
0.47561875 -0.19533381 0.094540939
0.47464329 -0.19500299 0.094795279
0.47314638 -0.19375838 0.095313258
0.47165215 -0.19251041 0.095831275
0.470682 -0.19217278 0.096085712
0.46971312 -0.19183342 0.096340202
0.46874565 -0.19149239 0.096594706
0.46777946 -0.19114967 0.096849233
0.46681461 -0.19080523 0.097103789
0.46585104 -0.19045906 0.097358391
0.46488884 -0.19011123 0.097613007
0.46392798 -0.18976168 0.097867638
0.46296844 -0.18941043 0.098122306
0.4625257 -0.1899789 0.098113261
0.46208295 -0.19054735 0.098104209
0.46112606 -0.1901927 0.098358922
0.46017045 -0.18983631 0.098613687
0.45972902 -0.19040307 0.098604664
0.45877543 -0.19004418 0.098859452
0.45833468 -0.19061008 0.098850444
0.4573831 -0.19024862 0.099105269
0.45694298 -0.19081369 0.099096276
0.45650288 -0.19137873 0.099087283
0.45606279 -0.19194379 0.099078283
0.45511451 -0.19157809 0.099333175
0.45467508 -0.19214228 0.099324197
0.4537288 -0.19177404 0.099579126
0.45329002 -0.19233738 0.099570163
0.45285124 -0.19290073 0.099561192
0.45241246 -0.1934641 0.099552229
0.45197368 -0.19402744 0.099543259
0.45103133 -0.19365405 0.099798299
0.45059323 -0.19421655 0.099789344
0.45015511 -0.19477905 0.099780396
0.44971702 -0.19534154 0.09977144
0.44927889 -0.19590405 0.099762484
0.44884077 -0.19646655 0.099753529
0.44840267 -0.19702905 0.099744573
0.44796455 -0.19759154 0.099735625
0.44752645 -0.19815405 0.099726669
0.44659075 -0.19777218 0.099981815
0.44615331 -0.19833383 0.099972874
0.44571584 -0.19889548 0.099963933
0.44527841 -0.19945714 0.099955
0.44434604 -0.19907099 0.10021022
0.44390926 -0.19963181 0.10020129
0.44117886 -0.19997089 0.10069405
0.43932739 -0.1991816 0.10120476
0.49342951 -0.1957618 0.09009631
0.49350521 -0.19724716 0.089822575
0.49304256 -0.19784117 0.089813121
0.49257994 -0.19843516 0.089803666
0.49211732 -0.19902913 0.089794211
0.49165466 -0.19962312 0.089784756
0.47992006 -0.19886357 0.092297681
0.47893894 -0.19854067 0.0925529
0.47743472 -0.19730683 0.093072698
0.4759331 -0.19606955 0.093592577
0.4744342 -0.1948289 0.094112478
0.47293788 -0.1935848 0.094632462
0.47144428 -0.19233733 0.095152482
0.47047445 -0.19199997 0.095407926
0.46950588 -0.19166087 0.095663421
0.4685387 -0.19132009 0.095918931
0.46757281 -0.19097762 0.096174456
0.46660829 -0.19063343 0.096430019
0.46564505 -0.19028752 0.096685626
0.46468315 -0.18993995 0.096941233
0.46372259 -0.18959066 0.09719687
0.46327919 -0.19015995 0.09718781
0.4623206 -0.18980813 0.097443491
0.46187785 -0.19037658 0.097434446
0.46092126 -0.19002219 0.097690158
0.46047917 -0.19058979 0.09768112
0.45952454 -0.19023281 0.097936906
0.45857126 -0.18987417 0.098192699
0.45813051 -0.19044009 0.098183692
0.45768973 -0.19100599 0.098174684
0.45724896 -0.19157189 0.098165676
0.45680821 -0.19213781 0.098156661
0.45585892 -0.19177404 0.098412529
0.45491093 -0.19140859 0.098668426
0.45447153 -0.19197279 0.098659448
0.45403206 -0.19253699 0.098650463
0.45359263 -0.19310121 0.098641485
0.45315319 -0.19366542 0.098632507
0.4522092 -0.19329487 0.098888479
0.45177042 -0.19385821 0.098879509
0.45133165 -0.19442156 0.098870546
0.4508929 -0.1949849 0.098861575
0.45045409 -0.19554827 0.098852612
0.45001534 -0.19611162 0.098843642
0.44957656 -0.19667496 0.098834671
0.44913778 -0.19723834 0.098825708
0.448699 -0.19780168 0.098816738
0.44826025 -0.19836503 0.098807774
0.44782144 -0.1989284 0.098798804
0.44688538 -0.19854757 0.09905497
0.44644725 -0.19911009 0.099046014
0.44600916 -0.19967259 0.099037066
0.44463831 -0.19985007 0.099284306
0.44097713 -0.19980294 0.10003532
0.4932155 -0.19558363 0.089397468
0.4932909 -0.19706872 0.089122735
0.49336502 -0.19855557 0.088847965
0.49290174 -0.1991504 0.088838495
0.49243844 -0.19974525 0.088829026
0.48121709 -0.19991511 0.091086134
0.47970882 -0.19868769 0.091607869
0.478728 -0.19836505 0.091864087
0.47670025 -0.19622269 0.092651464
0.47572342 -0.19589494 0.092907771
0.4742251 -0.19465481 0.093429677
0.47272941 -0.19341123 0.093951672
0.47175789 -0.19307667 0.094208077
0.4707877 -0.1927404 0.094464526
0.46981883 -0.19240244 0.094720982
0.46885124 -0.19206272 0.094977498
0.46788502 -0.19172135 0.095234022
0.46692011 -0.19137828 0.09549056
0.46595654 -0.19103351 0.095747143
0.46499428 -0.19068699 0.096003756
0.46403334 -0.19033882 0.096260391
0.46307376 -0.18998893 0.096517041
0.46263033 -0.19055824 0.096507974
0.46167275 -0.1902058 0.096764676
0.46071646 -0.18985167 0.097021401
0.46027437 -0.19041927 0.097012363
0.45983228 -0.1909869 0.097003333
0.45887861 -0.19062933 0.097260125
0.45843717 -0.19119608 0.097251102
0.45748556 -0.19083598 0.097507924
0.45704478 -0.1914019 0.097498916
0.45660403 -0.1919678 0.097489908
0.45565504 -0.1916043 0.097746775
0.45521495 -0.19216935 0.097737782
0.45477483 -0.19273442 0.097728781
0.45433474 -0.19329946 0.097719789
0.45338905 -0.19293173 0.097976737
0.45294964 -0.19349591 0.097967751
0.45251018 -0.19406013 0.097958773
0.45207074 -0.19462432 0.097949795
0.45163131 -0.19518854 0.09794081
0.45119187 -0.19575274 0.097931832
0.45075244 -0.19631696 0.097922847
0.450313 -0.19688115 0.097913869
0.44987357 -0.19744536 0.097904883
0.44943413 -0.19800955 0.097895905
0.4489947 -0.19857377 0.097886927
0.44805697 -0.19819579 0.098144025
