# .PCD v0.7 - Point Cloud Data file format
VERSION 0.7
FIELDS x y z
SIZE 4 4 4
TYPE F F F
COUNT 1 1 1
WIDTH 1392
HEIGHT 1
VIEWPOINT 0 0 0 1 0 0 0
POINTS 1392
DATA ascii
0.40813074 0.065261953 0.0065467567
0.40778807 0.064821988 0.0065397532
0.4074454 0.064382032 0.0065327496
0.40766153 0.063242689 0.0060078208
0.4073182 0.062801875 0.0060008038
0.40697488 0.062361069 0.0059937872
0.40663156 0.061920255 0.0059867701
0.40628821 0.061479446 0.0059797531
0.45312428 0.12053373 0.005890504
0.45278028 0.12009206 0.0058834734
0.45179224 0.12023978 0.0063936394
0.45080554 0.12038916 0.0069038174
0.44982019 0.12054025 0.0074140155
0.44883615 0.12069304 0.0079242475
0.44849482 0.12025478 0.007917271
0.44815347 0.11981652 0.0079102945
0.44717205 0.11997275 0.0084205959
0.446192 0.12013064 0.0089309094
0.44585198 0.11969408 0.0089239608
0.4448739 0.11985453 0.0094343079
0.44389716 0.12001669 0.009944682
0.44292176 0.12018053 0.01045509
0.44194764 0.12034612 0.01096554
0.44161025 0.11991297 0.010958645
0.44063815 0.12008107 0.011469121
0.43966737 0.12025089 0.011979617
0.43933135 0.11981943 0.01197275
0.43836257 0.11999179 0.012483293
0.43802717 0.1195612 0.012476439
0.43769181 0.11913059 0.012469584
0.43672562 0.11930639 0.012980198
0.43639091 0.11887664 0.012973356
0.43542677 0.11905496 0.013483995
0.43509272 0.11862607 0.013477168
0.43413055 0.11880694 0.01398784
0.43379715 0.11837889 0.013981026
0.43346378 0.11795084 0.013974212
0.43250427 0.11813512 0.014484939
0.43217152 0.11770792 0.014478139
0.43183881 0.11728073 0.014471338
0.4315061 0.11685353 0.014464539
0.43117335 0.11642633 0.014457738
0.43084064 0.11599914 0.014450938
0.42988577 0.11618937 0.014961773
0.42955372 0.11576302 0.014954986
0.42922163 0.11533668 0.0149482
0.42826939 0.11553035 0.015459097
0.42793798 0.11510486 0.015452323
0.42760658 0.11467937 0.015445551
0.42665702 0.1148764 0.015956488
0.42632627 0.11445176 0.015949728
0.42599553 0.11402712 0.015942968
0.42504862 0.11422756 0.016453952
0.42471856 0.11380377 0.016447205
0.42377359 0.11400678 0.016958248
0.42344418 0.11358385 0.016951516
0.42311478 0.1131609 0.016944783
0.42278537 0.11273796 0.016938051
0.42245597 0.11231502 0.016931318
0.42212653 0.11189208 0.016924586
0.42179713 0.11146914 0.016917853
0.42146772 0.1110462 0.016911121
0.42113832 0.11062326 0.016904389
0.42080888 0.11020032 0.016897656
0.42047948 0.10977738 0.016890924
0.42015007 0.10935444 0.016884191
0.41982067 0.1089315 0.016877459
0.41949123 0.10850856 0.016870726
0.41916183 0.10808562 0.016863994
0.41883242 0.10766267 0.016857261
0.41850302 0.10723974 0.016850529
0.41817358 0.1068168 0.016843796
0.41784418 0.10639385 0.016837064
0.41751477 0.1059709 0.016830331
0.41718534 0.10554796 0.016823599
0.41685593 0.10512503 0.016816866
0.41652653 0.10470209 0.016810134
0.41619712 0.10427915 0.016803401
0.41586772 0.10385621 0.016796669
0.41553828 0.10343327 0.016789937
0.41520888 0.10301033 0.016783204
0.41487947 0.10258739 0.016776472
0.41455007 0.10216445 0.016769739
0.41422063 0.1017415 0.016763007
0.41389123 0.10131856 0.016756274
0.41356182 0.10089562 0.016749542
0.41323239 0.10047268 0.016742809
0.41290298 0.10004974 0.016736077
0.41257358 0.099626802 0.016729344
0.41283584 0.098547265 0.01620435
0.41250578 0.098123476 0.016197603
0.41217569 0.097699687 0.016190857
0.41184562 0.097275898 0.016184112
0.41151553 0.096852109 0.016177366
0.41118547 0.096428312 0.016170619
0.41085538 0.096004516 0.016163873
0.41052532 0.095580727 0.016157128
0.41019523 0.095156938 0.016150381
0.41045085 0.094068915 0.015625268
0.4101201 0.093644269 0.01561851
0.40978938 0.09321963 0.01561175
0.40945864 0.092794985 0.015604991
0.40971091 0.091702707 0.015079803
0.40937954 0.091277212 0.015073029
0.40904814 0.090851724 0.015066257
0.40929782 0.089756005 0.014541
0.40896577 0.08932966 0.014534214
0.40863368 0.088903315 0.014527427
0.40888068 0.087804236 0.014002125
0.40854797 0.087377042 0.013995324
0.40879297 0.086275399 0.013469995
0.40845957 0.085847355 0.013463181
0.40870261 0.084743157 0.012937811
0.40836856 0.084314264 0.012930985
0.40860957 0.083207518 0.012405567
0.40827486 0.082777768 0.012398726
0.40851396 0.081668444 0.011873253
0.40817857 0.081237845 0.011866399
0.40841562 0.080125988 0.0113409
0.40807959 0.079694539 0.011334032
0.40831465 0.078580134 0.0108085
0.40797794 0.078147829 0.010801618
0.40764123 0.077715531 0.010794736
0.40787366 0.076597728 0.010269143
0.4075363 0.076164573 0.010262248
0.40719894 0.075731419 0.010255353
0.40742874 0.074610166 0.0097296899
0.40709069 0.07417617 0.0097227814
0.40675268 0.073742166 0.0097158728
0.4069798 0.072617553 0.009190171
0.4066411 0.072182693 0.0091832494
0.40686622 0.071055524 0.0086575132
0.40652686 0.070619822 0.0086505776
0.40731248 0.068796083 0.0076059541
0.40697181 0.068358675 0.0075989915
0.40719232 0.067225508 0.0070731388
0.40741149 0.066090688 0.0065472745
0.40762931 0.064954154 0.0060213897
0.40728664 0.064514197 0.0060143862
0.4075025 0.063375115 0.0054884544
0.40715915 0.062934302 0.0054814373
0.40681583 0.062493496 0.0054744203
0.4064725 0.062052682 0.0054674032
0.40557331 0.062314391 0.0059793694
0.45296493 0.12066641 0.005370134
0.45197651 0.12081302 0.0058812895
0.45098948 0.12096129 0.0063924571
0.45000377 0.12111127 0.0069036451
0.44901937 0.12126295 0.0074148667
0.44867805 0.12082469 0.0074078906
0.44769558 0.12097897 0.0079191616
0.44735491 0.12054156 0.007912199
0.44637451 0.12069834 0.0084235016
0.44603449 0.12026179 0.0084165521
0.44505605 0.12042113 0.0089278892
0.44407895 0.12058217 0.0094392532
0.44310319 0.12074492 0.0099506518
0.44276518 0.12031091 0.0099437423
0.44179136 0.12047625 0.010455197
0.44145396 0.12004309 0.010448301
0.4404822 0.12021095 0.010959781
0.43951172 0.1203805 0.01147128
0.43854257 0.12055174 0.011982813
0.43820721 0.12012114 0.011975959
0.43787181 0.11969054 0.011969104
0.43753645 0.11925995 0.01196225
0.43657055 0.11943549 0.012473866
0.43623585 0.11900574 0.012467026
0.43527201 0.1191838 0.012978667
0.43430951 0.11936357 0.013490329
0.43397611 0.11893553 0.013483516
0.43364272 0.11850747 0.013476702
0.43268287 0.11869065 0.013988419
0.43235013 0.11826345 0.013981618
0.43201742 0.11783625 0.013974817
0.43168467 0.11740906 0.013968018
0.43135196 0.11698186 0.013961217
0.43101922 0.11655467 0.013954417
0.4306865 0.11612748 0.013947617
0.42973194 0.11631745 0.014459449
0.42939988 0.11589111 0.014452661
0.42906782 0.11546476 0.014445875
0.42811587 0.11565817 0.014957776
0.42778447 0.11523268 0.014951003
0.42683455 0.11542861 0.015462929
0.42650381 0.11500397 0.01545617
0.42617306 0.11457933 0.01544941
0.42522579 0.11477867 0.015961384
0.4248957 0.11435487 0.015954638
0.42456564 0.11393108 0.015947891
0.423621 0.11413384 0.016459936
0.42329159 0.1137109 0.016453205
0.42296219 0.11328796 0.016446473
0.42263275 0.11286502 0.01643974
0.42230335 0.11244208 0.016433008
0.42197394 0.11201914 0.016426275
0.42164454 0.1115962 0.016419543
0.4213151 0.11117326 0.016412809
0.4209857 0.11075032 0.016406078
0.42065629 0.11032737 0.016399344
0.42032689 0.10990443 0.016392613
0.41999748 0.1094815 0.016385879
0.41966805 0.10905855 0.016379148
0.41933864 0.10863561 0.016372414
0.41900924 0.10821267 0.016365683
0.4186798 0.10778973 0.016358949
0.4183504 0.10736679 0.016352218
0.41802099 0.10694385 0.016345486
0.41769159 0.10652091 0.016338753
0.41736215 0.10609796 0.016332021
0.41703275 0.10567502 0.016325288
0.41670334 0.10525209 0.016318556
0.41637394 0.10482914 0.016311822
0.4160445 0.1044062 0.016305091
0.4157151 0.10398326 0.016298357
0.41538569 0.10356032 0.016291626
0.41505629 0.10313738 0.016284892
0.41472685 0.10271444 0.016278161
0.41439745 0.1022915 0.016271427
0.41406804 0.10186855 0.016264696
0.41373864 0.10144562 0.016257962
0.4134092 0.10102268 0.016251231
0.4130798 0.10059974 0.016244497
0.41275039 0.1001768 0.016237766
0.41242099 0.099753857 0.016231034
0.41209155 0.09933091 0.0162243
0.41176215 0.098907977 0.016217569
0.41143274 0.098485038 0.016210835
0.41110334 0.098062091 0.016204104
0.4107739 0.097639151 0.01619737
0.41103256 0.09655562 0.015671305
0.41070247 0.096131831 0.015664559
0.41037241 0.095708042 0.015657812
0.41004235 0.095284246 0.015651068
0.40971226 0.094860457 0.015644321
0.40996689 0.093771838 0.015118191
0.40963617 0.093347199 0.015111431
0.40930542 0.092922553 0.015104672
0.4095574 0.091830529 0.014578482
0.409226 0.091405034 0.014571709
0.4088946 0.090979546 0.014564936
0.4085632 0.090554051 0.014558163
0.40823179 0.090128556 0.014551389
0.40847987 0.089031391 0.014025102
0.40872657 0.087932572 0.013498804
0.40839383 0.08750537 0.013492004
0.40806112 0.087078184 0.013485203
0.40830514 0.085975945 0.012958857
0.40797174 0.085547894 0.012952044
0.40821379 0.084443107 0.012425657
0.40845454 0.083336622 0.011899237
0.4081198 0.082906872 0.011892395
0.4083586 0.081797794 0.011365919
0.40802321 0.081367195 0.011359065
0.40825996 0.080255598 0.010832563
0.40792391 0.07982415 0.010825695
0.40815866 0.078709997 0.010299159
0.40782198 0.0782777 0.010292278
0.40748528 0.077845395 0.010285396
0.40771738 0.076727845 0.0097587993
0.40738001 0.07629469 0.0097519038
0.40704265 0.075861543 0.0097450092
0.40727213 0.074740551 0.0092183426
0.40693411 0.074306548 0.0092114341
0.40659609 0.073872544 0.0092045255
0.40625805 0.07343854 0.0091976169
0.40648419 0.072313331 0.0086708982
0.40614551 0.071878478 0.0086639766
0.40636966 0.070750713 0.0081372242
0.40659249 0.069621243 0.0076104444
0.40681398 0.068490081 0.0070836311
0.40703422 0.067357168 0.0065567819
0.40725306 0.066222601 0.0060299141
0.40691105 0.065783493 0.0060229246
0.40712792 0.064646363 0.0054960228
0.40541458 0.062446561 0.005461006
0.45250413 0.12182707 0.0053759497
0.45216081 0.12138625 0.0053689331
0.45117339 0.12153342 0.0058810902
0.45018733 0.12168229 0.0063932678
0.4492026 0.12183287 0.0069054794
0.44886124 0.12139461 0.0068985033
0.44787845 0.12154777 0.0074107707
0.44753778 0.12111036 0.0074038077
0.44655702 0.12126604 0.0079161003
0.446217 0.12082949 0.0079091517
0.4452382 0.12098772 0.0084214779
0.44426075 0.12114766 0.0089338254
0.44392207 0.12071281 0.0089269029
0.44294661 0.1208753 0.0094393045
0.44197243 0.12103952 0.009951748
0.44163507 0.12060637 0.0099448524
0.44066292 0.12077311 0.010457322
0.44032621 0.12034081 0.01045044
0.43935606 0.12051011 0.010962943
0.43838722 0.1206811 0.011475479
0.43805185 0.1202505 0.011468625
0.43771645 0.1198199 0.011461771
0.43738109 0.1193893 0.011454917
0.43641552 0.11956459 0.011967536
0.43608081 0.11913484 0.011960695
0.43511727 0.11931265 0.012473334
0.43415505 0.11949216 0.012985999
0.43382168 0.11906411 0.012979185
0.43286145 0.11924618 0.01349189
0.43252873 0.11881898 0.013485091
0.43219599 0.11839178 0.01347829
0.43186328 0.11796459 0.01347149
0.43153054 0.11753739 0.01346469
0.43119782 0.1171102 0.01345789
0.43086508 0.11668301 0.013451089
0.43053237 0.1162558 0.01344429
0.42957813 0.11644553 0.013957124
0.42924604 0.11601918 0.013950338
0.42829373 0.11621149 0.014463228
0.42796233 0.11578599 0.014456455
0.42701206 0.11598082 0.014969371
0.42668134 0.11555618 0.014962612
0.42635059 0.11513153 0.014955852
0.42601985 0.1147069 0.014949093
0.42507288 0.11490598 0.015462069
0.42474282 0.11448219 0.015455323
0.42441273 0.11405839 0.015448577
0.42346841 0.1142609 0.015961619
0.42313901 0.11383796 0.015954887
0.42280957 0.11341502 0.015948154
0.42248017 0.11299207 0.015941422
0.42215076 0.11256914 0.015934689
0.42182133 0.11214619 0.015927957
0.42149192 0.11172325 0.015921224
0.42116252 0.11130031 0.015914492
0.42083311 0.11087737 0.015907759
0.42050371 0.11045443 0.015901027
0.42017427 0.11003149 0.015894294
0.41984487 0.10960855 0.015887562
0.41951546 0.10918561 0.015880829
0.41918606 0.10876267 0.015874097
0.41885662 0.10833973 0.015867364
0.41852722 0.10791679 0.015860632
0.41819781 0.10749385 0.0158539
0.41786841 0.10707091 0.015847167
0.41753897 0.10664796 0.015840435
0.41720957 0.10622502 0.015833702
0.41688016 0.10580208 0.01582697
0.41655076 0.10537914 0.015820237
0.41622132 0.10495619 0.015813505
0.41589192 0.10453326 0.015806772
0.41556251 0.10411032 0.01580004
0.41523311 0.10368738 0.015793307
0.41490367 0.10326444 0.015786575
0.41457427 0.1028415 0.015779842
0.41424486 0.10241856 0.01577311
0.41391543 0.10199562 0.015766377
0.41358602 0.10157268 0.015759645
0.41325662 0.10114974 0.015752913
0.41292721 0.10072679 0.01574618
0.41259781 0.10030385 0.015739448
0.41226837 0.099880911 0.015732715
0.41193897 0.099457972 0.015725983
0.41160956 0.099035032 0.01571925
0.41128016 0.098612092 0.015712518
0.41095072 0.098189145 0.015705785
0.41062132 0.097766206 0.015699053
0.41029191 0.097343273 0.01569232
0.41054958 0.096259139 0.015165244
0.41021949 0.09583535 0.015158499
0.40988943 0.095411561 0.015151752
0.40955934 0.094987772 0.015145007
0.40981367 0.093899406 0.014617873
0.40948296 0.093474761 0.014611114
0.40915221 0.093050122 0.014604354
0.40882146 0.092625476 0.014597595
0.40849075 0.092200838 0.014590835
0.40874109 0.091107368 0.014063614
0.40840968 0.090681873 0.014056842
0.40807828 0.090256378 0.014050068
0.40832603 0.089159474 0.013522779
0.40799397 0.088733122 0.013515991
0.40823969 0.087633707 0.012988676
0.40790698 0.087206513 0.012981876
0.4081507 0.086104535 0.012454526
0.4078173 0.085676484 0.012447713
0.40805906 0.084571958 0.011920323
0.40772501 0.084143057 0.011913495
0.40796477 0.083035968 0.011386065
0.40820321 0.08192715 0.010858585
0.40786785 0.081496552 0.010851731
0.4081043 0.080385208 0.010324226
0.40776825 0.07995376 0.010317357
0.4080027 0.078839868 0.009789818
0.407666 0.078407563 0.0097829364
0.40732929 0.077975266 0.0097760558
0.40756109 0.076857969 0.0092484551
0.40722373 0.076424815 0.0092415605
0.40688637 0.07599166 0.009234665
0.40711555 0.074870929 0.0087069962
0.40677753 0.074436925 0.0087000877
0.40643948 0.074002922 0.0086931791
0.40610147 0.073568918 0.0086862696
0.40632731 0.072443962 0.0081585478
0.4059886 0.072009116 0.0081516262
0.4056499 0.071574256 0.0081447037
0.40643498 0.069752388 0.0070960941
0.40665618 0.068621479 0.0065682773
0.40631548 0.06818407 0.0065613147
0.40653473 0.067050569 0.006033442
0.40675262 0.065915406 0.0055055576
0.4517 0.12254551 0.0053767338
0.45135733 0.12210555 0.0053697303
0.45037091 0.12225331 0.0058828974
0.44938582 0.12240278 0.006396099
0.44840199 0.12255399 0.0069093355
0.44806132 0.12211658 0.0069023729
0.44772065 0.12167918 0.0068954104
0.44673952 0.12183375 0.007408693
0.44639951 0.12139719 0.0074017434
0.44542035 0.12155432 0.00791506
0.44508103 0.12111861 0.0079081245
0.44410387 0.12127829 0.0084214816
0.44312805 0.12143968 0.0089348657
0.44279003 0.12100568 0.0089279572
0.44181615 0.12116965 0.0094414037
0.44084364 0.12133528 0.0099548623
0.44050694 0.12090298 0.0099479808
0.43953642 0.12107117 0.010461474
0.43920037 0.12063972 0.010454605
0.43823186 0.12081046 0.010968138
0.43789646 0.12037986 0.010961284
0.43756109 0.11994926 0.01095443
0.43722573 0.11951866 0.010947576
0.43626046 0.1196937 0.011461198
0.43592575 0.11926395 0.011454358
0.43496251 0.11944149 0.011968006
0.43400061 0.11962075 0.012481675
0.43366724 0.1191927 0.012474861
0.43270731 0.11937451 0.012988563
0.4323746 0.11894731 0.012981763
0.43204185 0.11852012 0.012974963
0.43170914 0.11809292 0.012968162
0.4313764 0.11766573 0.012961362
0.43104368 0.11723853 0.012954562
0.43071097 0.11681134 0.012947762
0.43037823 0.11638414 0.012940962
0.42942429 0.11657361 0.0134548
0.42909223 0.11614726 0.013448013
0.42814022 0.11633931 0.013961907
0.42780882 0.11591382 0.013955134
0.42685884 0.11610839 0.014469054
0.42652813 0.11568374 0.014462293
0.42619738 0.1152591 0.014455534
0.42586663 0.11483446 0.014448774
0.42491999 0.11503329 0.014962748
0.4245899 0.11460949 0.014956002
0.42425984 0.11418571 0.014949256
0.42331579 0.11438795 0.015463307
0.42298639 0.11396501 0.015456576
0.42265698 0.11354207 0.015449843
0.42232758 0.11311913 0.015443111
0.42199814 0.11269619 0.015436378
0.42166874 0.11227325 0.015429646
0.42133933 0.11185031 0.015422913
0.42100993 0.11142737 0.015416181
0.42068052 0.11100443 0.015409448
0.42035109 0.11058149 0.015402716
0.42002168 0.11015855 0.015395983
0.41969228 0.10973561 0.015389251
0.41936284 0.10931266 0.015382518
0.41903344 0.10888972 0.015375786
0.41870403 0.10846678 0.015369053
0.41837463 0.10804384 0.01536232
0.41804519 0.1076209 0.015355589
0.41771579 0.10719796 0.015348856
0.41738638 0.10677502 0.015342124
0.41705698 0.10635208 0.015335391
0.41672754 0.10592914 0.015328659
0.41639814 0.1055062 0.015321926
0.41606873 0.10508325 0.015315194
0.41573933 0.10466031 0.015308461
0.41540989 0.10423738 0.015301729
0.41508049 0.10381444 0.015294996
0.41475108 0.10339149 0.015288264
0.41442168 0.10296855 0.015281531
0.41409224 0.10254561 0.015274798
0.41376284 0.10212267 0.015268066
0.41343343 0.10169973 0.015261333
0.41310403 0.10127679 0.015254602
0.41277459 0.10085385 0.015247869
0.41244519 0.10043091 0.015241137
0.41211578 0.10000797 0.015234404
0.41178638 0.099585027 0.015227672
0.41145694 0.099162087 0.015220939
0.41112754 0.098739147 0.015214207
0.41079813 0.0983162 0.015207474
0.41046873 0.09789326 0.015200742
0.41013932 0.097470328 0.015194009
0.40980989 0.097047381 0.015187277
0.4100666 0.095962666 0.014659177
0.40973651 0.09553887 0.014652431
0.40940645 0.09511508 0.014645685
0.40907636 0.094691284 0.014638939
0.4087463 0.094267495 0.014632193
0.40841621 0.093843706 0.014625447
0.40808615 0.093419917 0.014618701
0.40833753 0.092328399 0.014090518
0.40800679 0.091903761 0.014083758
0.40825617 0.090809695 0.01355552
0.40792477 0.0903842 0.013548748
0.40817222 0.089287549 0.013020454
0.40784013 0.088861205 0.013013667
0.40750808 0.08843486 0.013006881
0.40775284 0.087334849 0.012478548
0.4074201 0.086907655 0.012471748
0.40766287 0.085805073 0.011943389
0.4073295 0.08537703 0.011936575
0.40757024 0.0842719 0.011408168
0.40723622 0.083843 0.01140134
0.40747499 0.082735322 0.010872887
0.40771249 0.081625909 0.01034439
0.40737709 0.08119531 0.010337535
0.40761259 0.08008337 0.00980902
0.40727654 0.079651922 0.0098021524
0.40751001 0.078537434 0.0092735961
0.40717331 0.078105129 0.0092667146
0.4068366 0.077672832 0.009259833
0.40706745 0.076554939 0.0087312162
0.40673009 0.076121785 0.0087243216
0.40639272 0.075688638 0.0087174261
0.40662092 0.074567311 0.0081887404
0.4062829 0.074133299 0.0081818318
0.40594488 0.073699296 0.0081749232
0.40560684 0.073265299 0.0081680147
0.40583172 0.072139747 0.0076392824
0.40549302 0.071704887 0.0076323603
0.40571588 0.070576787 0.0071035875
0.40593743 0.069446981 0.0065747881
0.40615767 0.068315469 0.0060459543
0.4063766 0.067182221 0.0055170851
0.4508965 0.12326345 0.0053795101
0.45055449 0.12282434 0.0053725205
0.44956902 0.1229727 0.0058867116
0.44858485 0.1231228 0.0064009451
0.44824418 0.12268539 0.0063939821
0.44726205 0.12283801 0.0069082412
0.44692203 0.12240145 0.0069012917
0.44594187 0.12255662 0.0074155773
0.44560251 0.12212092 0.0074086417
0.44526315 0.12168521 0.0074017062
0.44428566 0.12184379 0.0079160528
0.44330949 0.12200406 0.0084304269
0.44297147 0.12157006 0.0084235184
0.44199723 0.12173292 0.0089379549
0.44102436 0.12189745 0.0094524035
0.44068766 0.12146515 0.009445522
0.44035095 0.12103285 0.0094386404
0.43938076 0.12120079 0.0099531291
0.43904471 0.12076934 0.0099462615
0.4380765 0.12093981 0.010460804
0.4377411 0.12050921 0.010453951
0.43740574 0.12007862 0.010447096
0.43707034 0.11964802 0.010440242
0.4361054 0.11982279 0.010954868
0.43577069 0.11939304 0.010948027
0.43480778 0.11957034 0.011462672
0.43384618 0.11974934 0.011977344
0.43351278 0.11932129 0.01197053
0.43255317 0.11950284 0.012485242
0.43222046 0.11907565 0.012478442
0.43188772 0.11864845 0.012471642
0.431555 0.11822125 0.012464842
0.43122229 0.11779406 0.012458041
0.43088955 0.11736687 0.012451242
0.43055683 0.11693967 0.012444441
0.42960253 0.11712803 0.012959262
0.42927045 0.11670168 0.012952476
0.42831811 0.11689263 0.013467359
0.42798671 0.11646713 0.013460586
0.42765531 0.11604165 0.013453812
0.42670563 0.11623596 0.013968735
0.42637491 0.11581131 0.013961975
0.42604417 0.11538667 0.013955216
0.42571342 0.11496203 0.013948456
0.42476708 0.1151606 0.014463433
0.42443699 0.11473681 0.014456687
0.42410693 0.11431301 0.014449941
0.42316321 0.11451501 0.014964997
0.4228338 0.11409207 0.014958264
0.4225044 0.11366913 0.014951532
0.42217496 0.11324618 0.014944799
0.42184556 0.11282325 0.014938067
0.42151615 0.1124003 0.014931334
0.42118675 0.11197736 0.014924602
0.42085731 0.11155442 0.014917869
0.42052791 0.11113148 0.014911138
0.4201985 0.11070854 0.014904405
0.41926208 0.11091987 0.015419591
0.41953966 0.10986266 0.01489094
0.41921026 0.10943972 0.014884207
0.41888085 0.10901678 0.014877475
0.41855145 0.10859384 0.014870742
0.41822201 0.1081709 0.01486401
0.41789261 0.10774796 0.014857277
0.4175632 0.10732502 0.014850545
0.41723379 0.10690207 0.014843812
0.41690436 0.10647913 0.01483708
0.41657495 0.10605619 0.014830347
0.41624555 0.10563325 0.014823615
0.41591612 0.1052103 0.014816882
0.41558671 0.10478736 0.01481015
0.4152573 0.10436443 0.014803418
0.4149279 0.10394149 0.014796685
0.41459849 0.10351855 0.014789953
0.41426906 0.10309561 0.01478322
0.41393965 0.10267267 0.014776488
0.41361025 0.10224973 0.014769755
0.41328084 0.10182679 0.014763023
0.41295141 0.10140385 0.01475629
0.412622 0.1009809 0.014749558
0.4122926 0.10055796 0.014742825
0.41196319 0.10013502 0.014736093
0.41163376 0.099712081 0.01472936
0.41130435 0.099289142 0.014722628
0.41097495 0.098866202 0.014715895
0.41064554 0.098443255 0.014709163
0.41031611 0.098020315 0.014702431
0.4099867 0.097597383 0.014695698
0.4096573 0.097174436 0.014688966
0.40932789 0.096751496 0.014682233
0.40958363 0.095666185 0.014153116
0.40925354 0.095242396 0.014146371
0.40892345 0.0948186 0.014139624
0.40859339 0.094394803 0.014132879
0.40826333 0.093971014 0.014126132
0.40793324 0.093547225 0.014119387
0.40760317 0.093123436 0.01411264
0.40727308 0.092699647 0.014105895
0.40752283 0.091606677 0.013576681
0.40777126 0.090512022 0.013047426
0.40743986 0.090086535 0.013040653
0.40768632 0.08898928 0.012511343
0.40735427 0.088562943 0.012504556
0.40702221 0.088136598 0.01249777
0.40726599 0.087035984 0.011968427
0.40750843 0.085933663 0.011439058
0.40717503 0.08550562 0.011432244
0.40741551 0.084400743 0.010902834
0.40708145 0.083971851 0.010896007
0.40731993 0.082864426 0.010366555
0.40755713 0.081755266 0.0098370556
0.40722173 0.081324659 0.009830201
0.4074569 0.080212988 0.0093006762
0.40712085 0.079781532 0.0092938077
0.40735406 0.078667298 0.0087642558
0.40701735 0.078235 0.0087573742
0.40668064 0.077802695 0.0087504927
0.40691116 0.076685064 0.0082208728
0.4065738 0.076251909 0.0082139773
0.40623644 0.075818762 0.0082070827
0.40589905 0.075385608 0.0082001872
0.40612632 0.074263677 0.0076704845
0.40578827 0.073829673 0.0076635755
0.40545025 0.073395677 0.0076566674
0.40511224 0.072961673 0.0076497584
0.40533611 0.071835525 0.00712001
0.40499744 0.071400672 0.0071130879
0.40577993 0.069578126 0.0060604378
0.40599984 0.068446867 0.0055306004
0.4062185 0.06731388 0.0050007217
0.44975224 0.12354261 0.0053773313
0.44941092 0.12310436 0.0053703547
0.44842705 0.1232542 0.0058855843
0.44744456 0.12340571 0.0064008334
0.44710451 0.12296915 0.0063938838
0.44612402 0.12312321 0.0069091595
0.44578466 0.12268751 0.0069022239
0.44480616 0.12284413 0.0074175466
0.44446746 0.12240928 0.0074106245
0.44349092 0.12256844 0.0079259956
0.44251567 0.12272935 0.0084414007
0.44217831 0.1222962 0.0084345061
0.44120508 0.12245962 0.0089499447
0.44086841 0.12202732 0.0089430632
0.4405317 0.12159502 0.0089361817
0.43956113 0.12176184 0.0094516603
0.43922508 0.1213304 0.0094447918
0.43888906 0.12089895 0.0094379243
0.43792114 0.12106917 0.0099534709
0.43758574 0.12063857 0.0099466164
0.43725038 0.12020797 0.0099397618
0.43691498 0.11977737 0.0099329073
0.43595034 0.1199519 0.01044853
0.43561563 0.11952215 0.010441689
0.43465301 0.11969919 0.010957344
0.43369174 0.11987793 0.01147302
0.43335834 0.11944988 0.011466206
0.43239906 0.11963118 0.011981915
0.43206632 0.11920398 0.011975114
0.43173361 0.11877678 0.011968315
0.43140087 0.11834959 0.011961514
0.43106815 0.1179224 0.011954714
0.43073541 0.1174952 0.011947914
0.42978075 0.11768245 0.012463732
0.42944869 0.1172561 0.012456944
0.42911664 0.11682976 0.012450158
0.42816457 0.11702045 0.012966038
0.42783317 0.11659496 0.012959265
0.42750177 0.11616947 0.012952492
0.42655241 0.11636352 0.013468417
0.4262217 0.11593888 0.013461658
0.42589095 0.11551423 0.013454898
0.42494425 0.1157117 0.013970865
0.42461416 0.11528791 0.013964118
0.4242841 0.11486412 0.013957373
0.42395401 0.11444033 0.013950626
0.42301062 0.11464206 0.014466685
0.42268121 0.11421912 0.014459954
0.42235178 0.11379618 0.014453221
0.42202237 0.11337324 0.014446489
0.42169297 0.1129503 0.014439756
0.42136353 0.11252736 0.014433024
0.42103413 0.11210442 0.014426291
0.42070472 0.11168148 0.014419558
0.41976729 0.11189085 0.014935714
0.42004588 0.1108356 0.014406093
0.41910979 0.11104667 0.014922276
0.41938707 0.10998972 0.014392628
0.41905767 0.10956677 0.014385896
0.41872826 0.10914383 0.014379163
0.41839883 0.1087209 0.014372431
0.41806942 0.10829795 0.014365698
0.41774002 0.10787501 0.014358967
0.41741061 0.10745207 0.014352234
0.41708118 0.10702913 0.014345502
0.41675177 0.10660619 0.014338769
0.41642237 0.10618325 0.014332036
0.41609296 0.10576031 0.014325304
0.41576353 0.10533736 0.014318571
0.41543412 0.10491442 0.014311839
0.41510472 0.10449149 0.014305106
0.41477531 0.10406855 0.014298374
0.41444588 0.1036456 0.014291641
0.41411647 0.10322266 0.014284909
0.41378707 0.10279972 0.014278176
0.41345763 0.10237678 0.014271444
0.41312823 0.10195384 0.014264711
0.41279882 0.1015309 0.01425798
0.41246942 0.10110795 0.014251247
0.41214001 0.10068502 0.014244515
0.41181058 0.10026208 0.014237782
0.41148117 0.099839136 0.014231049
0.41115177 0.099416196 0.014224317
0.41082236 0.098993257 0.014217584
0.41049293 0.09857031 0.014210852
0.41016352 0.098147377 0.014204119
0.40983412 0.097724438 0.014197387
0.40950468 0.097301491 0.014190654
0.40917528 0.096878551 0.014183922
0.40943071 0.095793493 0.013653802
0.40910062 0.095369704 0.013647056
0.40877056 0.094945908 0.01364031
0.40844047 0.094522119 0.013633564
0.40811041 0.09409833 0.013626818
0.40778032 0.093674533 0.013620072
0.40745026 0.093250744 0.013613326
0.4071202 0.092826955 0.01360658
0.40736961 0.091734245 0.013076363
0.40703887 0.091309607 0.013069604
0.40728632 0.090214357 0.012539332
0.40753248 0.089117356 0.012009026
0.40720043 0.088691019 0.012002239
0.40686837 0.088264674 0.011995452
0.40711185 0.08716432 0.0114651
0.40677911 0.086737119 0.011458299
0.4070206 0.085634209 0.01092792
0.40726075 0.084529586 0.010397507
0.40692672 0.084100693 0.010390679
0.40716487 0.082993522 0.0098602185
0.40740177 0.081884623 0.0093297223
0.40706638 0.081454016 0.0093228677
0.40730125 0.080342598 0.0087923389
0.4069652 0.07991115 0.0087854704
0.40719807 0.078797169 0.0082549155
0.40686136 0.078364864 0.0082480339
0.40652466 0.077932566 0.0082411524
0.40618795 0.077500269 0.0082342708
0.40641752 0.076382034 0.0077036335
0.40608016 0.075948887 0.0076967385
0.40574276 0.075515732 0.0076898434
0.4054054 0.075082578 0.0076829484
0.40563169 0.073960051 0.0071522356
0.40529367 0.073526055 0.0071453271
0.40495563 0.073092043 0.0071384185
0.40517923 0.071966156 0.0066076592
0.40484053 0.071531311 0.0066007371
0.40562242 0.069709271 0.0055460809
0.40584204 0.068578273 0.0050152401
0.44860992 0.12382301 0.0053771939
0.44762704 0.12397341 0.0058934251
0.44664553 0.12412552 0.0064096837
0.44630617 0.12368982 0.0064027482
0.44596681 0.12325411 0.0063958126
0.44498795 0.12340961 0.0069121183
0.44464925 0.12297476 0.0069051962
0.44367236 0.12313282 0.0074215564
0.44269675 0.12329262 0.0079379519
0.44235939 0.12285947 0.0079310574
0.44138584 0.12302179 0.008447485
0.44104913 0.12258948 0.0084406035
0.44071242 0.12215719 0.008433722
0.43974149 0.12232291 0.0089501906
0.43940544 0.12189145 0.008943323
0.43906942 0.12146001 0.0089364545
0.43873337 0.12102856 0.008929587
0.43776578 0.12119853 0.0094461367
0.43743038 0.12076793 0.0094392821
0.43709502 0.12033733 0.0094324276
0.43675962 0.11990672 0.009425574
0.43579531 0.12008099 0.0099421991
0.43546057 0.11965124 0.0099353585
0.43449828 0.11982803 0.010452017
0.4335373 0.12000652 0.010968689
0.43320391 0.11957847 0.010961874
0.43224493 0.11975951 0.011478587
0.43191218 0.11933231 0.011471787
0.43157947 0.11890512 0.011464987
0.43124673 0.11847793 0.011458186
0.43091401 0.11805073 0.011451386
0.43058127 0.11762353 0.011444586
0.42962694 0.11781053 0.011961407
0.42929488 0.11738418 0.01195462
0.42834246 0.11757377 0.01247149
0.42801106 0.11714827 0.012464717
0.42767966 0.11672278 0.012457944
0.42734826 0.11629729 0.012451171
0.4263992 0.11649109 0.0129681
0.42606848 0.11606645 0.01296134
0.42573774 0.1156418 0.012954581
0.42479134 0.11583901 0.01347155
0.42446128 0.11541522 0.013464805
0.42413118 0.11499143 0.013458058
0.42380112 0.11456764 0.013451313
0.422858 0.11476912 0.013968375
0.42252859 0.11434618 0.013961642
0.42219919 0.11392324 0.01395491
0.42186978 0.1135003 0.013948177
0.42154035 0.11307736 0.013941444
0.42121094 0.11265441 0.013934712
0.42088154 0.11223147 0.013927979
0.42055213 0.11180853 0.013921247
0.419615 0.11201765 0.014438407
0.41989329 0.11096265 0.013907783
0.4189575 0.11117347 0.014424969
0.41923448 0.11011677 0.013894318
0.41890505 0.10969383 0.013887585
0.41857564 0.10927089 0.013880853
0.41824624 0.10884795 0.01387412
0.41791683 0.10842501 0.013867388
0.4175874 0.10800207 0.013860655
0.41725799 0.10757913 0.013853922
0.41692859 0.10715619 0.01384719
0.41659918 0.10673324 0.013840457
0.41626975 0.1063103 0.013833725
0.41594034 0.10588736 0.013826992
0.41561094 0.10546441 0.01382026
0.41528153 0.10504148 0.013813527
0.4149521 0.10461854 0.013806796
0.41462269 0.1041956 0.013800063
0.41429329 0.10377266 0.013793331
0.41396388 0.10334972 0.013786598
0.41363445 0.10292678 0.013779866
0.41330504 0.10250384 0.013773133
0.41297564 0.1020809 0.013766401
0.41264623 0.10165796 0.013759668
0.4123168 0.10123501 0.013752935
0.41198739 0.10081207 0.013746203
0.41165799 0.10038914 0.01373947
0.41132858 0.099966191 0.013732738
0.41099915 0.099543251 0.013726005
0.41066974 0.099120311 0.013719273
0.41034034 0.098697364 0.01371254
0.41001093 0.098274432 0.013705809
0.4096815 0.097851492 0.013699076
0.40935209 0.097428545 0.013692344
0.40902269 0.097005606 0.013685611
0.40869328 0.096582666 0.013678879
0.40894774 0.095497012 0.013147742
0.40861765 0.095073216 0.013140996
0.40828758 0.094649427 0.013134249
0.40795749 0.094225638 0.013127504
0.40762743 0.093801849 0.013120757
0.40729734 0.09337806 0.013114012
0.40696728 0.092954263 0.013107265
0.40663719 0.092530467 0.01310052
0.40688565 0.091437168 0.012569286
0.40655494 0.09101253 0.012562526
0.4068014 0.089916684 0.012031238
0.40704662 0.088819094 0.011499914
0.40671456 0.088392749 0.011493128
0.40638247 0.087966405 0.011486341
0.40662497 0.086865455 0.010954971
0.40686616 0.085762799 0.010423589
0.40710601 0.084658429 0.0098921787
0.40677196 0.084229536 0.0098853521
0.40700981 0.083122626 0.0093538873
0.40724641 0.08201398 0.008822388
0.40691102 0.081583373 0.0088155335
0.40657565 0.081152774 0.0088086789
0.40680954 0.08004076 0.0082771331
0.40647349 0.079609305 0.0082702655
0.40670538 0.078494735 0.0077386932
0.40636867 0.07806243 0.0077318116
0.406032 0.077630132 0.0077249301
0.40626124 0.076512158 0.0071932897
0.40592387 0.076079011 0.0071863947
0.40558651 0.075645857 0.0071794996
0.40524912 0.075212702 0.0071726046
0.40491176 0.074779548 0.0071657095
0.40513709 0.073656432 0.0066339797
0.40479904 0.073222429 0.0066270712
0.40502232 0.072096795 0.0060953088
0.40468365 0.071661942 0.0060883868
0.40546492 0.069840416 0.0050317235
0.44746953 0.12410455 0.0053790752
0.44648832 0.12425641 0.0058963299
0.44614896 0.1238207 0.0058893943
0.44516975 0.12397511 0.00640669
0.44483104 0.12354025 0.0063997679
0.4438538 0.12369721 0.0069171181
0.44351578 0.1232632 0.0069102095
0.44254047 0.12342275 0.0074276081
0.44156656 0.12358396 0.0079450188
0.44122985 0.12315165 0.0079381373
0.44025791 0.12331542 0.0084555894
0.43992186 0.12288397 0.0084487209
0.43958583 0.12245252 0.0084418533
0.43924978 0.12202107 0.0084349858
0.43891373 0.12158962 0.0084281173
0.43857771 0.12115817 0.0084212497
0.43761039 0.12132788 0.0089387959
0.43727502 0.12089729 0.0089319414
0.43693966 0.12046669 0.0089250868
0.43660426 0.12003609 0.0089182323
0.43564025 0.1202101 0.0094358688
0.43530554 0.11978035 0.0094290283
0.43434352 0.11995687 0.0099466825
0.43338287 0.12013511 0.010464357
0.43304947 0.11970706 0.010457544
0.43209079 0.11988784 0.010975266
0.43175805 0.11946065 0.010968466
0.43142533 0.11903345 0.010961666
0.43109259 0.11860625 0.010954865
0.43075988 0.11817906 0.010948066
0.42980516 0.11836495 0.011465869
0.4294731 0.11793861 0.011459082
0.42914104 0.11751226 0.011452296
0.42818895 0.11770159 0.011970169
0.42785755 0.11727609 0.011963395
0.42752615 0.11685061 0.011956623
0.42657673 0.1170433 0.012474542
0.42624599 0.11661866 0.012467782
0.42591527 0.11619401 0.012461022
0.42558452 0.11576937 0.012454263
0.42463845 0.11596633 0.012972236
0.42430836 0.11554253 0.01296549
0.4239783 0.11511874 0.012958744
0.42364821 0.11469495 0.012951998
0.42270541 0.11489617 0.013470063
0.42237601 0.11447323 0.013463331
0.4220466 0.11405029 0.013456599
0.42171717 0.11362735 0.013449866
0.42138776 0.11320441 0.013443134
0.42105836 0.11278147 0.013436401
0.42072895 0.11235853 0.013429669
0.42039952 0.11193559 0.013422936
0.41946271 0.11214445 0.013941099
0.41974071 0.11108971 0.013409471
0.41880521 0.11130027 0.013927661
0.41908187 0.11024383 0.013396006
0.41875246 0.10982088 0.013389274
0.41842306 0.10939795 0.013382541
0.41809365 0.10897501 0.013375808
0.41776422 0.10855206 0.013369076
0.41743481 0.10812912 0.013362344
0.41710541 0.10770618 0.013355612
0.416776 0.10728324 0.013348879
0.41644657 0.10686029 0.013342147
0.41611716 0.10643736 0.013335414
0.41578776 0.10601442 0.013328682
0.41545832 0.10559147 0.013321949
0.41512892 0.10516854 0.013315217
0.41479951 0.1047456 0.013308484
0.41447011 0.10432266 0.013301752
0.4141407 0.10389971 0.013295019
0.41381127 0.10347677 0.013288287
0.41348186 0.10305383 0.013281554
0.41315246 0.10263089 0.013274821
0.41282305 0.10220795 0.013268089
0.41249362 0.10178501 0.013261357
0.41216421 0.10136206 0.013254625
0.41183481 0.10093912 0.013247892
0.4115054 0.10051619 0.01324116
0.41117597 0.10009325 0.013234427
0.41084656 0.099670306 0.013227695
0.41051716 0.099247366 0.013220962
0.41018775 0.098824427 0.01321423
0.40985832 0.098401487 0.013207497
0.40952891 0.097978547 0.013200765
0.40919951 0.0975556 0.013194032
0.4088701 0.09713266 0.013187299
0.40854067 0.096709721 0.013180567
0.40821126 0.096286781 0.013173834
0.40846473 0.095200531 0.012641681
0.40813467 0.094776742 0.012634935
0.40780461 0.094352946 0.012628189
0.40747452 0.093929157 0.012621443
0.40714446 0.093505368 0.012614697
0.40681437 0.093081579 0.012607952
0.40648431 0.092657782 0.012601205
0.40673247 0.091564737 0.012068968
0.40640172 0.091140091 0.012062209
0.40664789 0.090044506 0.011529917
0.40689278 0.088947177 0.010997591
0.40656072 0.088520832 0.010990803
0.40622866 0.08809448 0.010984017
0.40647087 0.086993791 0.010451651
0.40671173 0.085891388 0.0099192578
0.40695125 0.084787279 0.0093868449
0.40661722 0.084358379 0.0093800174
0.40685478 0.083251722 0.008847557
0.40652007 0.08282198 0.0088407155
0.40675566 0.08171273 0.0083081927
0.40642029 0.081282131 0.0083013382
0.40665385 0.080170371 0.0077687963
0.40631783 0.079738922 0.0077619283
0.40598178 0.079307467 0.0077550602
0.40621272 0.078192301 0.0072224638
0.40587601 0.077760004 0.0072155828
0.4055393 0.077327698 0.0072087012
0.40576759 0.076209128 0.0066760508
0.40543023 0.075775973 0.0066691558
0.40509284 0.075342827 0.0066622607
0.40475547 0.074909672 0.0066553657
0.40498048 0.07378681 0.0061226324
0.40464246 0.073352806 0.0061157239
0.40486544 0.072227426 0.0055829585
0.40452674 0.07179258 0.0055760364
0.40474772 0.070664644 0.0050432435
0.44633111 0.1243873 0.005382976
0.44599175 0.12395159 0.0053760405
0.44501284 0.12410574 0.0058943396
0.44403523 0.12426159 0.0064126793
0.44369721 0.12382758 0.0064057708
0.44272155 0.12398602 0.0069241594
0.44174728 0.12414613 0.00744256
0.44141057 0.12371382 0.0074356785
0.44043827 0.12387648 0.0079541197
0.44010225 0.12344503 0.0079472521
0.4397662 0.12301358 0.0079403836
0.43879655 0.12317964 0.0084588798
0.43846118 0.12274904 0.0084520252
0.43812579 0.12231844 0.0084451707
0.43779042 0.12188784 0.0084383162
0.43745503 0.12145724 0.0084314616
0.43711966 0.12102664 0.0084246071
0.4367843 0.12059604 0.0084177535
0.4364489 0.12016544 0.008410899
0.43548518 0.1203392 0.0089295311
0.43515047 0.11990944 0.0089226905
0.43418878 0.12008572 0.0094413552
0.4332284 0.1202637 0.0099600339
0.43289503 0.11983564 0.0099532194
0.43193665 0.12001618 0.010471938
0.43160394 0.11958899 0.010465139
0.4312712 0.11916178 0.010458338
0.43093848 0.11873459 0.010451538
0.42998341 0.11891937 0.010970332
0.42965135 0.11849303 0.010963545
0.42869824 0.1186804 0.011482401
0.42836684 0.11825491 0.011475628
0.42803544 0.11782941 0.011468855
0.42770404 0.11740392 0.011462082
0.42675427 0.11759551 0.011980983
0.42642352 0.11717086 0.011974224
0.4260928 0.11674622 0.011967464
0.42576206 0.11632158 0.011960705
0.42543131 0.11589694 0.011953945
0.42448553 0.11609364 0.012472922
0.42415544 0.11566985 0.012466175
0.42382538 0.11524605 0.01245943
0.42349529 0.11482226 0.012452683
0.42255282 0.11502323 0.012971746
0.42222339 0.11460029 0.012965013
0.42189398 0.11417735 0.012958281
0.42156458 0.11375441 0.012951548
0.42123517 0.11333147 0.012944816
0.42090574 0.11290852 0.012938083
0.42057633 0.11248559 0.012931351
0.42024693 0.11206265 0.012924618
0.41931042 0.11227125 0.01344379
0.41958809 0.11121676 0.012911153
0.41865292 0.11142707 0.013430353
0.41892928 0.11037088 0.012897688
0.41859987 0.10994794 0.012890955
0.41827044 0.109525 0.012884223
0.41794103 0.10910206 0.012877491
0.41761163 0.10867912 0.012870759
0.41728222 0.10825618 0.012864026
0.41695282 0.10783324 0.012857294
0.41662338 0.1074103 0.012850561
0.41629398 0.10698735 0.012843829
0.41596457 0.10656441 0.012837096
0.41563514 0.10614147 0.012830364
0.41530573 0.10571853 0.012823631
0.41497633 0.10529559 0.012816899
0.41464692 0.10487265 0.012810166
0.41431749 0.10444971 0.012803433
0.41398808 0.10402676 0.012796701
0.41365868 0.10360383 0.012789968
0.41332927 0.10318089 0.012783236
0.41299984 0.10275795 0.012776503
0.41267043 0.10233501 0.012769772
0.41234103 0.10191207 0.012763039
0.41201162 0.10148913 0.012756307
0.41168219 0.10106619 0.012749574
0.41135278 0.10064325 0.012742842
0.41102338 0.1002203 0.012736109
0.41069397 0.099797361 0.012729377
0.41036457 0.099374421 0.012722644
0.41003513 0.098951481 0.012715911
0.40970573 0.098528542 0.012709179
0.40937632 0.098105602 0.012702446
0.40904689 0.097682655 0.012695714
0.40871748 0.097259715 0.012688981
0.40838808 0.096836783 0.012682249
0.40805867 0.096413836 0.012675516
0.40831184 0.095327839 0.012142367
0.40798175 0.09490405 0.012135621
0.40765169 0.094480261 0.012128875
0.4073216 0.094056472 0.012122129
0.40699154 0.093632676 0.012115383
0.40666148 0.093208887 0.012108637
0.40633139 0.09278509 0.012101891
0.40657926 0.091692306 0.011568651
0.40624851 0.09126766 0.011561891
0.40649438 0.090172328 0.011028603
0.40616298 0.089746833 0.01102183
0.40640688 0.088648908 0.010488479
0.40607482 0.088222563 0.010481693
0.40631673 0.08712212 0.0099483235
0.40598398 0.086694933 0.009941523
0.40622389 0.085591927 0.0094081201
0.40646246 0.08448723 0.0088746902
0.40669972 0.083380826 0.0083412193
0.40636501 0.082951076 0.0083343787
0.4060303 0.082521334 0.0083275372
0.40626493 0.081411488 0.0077940044
0.40592954 0.080980889 0.0077871499
0.40616214 0.079868533 0.007253591
0.40582612 0.079437077 0.0072467229
0.40605673 0.078322165 0.0067131235
0.40572003 0.077889867 0.006706242
0.40538332 0.07745757 0.0066993604
0.40504661 0.077025265 0.0066924789
0.40527394 0.075906098 0.006158812
0.40493655 0.075472943 0.0061519169
0.40459919 0.075039789 0.0061450219
0.40426183 0.074606642 0.0061381268
0.40448588 0.073483184 0.0056043766
0.40470853 0.072358064 0.0050706076
0.40436983 0.071923211 0.0050636856
0.44519463 0.12467123 0.0053889179
0.44485593 0.12423638 0.0053819958
0.44387865 0.12439197 0.005901332
0.44290265 0.1245493 0.0064207106
0.44256526 0.12411615 0.0064138155
0.44159129 0.12427599 0.0069332193
0.44061866 0.12443755 0.0074526435
0.44028261 0.12400609 0.0074457754
0.43931195 0.12417019 0.0079652546
0.43897656 0.12373959 0.0079584001
0.43864119 0.12330899 0.0079515455
0.43830582 0.1228784 0.007944691
0.43797043 0.1224478 0.0079378365
0.43763506 0.1220172 0.0079309819
0.43729967 0.12158659 0.0079241283
0.4369643 0.12115599 0.0079172738
0.43662894 0.1207254 0.0079104193
0.43566486 0.12089805 0.0084300414
0.43533012 0.1204683 0.0084232008
0.43436807 0.12064346 0.0089428481
0.43403402 0.12021457 0.0089360215
0.43307397 0.12039229 0.0094557023
0.4327406 0.11996423 0.0094488887
0.43178251 0.12014451 0.0099686114
0.4314498 0.11971731 0.0099618109
0.43111706 0.11929012 0.0099550104
0.43016165 0.11947379 0.010474801
0.4298296 0.11904745 0.010468015
0.42949751 0.1186211 0.010461227
0.4285447 0.11880822 0.01098108
0.4282133 0.11838273 0.010974307
0.4278819 0.11795723 0.010967534
0.42755049 0.11753174 0.010960761
0.42660105 0.11772308 0.011480666
0.42627031 0.11729843 0.011473906
0.42593959 0.11687379 0.011467147
0.42560884 0.11644915 0.011460387
0.4252781 0.1160245 0.011453628
0.42433262 0.11622094 0.011973607
0.42400256 0.11579715 0.011966861
0.42367247 0.11537337 0.011960115
0.42334241 0.11494957 0.011953369
0.42240021 0.11515028 0.012473434
0.4220708 0.11472735 0.012466702
0.4217414 0.1143044 0.012459969
0.42141199 0.11388146 0.012453237
0.42108256 0.11345852 0.012446504
0.42075315 0.11303557 0.012439772
0.42042375 0.11261264 0.012433039
0.42009434 0.1121897 0.012426307
0.41915813 0.11239805 0.012946476
0.4194355 0.11134382 0.012412842
0.41850063 0.11155387 0.012933038
0.41877669 0.11049794 0.012399377
0.41844726 0.110075 0.012392645
0.41811785 0.10965206 0.012385912
0.41778845 0.10922912 0.01237918
0.41745904 0.10880617 0.012372447
0.41712961 0.10838323 0.012365715
0.4168002 0.1079603 0.012358982
0.4164708 0.10753735 0.01235225
0.41614136 0.1071144 0.012345517
0.41581196 0.10669146 0.012338785
0.41548255 0.10626853 0.012332052
0.41515315 0.10584559 0.012325319
0.41482374 0.10542265 0.012318588
0.41449431 0.10499971 0.012311855
0.4141649 0.10457677 0.012305123
0.4138355 0.10415383 0.01229839
0.41350609 0.10373089 0.012291658
0.41317666 0.10330795 0.012284925
0.41284725 0.102885 0.012278193
0.41251785 0.10246206 0.01227146
0.41218844 0.10203912 0.012264728
0.41185901 0.10161618 0.012257995
0.4115296 0.10119324 0.012251263
0.4112002 0.1007703 0.01224453
0.41087079 0.10034736 0.012237797
0.41054136 0.099924415 0.012231065
0.41021195 0.099501483 0.012224333
0.40988255 0.099078536 0.012217601
0.40955314 0.098655596 0.012210868
0.40922371 0.098232657 0.012204136
0.4088943 0.09780971 0.012197403
0.4085649 0.097386777 0.012190671
0.40823549 0.096963838 0.012183938
0.40790606 0.096540891 0.012177206
0.40815893 0.095455155 0.011643052
0.40782887 0.095031358 0.011636307
0.40749878 0.094607569 0.01162956
0.40716872 0.09418378 0.011622814
0.40683863 0.093759991 0.011616068
0.40650856 0.093336202 0.011609322
0.40617847 0.092912406 0.011602576
0.40642604 0.091819867 0.011068333
0.4060953 0.091395229 0.011061573
0.40576455 0.090970583 0.011054814
0.40600947 0.089874655 0.010520509
0.40625307 0.088776983 0.0099861613
0.40592101 0.088350639 0.0099793747
0.40616259 0.087250456 0.0094449958
0.40582985 0.086823262 0.0094381953
0.40606946 0.085720517 0.0089037893
0.40630773 0.084616072 0.0083693555
0.40597367 0.08418718 0.0083625289
0.40620995 0.08308018 0.0078280475
0.40587524 0.082650431 0.0078212069
0.40610957 0.081540845 0.0072866702
0.40577418 0.081110246 0.0072798161
0.40543881 0.080679648 0.0072729615
0.40567043 0.079566695 0.0067383787
0.40533441 0.079135247 0.0067315111
0.40499836 0.078703791 0.0067246431
0.40522736 0.077587433 0.0061900201
0.40489066 0.077155136 0.0061831386
0.40455395 0.076722831 0.006176257
0.40478027 0.075603068 0.0056415731
0.40444291 0.075169913 0.0056346781
0.40410554 0.074736759 0.005627783
0.40432927 0.073613562 0.0050930297
0.44406009 0.12495635 0.0053968937
0.44308373 0.12511258 0.0059172618
0.44274637 0.12467942 0.0059103668
0.44177204 0.12483817 0.0064307605
0.44143534 0.12440586 0.0064238789
0.44046298 0.12456716 0.0069443062
0.43949196 0.12473015 0.0074647679
0.43915659 0.12429955 0.0074579134
0.4388212 0.12386895 0.0074510588
0.4378528 0.12403539 0.0079715895
0.43751809 0.12360564 0.0079647489
0.43718338 0.12317589 0.0079579083
0.43684864 0.12274614 0.0079510668
0.43651393 0.12231639 0.0079442263
0.43617922 0.12188664 0.0079373857
0.43584451 0.12145689 0.0079305442
0.4355098 0.12102715 0.0079237036
0.43517506 0.1205974 0.0079168631
0.43421334 0.1207723 0.0084375208
0.43387929 0.12034341 0.0084306933
0.43291953 0.12052087 0.008951379
0.43258613 0.12009282 0.0089445645
0.43162838 0.12027285 0.0094652902
0.43129566 0.11984565 0.0094584897
0.43033987 0.12002821 0.0099792629
0.43000782 0.11960188 0.0099724764
0.42967576 0.11917553 0.0099656899
0.42872259 0.11936153 0.010486532
0.42839119 0.11893604 0.010479758
0.42805979 0.11851055 0.010472986
0.42772838 0.11808506 0.010466212
0.42739698 0.11765956 0.01045944
0.42644784 0.11785064 0.010980348
0.42611709 0.117426 0.010973589
0.42578638 0.11700135 0.010966829
0.42545563 0.11657671 0.010960069
0.42512488 0.11615207 0.01095331
0.42417973 0.11634826 0.011474293
0.42384964 0.11592447 0.011467546
0.42351958 0.11550067 0.011460801
0.42318949 0.11507688 0.011454055
0.42224762 0.11527734 0.011975124
0.42191821 0.1148544 0.011968391
0.42158881 0.11443146 0.011961658
0.42125937 0.11400852 0.011954926
0.42092997 0.11358558 0.011948193
0.42060056 0.11316263 0.011941461
0.42027113 0.1127397 0.011934728
0.41994172 0.11231676 0.011927996
0.41900584 0.11252485 0.012449169
0.41928291 0.11147087 0.011914531
0.41834834 0.11168067 0.012435731
0.41862407 0.11062499 0.011901066
0.41829467 0.11020205 0.011894333
0.41796526 0.10977911 0.011887601
0.41763586 0.10935617 0.011880869
0.41730642 0.10893323 0.011874137
0.41697702 0.10851029 0.011867404
0.41664761 0.10808735 0.011860671
0.41631821 0.10766441 0.011853939
0.41598877 0.10724146 0.011847206
0.41565937 0.10681852 0.011840474
0.41532996 0.10639559 0.011833741
0.41500053 0.10597264 0.011827009
0.41467112 0.1055497 0.011820276
0.41434172 0.10512676 0.011813544
0.41401231 0.10470382 0.011806811
0.41368288 0.10428088 0.011800079
0.41335347 0.10385794 0.011793346
0.41302407 0.103435 0.011786614
0.41269466 0.10301206 0.011779881
0.41236526 0.10258912 0.011773149
0.41203582 0.10216618 0.011766417
0.41170642 0.10174324 0.011759684
0.41137701 0.1013203 0.011752952
0.41104761 0.10089736 0.011746219
0.41071817 0.10047441 0.011739487
0.41038877 0.10005147 0.011732754
0.41005936 0.099628538 0.011726022
0.40972993 0.099205591 0.011719289
0.40940052 0.098782651 0.011712557
0.40907112 0.098359711 0.011705824
0.40874171 0.097936764 0.011699092
0.40841231 0.097513832 0.011692359
0.40808287 0.097090892 0.011685627
0.40775347 0.096667945 0.011678894
0.40800604 0.095582463 0.011143737
0.40767595 0.095158674 0.011136992
0.40734589 0.094734885 0.011130246
0.4070158 0.094311088 0.0111235
0.40668574 0.093887299 0.011116754
0.40635565 0.09346351 0.011110008
0.40602559 0.093039714 0.011103262
0.40627283 0.091947436 0.010568014
0.40594208 0.091522798 0.010561255
0.40561134 0.091098152 0.010554495
0.40585592 0.090002477 0.010019188
0.40609923 0.088905066 0.0094838375
0.40576717 0.088478714 0.009477051
0.40600845 0.087378785 0.0089416746
0.40567574 0.086951599 0.008934875
0.40591502 0.085849106 0.0083994651
0.40558162 0.085421063 0.0083926516
