# .PCD v0.7 - Point Cloud Data file format
VERSION 0.7
FIELDS x y z
SIZE 4 4 4
TYPE F F F
COUNT 1 1 1
WIDTH 1390
HEIGHT 1
VIEWPOINT 0 0 0 1 0 0 0
POINTS 1390
DATA ascii
0.4610244 -0.058695104 0.12889151
0.46063933 -0.059189525 0.12888364
0.46025422 -0.059683956 0.12887578
0.45986915 -0.060178377 0.12886789
0.45948407 -0.060672797 0.12886003
0.45909896 -0.061167218 0.12885216
0.45871389 -0.061661649 0.12884429
0.45832881 -0.06215607 0.12883642
0.45794371 -0.062650494 0.12882856
0.45755863 -0.063144922 0.12882067
0.45717353 -0.063639343 0.1288128
0.45678845 -0.064133763 0.12880494
0.45640337 -0.064628184 0.12879707
0.45601827 -0.065122619 0.1287892
0.45563319 -0.06561704 0.12878133
0.45524809 -0.06611146 0.12877345
0.45486301 -0.066605888 0.12876558
0.45447791 -0.067100309 0.12875772
0.45409283 -0.067594729 0.12874985
0.45370775 -0.06808915 0.12874198
0.45332265 -0.068583578 0.1287341
0.45293757 -0.069077998 0.12872623
0.4525525 -0.069572419 0.12871836
0.45216739 -0.070066854 0.12871049
0.45178232 -0.070561275 0.12870263
0.45139721 -0.071055695 0.12869476
0.45101213 -0.071550116 0.12868688
0.45062703 -0.072044544 0.12867901
0.45024195 -0.072538964 0.12867114
0.44985688 -0.073033385 0.12866327
0.44947177 -0.073527806 0.1286554
0.4490867 -0.074022241 0.12864754
0.44870159 -0.074516661 0.12863965
0.44831651 -0.075011082 0.12863179
0.44793144 -0.07550551 0.12862392
0.44754633 -0.075999931 0.12861605
0.44716126 -0.076494351 0.12860818
0.44677618 -0.076988772 0.12860031
0.44639108 -0.077483207 0.12859243
0.446006 -0.077977628 0.12858456
0.44562089 -0.078472048 0.1285767
0.44523582 -0.078966476 0.12856883
0.44485071 -0.079460897 0.12856096
0.44446564 -0.079955317 0.12855309
0.44408056 -0.080449738 0.12854521
0.44369546 -0.080944173 0.12853734
0.44331038 -0.081438594 0.12852947
0.4429253 -0.081933014 0.12852161
0.4425402 -0.082427435 0.12851374
0.44215512 -0.082921863 0.12850587
0.44177002 -0.083416283 0.12849799
0.44138494 -0.083910704 0.12849012
0.44099984 -0.084405139 0.12848225
0.44116971 -0.085778072 0.1282234
0.44078395 -0.08627335 0.12821552
0.44039819 -0.086768627 0.12820764
0.44001245 -0.08726389 0.12819976
0.43962669 -0.087759167 0.12819187
0.43924096 -0.088254452 0.12818399
0.4388552 -0.088749729 0.12817611
0.43901974 -0.090129472 0.12791714
0.43863332 -0.090625599 0.12790924
0.43824694 -0.091121718 0.12790135
0.43786052 -0.091617845 0.12789345
0.4374741 -0.092113972 0.12788555
0.43708768 -0.092610106 0.12787765
0.43670127 -0.093106225 0.12786976
0.43686056 -0.094492815 0.12761068
0.43647349 -0.094989792 0.12760277
0.43608642 -0.095486775 0.12759486
0.43569934 -0.095983744 0.12758695
0.43531224 -0.096480727 0.12757903
0.4349252 -0.096977696 0.12757112
0.43507978 -0.098370217 0.12731196
0.43469205 -0.098868042 0.12730403
0.43430433 -0.099365868 0.12729612
0.43391657 -0.099863693 0.12728819
0.43406788 -0.10126047 0.12702897
0.43367946 -0.10175914 0.12702103
0.43329108 -0.10225783 0.12701309
0.4334397 -0.10365801 0.12675382
0.43305066 -0.10415752 0.12674586
0.43266159 -0.10465705 0.12673792
0.43280756 -0.10606064 0.12647858
0.43241784 -0.10656101 0.12647061
0.43202811 -0.10706139 0.12646265
0.43217149 -0.10846842 0.12620324
0.43178111 -0.10896964 0.12619527
0.43192247 -0.11037918 0.12593582
0.4315314 -0.11088126 0.12592784
0.43114036 -0.11138334 0.12591985
0.43127906 -0.11279628 0.12566036
0.43088734 -0.11329922 0.12565236
0.43049562 -0.11380216 0.12564436
0.43010393 -0.11430508 0.12563634
0.42971221 -0.11480802 0.12562834
0.42932048 -0.11531096 0.12562034
0.42892876 -0.11581388 0.12561233
0.42853704 -0.11631682 0.12560432
0.42814535 -0.11681975 0.12559631
0.42775363 -0.11732268 0.12558831
0.42736191 -0.11782562 0.12558031
0.42697018 -0.11832855 0.12557229
0.42657846 -0.11883149 0.12556429
0.42618674 -0.11933442 0.12555629
0.42579505 -0.11983735 0.12554829
0.42488351 -0.11941666 0.12579197
0.42474601 -0.12277526 0.12526453
0.42383647 -0.12235201 0.12550825
0.42396125 -0.12378283 0.12524848
0.47271439 -0.040127728 0.12907818
0.47233066 -0.040620442 0.12907033
0.4719469 -0.041113161 0.12906249
0.47156313 -0.04160589 0.12905464
0.47117937 -0.042098604 0.1290468
0.4707956 -0.042591333 0.12903896
0.47041184 -0.043084051 0.12903111
0.47002807 -0.04357677 0.12902327
0.46903726 -0.043258429 0.12926637
0.46865419 -0.043750301 0.12925853
0.46827108 -0.04424217 0.12925071
0.46788797 -0.044734042 0.12924287
0.46810925 -0.046040386 0.12898405
0.46772552 -0.046533104 0.12897621
0.46734175 -0.047025822 0.12896837
0.46695799 -0.047518548 0.12896052
0.46657422 -0.048011266 0.12895268
0.46619046 -0.048503995 0.12894484
0.46640706 -0.049816255 0.12868595
0.46602264 -0.050309829 0.1286781
0.46563822 -0.050803401 0.12867025
0.4652538 -0.051296975 0.12866238
0.46486935 -0.05179055 0.12865452
0.46448493 -0.052284125 0.12864667
0.46410051 -0.052777689 0.1286388
0.46431181 -0.05409677 0.12837981
0.46392673 -0.05459119 0.12837194
0.46354163 -0.055085611 0.12836407
0.46315655 -0.055580031 0.1283562
0.46277145 -0.056074463 0.12834834
0.46238637 -0.056568883 0.12834045
0.46200129 -0.057063304 0.12833259
0.46220729 -0.058389191 0.12807348
0.46182153 -0.058884468 0.1280656
0.46143579 -0.059379734 0.12805772
0.46105003 -0.059875011 0.12804984
0.46066427 -0.060370289 0.12804195
0.46027854 -0.060865566 0.12803407
0.45989278 -0.061360832 0.12802619
0.45950705 -0.061856113 0.1280183
0.45912129 -0.062351391 0.12801042
0.45873553 -0.062846653 0.12800252
0.45834979 -0.063341931 0.12799464
0.45796403 -0.063837208 0.12798676
0.45757827 -0.064332493 0.12797888
0.45719254 -0.064827755 0.12797099
0.45680678 -0.065323032 0.12796311
0.45642102 -0.06581831 0.12795523
0.45603529 -0.06631358 0.12794735
0.45564952 -0.066808857 0.12793946
0.45526376 -0.067304134 0.12793158
0.45487803 -0.067799412 0.1279237
0.45449227 -0.068294674 0.12791581
0.45410654 -0.068789952 0.12790793
0.45372078 -0.069285236 0.12790003
0.45333502 -0.069780499 0.12789215
0.45294929 -0.070275776 0.12788427
0.45256352 -0.070771053 0.12787639
0.45217776 -0.071266331 0.1278685
0.45179203 -0.071761601 0.12786062
0.45140627 -0.072256878 0.12785274
0.45102051 -0.072752155 0.12784486
0.45063478 -0.073247418 0.12783697
0.45024902 -0.073742695 0.12782909
0.44986326 -0.07423798 0.12782121
0.44947752 -0.074733257 0.12781332
0.44909176 -0.07522852 0.12780544
0.44870603 -0.075723797 0.12779754
0.44832027 -0.076219074 0.12778966
0.44793451 -0.076714344 0.12778178
0.44754878 -0.077209622 0.1277739
0.44716302 -0.077704899 0.12776601
0.44677725 -0.078200176 0.12775813
0.44639152 -0.078695439 0.12775025
0.44600576 -0.079190724 0.12774237
0.44562 -0.079686001 0.12773448
0.44523427 -0.080181263 0.1277266
0.44484851 -0.080676541 0.12771872
0.44446275 -0.081171818 0.12771083
0.44407701 -0.081667095 0.12770294
0.44369125 -0.082162365 0.12769505
0.44330552 -0.082657643 0.12768717
0.44291976 -0.08315292 0.12767929
0.442534 -0.083648182 0.12767141
0.44214827 -0.084143467 0.12766352
0.44176251 -0.084638745 0.12765564
0.44137675 -0.085134022 0.12764776
0.44099101 -0.085629284 0.12763987
0.44060525 -0.086124562 0.12763199
0.4407728 -0.087499805 0.1273721
0.44038641 -0.087995924 0.1273642
0.44 -0.088492051 0.12735631
0.43961358 -0.08898817 0.12734841
0.43922716 -0.089484312 0.12734051
0.43884075 -0.089980431 0.12733261
0.43845433 -0.090476558 0.12732472
0.43806791 -0.090972677 0.12731682
0.4376815 -0.091468804 0.12730892
0.43729511 -0.09196493 0.12730102
0.43745542 -0.093349569 0.12704097
0.43706831 -0.093846545 0.12703305
0.43668127 -0.094343521 0.12702514
0.43629417 -0.094840497 0.12701723
0.4359071 -0.09533748 0.12700932
0.43552002 -0.095834449 0.1270014
0.43513295 -0.096331432 0.12699349
0.43528792 -0.097722836 0.12673335
0.43490016 -0.098220661 0.12672542
0.43451244 -0.098718487 0.12671749
0.43412471 -0.09921632 0.12670958
0.43427634 -0.10061198 0.12644936
0.43388796 -0.10111066 0.12644142
0.43349954 -0.10160933 0.12643349
0.43364853 -0.10300841 0.12617321
0.43325949 -0.10350794 0.12616527
0.43287042 -0.10400746 0.12615731
0.43248135 -0.10450699 0.12614936
0.43262702 -0.10591032 0.12588902
0.4322373 -0.1064107 0.12588106
0.43238103 -0.10781661 0.12562066
0.43199065 -0.10831784 0.12561268
0.43213236 -0.10972627 0.12535226
0.4317413 -0.11022835 0.12534428
0.43135026 -0.11073043 0.12533627
0.43148932 -0.11214226 0.1250758
0.4310976 -0.11264519 0.1250678
0.43070588 -0.11314813 0.1250598
0.43031418 -0.11365107 0.1250518
0.42992246 -0.114154 0.12504378
0.42953074 -0.11465693 0.12503578
0.42913902 -0.11515987 0.12502778
0.4287473 -0.1156628 0.12501977
0.4283556 -0.11616573 0.12501176
0.42848802 -0.11758608 0.12475115
0.42809564 -0.11808985 0.12474313
0.42770326 -0.11859364 0.12473511
0.42731088 -0.11909743 0.12472709
0.42691851 -0.1196012 0.12471908
0.42652613 -0.12010499 0.12471105
0.42613375 -0.12060878 0.12470303
0.42495662 -0.12212013 0.12467898
0.42456424 -0.12262392 0.12467096
0.42417186 -0.12312771 0.12466294
0.42377949 -0.12363148 0.12465492
0.47122651 -0.043251537 0.12820657
0.47023407 -0.042936031 0.12845057
0.4692429 -0.042618793 0.12869467
0.46885982 -0.043110665 0.12868683
0.46908277 -0.044414192 0.12842704
0.4680936 -0.044094406 0.12867117
0.46771049 -0.044586278 0.12866335
0.46793148 -0.045892369 0.12840351
0.46754771 -0.046385083 0.12839568
0.46716398 -0.046877801 0.12838784
0.46678022 -0.047370531 0.12837999
0.46699783 -0.048680842 0.12812014
0.46661341 -0.049174406 0.12811227
0.46622899 -0.049667981 0.12810442
0.46584454 -0.050161555 0.12809657
0.46546012 -0.050655127 0.12808871
0.46567377 -0.051970538 0.12782876
0.4652887 -0.052464969 0.12782089
0.46490359 -0.05295939 0.12781301
0.46451852 -0.053453811 0.12780514
0.46413341 -0.053948242 0.12779728
0.46374834 -0.054442663 0.12778941
0.46336326 -0.054937083 0.12778154
0.46297815 -0.0554315 0.12777367
0.46259308 -0.055925936 0.12776579
0.46280009 -0.057249863 0.12750572
0.46241435 -0.057745129 0.12749784
0.46202859 -0.058240406 0.12748995
0.46164283 -0.058735684 0.12748207
0.4612571 -0.05923095 0.12747419
0.46087134 -0.059726227 0.12746629
0.46048558 -0.060221504 0.12745841
0.46009985 -0.060716782 0.12745053
0.45971408 -0.061212048 0.12744264
0.45991448 -0.06254448 0.12718242
0.45952806 -0.063040614 0.12717453
0.45914164 -0.063536741 0.12716663
0.45875522 -0.06403286 0.12715873
0.45836884 -0.064528987 0.12715083
0.45798242 -0.065025114 0.12714294
0.457596 -0.065521233 0.12713504
0.45720959 -0.066017367 0.12712714
0.45682317 -0.066513494 0.12711924
0.45643675 -0.06700962 0.12711135
0.45605034 -0.06750574 0.12710345
0.45566392 -0.068001866 0.12709555
0.45527753 -0.068497986 0.12708765
0.45489112 -0.068994112 0.12707976
0.4545047 -0.069490246 0.12707186
0.45411828 -0.069986373 0.12706396
0.45373186 -0.070482492 0.12705606
0.45334545 -0.070978619 0.12704816
0.45295903 -0.071474746 0.12704027
0.45257261 -0.071970865 0.12703237
0.4521862 -0.072466999 0.12702447
0.45179978 -0.072963126 0.12701657
0.45141339 -0.073459253 0.12700868
0.45102698 -0.073955372 0.12700078
0.45064056 -0.074451499 0.12699288
0.45025414 -0.074947618 0.12698498
0.44986773 -0.075443745 0.12697709
0.44948131 -0.075939879 0.12696919
0.44909489 -0.076436006 0.12696129
0.44870847 -0.076932125 0.12695339
0.44832209 -0.077428252 0.1269455
0.44793567 -0.077924378 0.1269376
0.44754925 -0.078420497 0.12692972
0.44716284 -0.078916624 0.12692182
0.44677642 -0.079412758 0.12691392
0.44639 -0.079908878 0.12690602
0.44600359 -0.080405004 0.12689812
0.44561717 -0.080901131 0.12689023
0.44523078 -0.08139725 0.12688233
0.44484437 -0.081893377 0.12687443
0.44445795 -0.082389511 0.12686653
0.44407153 -0.082885638 0.12685864
0.44368511 -0.083381757 0.12685074
0.4432987 -0.083877884 0.12684284
0.44291228 -0.084374003 0.12683494
0.44252586 -0.08487013 0.12682705
0.44213948 -0.085366257 0.12681915
0.44175306 -0.085862391 0.12681125
0.44136664 -0.08635851 0.12680335
0.44098023 -0.086854637 0.12679546
0.44059381 -0.087350763 0.12678756
0.44020739 -0.087846883 0.12677966
0.43982098 -0.088343009 0.12677176
0.43943459 -0.088839129 0.12676387
0.43904814 -0.08933527 0.12675597
0.43866175 -0.089831389 0.12674807
0.43827534 -0.090327516 0.12674017
0.43788892 -0.090823635 0.12673227
0.43805024 -0.092206322 0.12647124
0.43766317 -0.092703298 0.12646334
0.4372761 -0.093200266 0.12645543
0.43688902 -0.09369725 0.12644751
0.43650195 -0.094194219 0.1264396
0.43611488 -0.094691202 0.12643169
0.43572778 -0.095188186 0.12642378
0.4353407 -0.095685154 0.12641586
0.43549603 -0.097075455 0.12615472
0.4351083 -0.09757328 0.12614679
0.43472055 -0.098071113 0.12613888
0.43433282 -0.098568939 0.12613095
0.43394509 -0.099066764 0.12612303
0.43409643 -0.10046218 0.12586181
0.43370801 -0.10096085 0.12585387
0.43331963 -0.10145953 0.12584594
0.43346831 -0.10285835 0.12558468
0.43307924 -0.10335788 0.12557672
0.43322596 -0.10475924 0.1253154
0.43283623 -0.10525961 0.12530744
0.43244648 -0.10576 0.12529947
0.4325906 -0.1071648 0.12503809
0.43220019 -0.10766604 0.1250301
0.43180981 -0.10816727 0.12502213
0.4319512 -0.10957544 0.1247607
0.43156016 -0.11007752 0.12475271
0.43116909 -0.1105796 0.12474471
0.43130785 -0.11199118 0.12448325
0.43091616 -0.11249411 0.12447524
0.43052444 -0.11299705 0.12446724
0.43013272 -0.11349998 0.12445923
0.429741 -0.11400291 0.12445123
0.42934927 -0.11450585 0.12444322
0.42895755 -0.11500879 0.12443522
0.42856586 -0.11551171 0.12442721
0.42869863 -0.11693095 0.12416561
0.42830625 -0.11743473 0.12415759
0.42791387 -0.11793852 0.12414957
0.4275215 -0.1184423 0.12414155
0.42712912 -0.11894608 0.12413353
0.42673674 -0.11944987 0.12412551
0.42634436 -0.11995365 0.12411749
0.42595199 -0.12045743 0.12410947
0.42607886 -0.12188437 0.12384773
0.42568582 -0.122389 0.1238397
0.42529276 -0.12289364 0.12383167
0.42541695 -0.12432393 0.12356989
0.42502323 -0.12482942 0.12356184
0.42462954 -0.1253349 0.1235538
0.47066399 -0.043596838 0.12761718
0.46967253 -0.043280732 0.12786222
0.46868235 -0.042962901 0.12810731
0.46829924 -0.043454774 0.12809947
0.46852124 -0.044758905 0.12783869
0.46753305 -0.044438515 0.12808383
0.46775371 -0.045744348 0.127823
0.46736994 -0.046237066 0.12781514
0.46698618 -0.046729784 0.1278073
0.46660241 -0.047222514 0.12779947
0.46681973 -0.048532568 0.12753861
0.46643531 -0.049026132 0.12753075
0.46665064 -0.050338745 0.12726983
0.46626556 -0.050833166 0.12726197
0.46588048 -0.051327586 0.1272541
0.46549538 -0.051822007 0.12724623
0.4651103 -0.052316438 0.12723835
0.4647252 -0.052810859 0.12723048
0.46434012 -0.053305279 0.12722261
0.46395504 -0.053799711 0.12721474
0.46356994 -0.054294132 0.12720688
0.46318486 -0.054788552 0.12719901
0.46279979 -0.055282973 0.12719113
0.46241468 -0.055777404 0.12718326
0.46262139 -0.057101075 0.12692218
0.46223566 -0.057596341 0.12691429
0.4618499 -0.058091618 0.12690641
0.46146414 -0.058586899 0.12689853
0.46107841 -0.059082165 0.12689064
0.46069264 -0.059577443 0.12688276
0.46030688 -0.06007272 0.12687488
0.45992115 -0.060567997 0.126867
0.45953539 -0.061063264 0.12685911
0.45973548 -0.062395439 0.1265979
0.45934907 -0.062891573 0.12659
0.45896265 -0.063387699 0.1265821
0.45857623 -0.063883826 0.1265742
0.45818982 -0.064379945 0.12656631
0.4578034 -0.064876072 0.12655841
0.45741701 -0.065372191 0.12655051
0.45703056 -0.065868333 0.12654261
0.45664418 -0.066364452 0.12653472
0.45625776 -0.066860579 0.12652682
0.45587134 -0.067356698 0.12651892
0.45548493 -0.067852825 0.12651102
0.45509851 -0.068348952 0.12650312
0.45471209 -0.068845071 0.12649523
0.45432568 -0.069341205 0.12648733
0.45393926 -0.069837332 0.12647943
0.45355287 -0.070333458 0.12647153
0.45316646 -0.070829578 0.12646364
0.45278004 -0.071325704 0.12645574
0.45239362 -0.071821824 0.12644784
0.4520072 -0.072317965 0.12643994
0.45162079 -0.072814085 0.12643205
0.45123437 -0.073310211 0.12642415
0.45084795 -0.073806331 0.12641625
0.45046157 -0.074302457 0.12640835
0.45007515 -0.074798584 0.12640046
0.44968873 -0.075294703 0.12639256
0.44930232 -0.075790837 0.12638466
0.4489159 -0.076286964 0.12637676
0.44852948 -0.076783091 0.12636887
0.44814306 -0.07727921 0.12636097
0.44775665 -0.077775337 0.12635307
0.44737026 -0.078271456 0.12634517
0.44698384 -0.078767583 0.12633727
0.44659743 -0.079263717 0.12632938
0.44621101 -0.079759844 0.12632148
0.44582459 -0.080255963 0.12631358
0.44543818 -0.08075209 0.12630568
0.44505176 -0.081248216 0.12629779
0.44466537 -0.081744336 0.12628989
0.44427893 -0.08224047 0.12628199
0.44389254 -0.082736596 0.12627409
0.44350612 -0.083232723 0.1262662
0.4431197 -0.083728842 0.1262583
0.44273329 -0.084224969 0.1262504
0.44234687 -0.084721088 0.1262425
0.44196045 -0.085217215 0.12623461
0.44157404 -0.085713349 0.12622671
0.44118762 -0.086209476 0.12621881
0.44080123 -0.086705595 0.12621091
0.44041482 -0.087201722 0.12620302
0.4400284 -0.087697849 0.12619512
0.44019338 -0.089075156 0.12593317
0.43980631 -0.089572139 0.12592526
0.43941924 -0.090069123 0.12591735
0.43903217 -0.090566091 0.12590943
0.43864509 -0.091063067 0.12590152
0.43825802 -0.091560043 0.12589361
0.43787095 -0.092057019 0.1258857
0.43748385 -0.092554003 0.12587778
0.43709677 -0.093050972 0.12586989
0.4367097 -0.093547955 0.12586197
0.43632263 -0.094044924 0.12585406
0.43593556 -0.094541907 0.12584615
0.4360919 -0.095930248 0.12558402
0.43570414 -0.096428074 0.12557611
0.43531641 -0.096925899 0.12556818
0.43492869 -0.097423732 0.12556025
0.43454093 -0.097921558 0.12555233
0.43469331 -0.099315017 0.12529014
0.43430489 -0.099813685 0.12528221
0.43391648 -0.10031237 0.12527427
0.4335281 -0.10081104 0.12526633
0.43367714 -0.10220876 0.12500407
0.43382487 -0.10360815 0.12474178
0.43343514 -0.10410854 0.12473381
0.43304542 -0.10460892 0.12472585
0.43265569 -0.10510929 0.12471788
0.43280014 -0.10651299 0.12445551
0.43240973 -0.10701422 0.12444753
0.43201935 -0.10751546 0.12443955
0.43216112 -0.10892252 0.12417714
0.43177006 -0.10942461 0.12416914
0.43137899 -0.10992669 0.12416115
0.43098795 -0.11042877 0.12415316
0.43112639 -0.11184009 0.12389068
0.43073469 -0.11234302 0.12388268
0.43034297 -0.11284596 0.12387467
0.42995125 -0.11334889 0.12386666
0.42955953 -0.11385182 0.12385866
0.42916781 -0.11435476 0.12385065
0.42877609 -0.1148577 0.12384265
0.42890924 -0.11627582 0.12358006
0.42851686 -0.11677961 0.12357204
0.42812449 -0.11728339 0.12356403
0.42773211 -0.11778717 0.123556
0.42786199 -0.11920959 0.12329333
0.42746893 -0.11971423 0.1232853
0.42707589 -0.12021886 0.12327726
0.42668286 -0.1207235 0.12326923
0.42628983 -0.12122813 0.1232612
0.42589676 -0.12173277 0.12325317
0.42602196 -0.1231611 0.12299041
0.42562824 -0.12366659 0.12298237
0.42523456 -0.12417208 0.12297432
0.42484084 -0.12467756 0.12296627
0.42444715 -0.12518305 0.12295823
0.469111 -0.04362544 0.12727384
0.46812177 -0.04330701 0.12751995
0.46773866 -0.043798883 0.12751213
0.46735558 -0.044290755 0.12750429
0.46757594 -0.045596331 0.12724246
0.46719217 -0.046089049 0.12723462
0.46680841 -0.046581767 0.12722678
0.46642464 -0.047074493 0.12721893
0.46664166 -0.048384294 0.12695707
0.46625724 -0.048877858 0.12694921
0.46647227 -0.050190218 0.1266873
0.46608716 -0.050684638 0.12667944
0.46570209 -0.051179059 0.12667157
0.46531701 -0.051673479 0.12666368
0.46493191 -0.052167911 0.12665582
0.46454683 -0.052662332 0.12664795
0.46416172 -0.053156748 0.12664008
0.46377665 -0.053651184 0.12663221
0.46339154 -0.054145601 0.12662435
0.46300647 -0.054640021 0.12661646
0.46262139 -0.055134442 0.1266086
0.46223629 -0.055628873 0.12660073
0.4624427 -0.05695229 0.12633865
0.46205696 -0.057447556 0.12633076
0.4616712 -0.057942834 0.12632288
0.46128544 -0.058438111 0.126315
0.46089971 -0.058933377 0.12630711
0.46051395 -0.059428655 0.12629922
0.46012819 -0.059923936 0.12629133
0.45974243 -0.060419213 0.12628345
0.4593567 -0.060914479 0.12627557
0.45955649 -0.062246401 0.12601335
0.45917004 -0.062742531 0.12600546
0.45878366 -0.063238658 0.12599756
0.45839724 -0.063734785 0.12598966
0.45859376 -0.065070987 0.12572736
0.45820665 -0.06556797 0.12571944
0.45781958 -0.066064954 0.12571153
0.45743251 -0.066561922 0.12570362
0.45704544 -0.067058906 0.12569571
0.45665836 -0.067555875 0.12568779
0.45627129 -0.068052858 0.12567988
0.45588422 -0.068549827 0.12567197
0.45549712 -0.069046803 0.12566406
0.45511004 -0.069543786 0.12565616
0.45472297 -0.070040755 0.12564825
0.4543359 -0.070537739 0.12564033
0.45394883 -0.071034707 0.12563242
0.45356175 -0.071531691 0.12562451
0.45317468 -0.072028667 0.1256166
0.45278761 -0.072525643 0.12560868
0.45240051 -0.073022619 0.12560077
0.45201343 -0.073519588 0.12559286
0.45162636 -0.074016571 0.12558495
0.45123929 -0.07451354 0.12557705
0.45085222 -0.075010523 0.12556913
0.45046514 -0.075507507 0.12556122
0.45007807 -0.076004475 0.12555331
0.449691 -0.076501459 0.1255454
0.44930393 -0.076998428 0.12553748
0.44891682 -0.077495404 0.12552957
0.44852975 -0.077992387 0.12552166
0.44814268 -0.078489356 0.12551375
0.4477556 -0.078986339 0.12550585
0.44736853 -0.079483308 0.12549794
0.44698146 -0.079980291 0.12549002
0.44659439 -0.080477275 0.12548211
0.44620731 -0.080974244 0.1254742
0.44582021 -0.08147122 0.12546629
0.44543314 -0.081968188 0.12545837
0.44504607 -0.082465172 0.12545046
0.44465899 -0.08296214 0.12544255
0.44427192 -0.083459124 0.12543464
0.44388485 -0.083956107 0.12542674
0.44349778 -0.084453076 0.12541883
0.4431107 -0.08495006 0.12541091
0.44272363 -0.085447028 0.125403
0.44233653 -0.085944004 0.12539509
0.44194946 -0.086440988 0.12538718
0.44156238 -0.086937957 0.12537926
0.44117531 -0.08743494 0.12537135
0.44078824 -0.087931909 0.12536344
0.44040117 -0.088428892 0.12535553
0.44001409 -0.088925861 0.12534763
0.43962702 -0.089422844 0.12533972
0.43923992 -0.08991982 0.1253318
0.43885285 -0.090416789 0.12532389
0.43846577 -0.090913773 0.12531598
0.4380787 -0.091410741 0.12530807
0.43769163 -0.091907725 0.12530015
0.43730456 -0.092404708 0.12529224
0.43691748 -0.092901677 0.12528433
0.43653038 -0.09339866 0.12527642
0.43614334 -0.093895629 0.12526852
0.43630001 -0.095282868 0.12500541
0.43591228 -0.0957807 0.12499749
0.43552452 -0.096278526 0.12498956
0.4351368 -0.096776351 0.12498164
0.43474907 -0.097274177 0.12497371
0.43490177 -0.098666519 0.12471053
0.43451336 -0.099165209 0.1247026
0.43412498 -0.099663876 0.12469465
0.43427503 -0.10105963 0.12443142
0.43388599 -0.10155916 0.12442347
0.43403405 -0.10295746 0.12416019
0.43364432 -0.10345783 0.12415223
0.4332546 -0.10395822 0.12414426
0.43286487 -0.1044586 0.1241363
0.43300968 -0.10586118 0.12387293
0.4326193 -0.10636242 0.12386495
0.43222889 -0.10686365 0.12385697
0.43237102 -0.10826961 0.12359358
0.43197995 -0.10877169 0.12358558
0.43158892 -0.10927378 0.12357759
0.43119785 -0.10977586 0.12356959
0.43133664 -0.11118607 0.12330613
0.43094495 -0.11168901 0.12329812
0.43055323 -0.11219194 0.12329012
0.43016151 -0.11269487 0.12328211
0.42976978 -0.11319781 0.1232741
0.42937809 -0.11370073 0.1232661
0.42898637 -0.11420368 0.12325809
0.42859465 -0.11470661 0.12325009
0.42872748 -0.11612448 0.1229865
0.4283351 -0.11662827 0.12297848
0.42794272 -0.11713205 0.12297046
0.42807296 -0.11855336 0.12270679
0.4276799 -0.11905799 0.12269876
0.42728686 -0.11956263 0.12269073
0.42689383 -0.12006726 0.1226827
0.42650077 -0.1205719 0.12267467
0.42610773 -0.12107653 0.12266663
0.4257147 -0.12158117 0.1226586
0.42583957 -0.12300925 0.12239484
0.42544588 -0.12351474 0.12238681
0.42556876 -0.12494538 0.12212301
0.42465848 -0.12452571 0.12237071
0.42426476 -0.1250312 0.12236267
0.4670144 -0.045941032 0.12665409
0.46663064 -0.046433747 0.12664625
0.46684802 -0.047742445 0.12638339
0.46646357 -0.04823602 0.12637554
0.46607915 -0.048729584 0.12636769
0.46629387 -0.050041687 0.12610477
0.4659088 -0.050536107 0.1260969
0.46552369 -0.051030528 0.12608902
0.46513861 -0.051524948 0.12608115
0.46475351 -0.05201938 0.12607329
0.46436843 -0.052513801 0.12606542
0.46398336 -0.053008221 0.12605755
0.46359825 -0.053502653 0.12604968
0.46321318 -0.053997073 0.1260418
0.46282807 -0.054491494 0.12603393
0.46244299 -0.054985914 0.12602606
0.46205789 -0.055480346 0.1260182
0.462264 -0.056803506 0.1257551
0.46187824 -0.057298772 0.12574722
0.46149251 -0.057794049 0.12573934
0.46110675 -0.058289327 0.12573145
0.46072102 -0.058784593 0.12572357
0.46033525 -0.05927987 0.12571569
0.45994949 -0.059775148 0.12570781
0.45956373 -0.060270429 0.12569992
0.459178 -0.060765691 0.12569204
0.45937747 -0.062097359 0.12542881
0.45899105 -0.062593497 0.12542091
0.45860463 -0.063089617 0.12541302
0.45880151 -0.064424723 0.12514971
0.45841444 -0.064921692 0.12514181
0.45802736 -0.065418676 0.1251339
0.45764026 -0.065915659 0.12512599
0.45783377 -0.067254983 0.12486264
0.45744604 -0.067752808 0.12485471
0.45705831 -0.068250634 0.12484679
0.45667055 -0.068748459 0.12483887
0.45628282 -0.069246292 0.12483094
0.4558951 -0.069744118 0.12482302
0.45550734 -0.070241943 0.12481509
0.45511961 -0.070739768 0.12480716
0.45473185 -0.071237601 0.12479924
0.45434412 -0.071735427 0.12479132
0.4539564 -0.072233252 0.1247834
0.45356864 -0.072731078 0.12477547
0.45318091 -0.073228911 0.12476754
0.45279318 -0.073726736 0.12475962
0.45240542 -0.074224561 0.12475169
0.45201769 -0.074722387 0.12474377
0.45162997 -0.07522022 0.12473585
0.45124221 -0.075718045 0.12472792
0.45085448 -0.076215871 0.12472
0.45046675 -0.076713696 0.12471207
0.45007899 -0.077211529 0.12470415
0.44969127 -0.077709354 0.12469622
0.44930354 -0.07820718 0.1246883
0.44891578 -0.078705005 0.12468038
0.44852805 -0.079202831 0.12467245
0.44814029 -0.079700664 0.12466452
0.44775257 -0.080198489 0.1246566
0.44736484 -0.080696315 0.12464868
0.44697708 -0.08119414 0.12464076
0.44658935 -0.081691973 0.12463283
0.44620162 -0.082189798 0.1246249
0.44581386 -0.082687624 0.12461698
0.44542614 -0.083185449 0.12460905
0.44503841 -0.083683282 0.12460113
0.44465065 -0.084181108 0.12459321
0.44426292 -0.084678933 0.12458528
0.44387519 -0.085176758 0.12457736
0.44348744 -0.085674591 0.12456943
0.44309971 -0.086172424 0.1245615
0.44271195 -0.086670257 0.12455358
0.44232422 -0.087168083 0.12454566
0.44193646 -0.087665908 0.12453774
0.44154873 -0.088163733 0.12452981
0.44116101 -0.088661566 0.12452188
0.44077325 -0.089159392 0.12451396
0.44038552 -0.089657217 0.12450603
0.43999779 -0.090155043 0.12449811
0.43961003 -0.090652876 0.12449019
0.43922231 -0.091150701 0.12448226
0.43883458 -0.091648526 0.12447434
0.43844682 -0.092146352 0.12446641
0.43805909 -0.092644185 0.12445848
0.43767136 -0.09314201 0.12445056
0.43728361 -0.093639836 0.12444264
0.43689588 -0.094137661 0.12443472
0.43650815 -0.094635487 0.12442679
0.43612039 -0.095133319 0.12441886
0.43573266 -0.095631145 0.12441094
0.4353449 -0.09612897 0.12440301
0.43549865 -0.097519353 0.12413885
0.43511024 -0.098018043 0.12413092
0.43526199 -0.099410973 0.12386673
0.43487296 -0.099910505 0.12385878
0.43448389 -0.10041004 0.12385082
0.43409482 -0.10090957 0.12384287
0.43424323 -0.10230676 0.12357861
0.43385351 -0.10280713 0.12357064
0.43346378 -0.10330752 0.12356268
0.43307406 -0.1038079 0.12355471
0.43321922 -0.10520939 0.12329035
0.43282884 -0.10571061 0.12328237
0.43243843 -0.10621184 0.1232744
0.43258092 -0.1076167 0.12301001
0.43218985 -0.10811878 0.12300202
0.43179882 -0.10862086 0.12299402
0.43193862 -0.11002912 0.12272958
0.43154693 -0.11053205 0.12272158
0.4311552 -0.11103498 0.12271357
0.43076348 -0.11153793 0.12270556
0.43037176 -0.11204085 0.12269755
0.42998004 -0.11254378 0.12268955
0.42958832 -0.11304673 0.12268154
0.42919663 -0.11354965 0.12267354
0.4288049 -0.11405259 0.12266553
0.42893809 -0.11546936 0.12240095
0.42854571 -0.11597314 0.12239294
0.42815334 -0.11647692 0.12238492
0.42828393 -0.11789712 0.12212026
0.42789087 -0.11840177 0.12211223
0.42749783 -0.11890639 0.1221042
0.4271048 -0.11941104 0.12209617
0.42671174 -0.11991566 0.12208813
0.42683831 -0.12134095 0.12182342
0.42592567 -0.12092493 0.12207206
0.4260509 -0.12235192 0.12180732
0.42486981 -0.12386838 0.12178319
0.4249917 -0.12529962 0.12151838
0.42459735 -0.12580594 0.12151032
0.46666992 -0.047594171 0.12580186
0.4662855 -0.048087746 0.12579401
0.46650058 -0.049398728 0.12553011
0.46611547 -0.049893159 0.12552224
0.4657304 -0.05038758 0.12551436
0.46534529 -0.050881997 0.12550649
0.46496022 -0.051376417 0.12549862
0.46457514 -0.051870849 0.12549075
0.46419004 -0.05236527 0.12548289
0.46380496 -0.05285969 0.12547502
0.46341985 -0.053354122 0.12546714
0.46303478 -0.053848542 0.12545927
0.4626497 -0.054342963 0.1254514
0.4622646 -0.054837383 0.12544353
0.46187952 -0.055331815 0.12543567
0.46208531 -0.056654721 0.12517157
0.46169955 -0.057149988 0.12516369
0.46131381 -0.057645265 0.12515581
0.46092805 -0.058140542 0.12514792
0.46054232 -0.058635809 0.12514004
0.46015656 -0.059131086 0.12513216
0.4597708 -0.059626363 0.12512426
0.45938504 -0.060121641 0.12511638
0.45899931 -0.060616907 0.1251085
0.45919847 -0.061948318 0.12484428
0.45881206 -0.062444452 0.12483638
0.45842564 -0.062940575 0.12482848
0.45862219 -0.064275429 0.12456418
0.45823511 -0.064772397 0.12455627
0.45842963 -0.066109776 0.12429194
0.45804191 -0.066607602 0.12428401
0.45765415 -0.067105427 0.12427609
0.45726642 -0.067603253 0.12426817
0.45687869 -0.068101086 0.12426025
0.45649093 -0.068598911 0.12425232
0.45610321 -0.069096737 0.12424439
0.45571548 -0.069594562 0.12423647
0.45532772 -0.070092395 0.12422854
0.45493999 -0.07059022 0.12422062
0.45455223 -0.071088046 0.1242127
0.45416451 -0.071585871 0.12420477
0.45377678 -0.072083704 0.12419685
0.45338902 -0.07258153 0.12418892
0.45300129 -0.073079355 0.12418099
0.45261356 -0.073577181 0.12417307
0.4522258 -0.074075006 0.12416515
0.45183808 -0.074572839 0.12415723
0.45145035 -0.075070664 0.1241493
0.45106259 -0.07556849 0.12414137
0.45067486 -0.076066315 0.12413345
0.45028713 -0.076564148 0.12412553
0.44989938 -0.077061974 0.12411761
0.44951165 -0.077559799 0.12410968
0.44912392 -0.078057624 0.12410175
0.44873616 -0.078555457 0.12409383
0.44834843 -0.079053283 0.1240859
0.44796067 -0.079551108 0.12407798
0.44757295 -0.080048934 0.12407006
0.44718522 -0.080546767 0.12406213
0.44679746 -0.081044592 0.12405421
0.44640973 -0.081542417 0.12404628
0.446022 -0.082040243 0.12403835
0.44563425 -0.082538076 0.12403043
0.44524652 -0.083035901 0.12402251
0.44485879 -0.083533727 0.12401459
0.44447103 -0.084031552 0.12400666
0.4440833 -0.084529378 0.12399873
0.44369557 -0.08502721 0.12399081
0.44330782 -0.085525036 0.12398288
0.44292009 -0.086022876 0.12397496
0.44253233 -0.086520702 0.12396704
0.4421446 -0.087018527 0.12395911
0.44175687 -0.08751636 0.12395119
0.44136912 -0.088014185 0.12394326
0.44098139 -0.088512011 0.12393533
0.44059363 -0.089009836 0.12392741
0.4402059 -0.089507662 0.12391949
0.43981817 -0.090005495 0.12391157
0.43943042 -0.09050332 0.12390364
0.43904269 -0.091001146 0.12389571
0.43865496 -0.091498971 0.12388779
0.4382672 -0.091996804 0.12387986
0.43787947 -0.092494629 0.12387194
0.43749174 -0.092992455 0.12386402
0.43710399 -0.09349028 0.12385609
0.43671626 -0.093988113 0.12384817
0.43632853 -0.094485939 0.12384024
0.43594077 -0.094983764 0.12383232
0.43609554 -0.096372187 0.12356719
0.43570712 -0.096870877 0.12355925
0.43531874 -0.097369544 0.12355132
0.43547085 -0.09876138 0.12328614
0.43508178 -0.099260911 0.12327818
0.43469271 -0.099760443 0.12327023
0.43484217 -0.10115568 0.12300498
0.43445244 -0.10165605 0.12299702
0.43406269 -0.10215644 0.12298905
0.43367296 -0.10265682 0.12298109
0.43381917 -0.10405634 0.12271576
0.43342876 -0.10455757 0.12270778
0.43303838 -0.10505881 0.1226998
0.432648 -0.10556003 0.12269183
0.43279082 -0.10696378 0.12242644
0.43239975 -0.10746586 0.12241845
0.43200871 -0.10796795 0.12241045
0.43214887 -0.1093751 0.12214503
0.43175715 -0.10987803 0.12213702
0.43136546 -0.11038096 0.12212902
0.43097374 -0.1108839 0.12212101
0.43058202 -0.11138684 0.122113
0.43019029 -0.11188976 0.12210499
0.42979857 -0.1123927 0.12209699
0.42940688 -0.11289564 0.12208898
0.42901516 -0.11339857 0.12208098
0.4291487 -0.11481423 0.12181541
0.42875633 -0.11531802 0.1218074
0.42836395 -0.1158218 0.12179937
0.42849487 -0.1172409 0.12153373
0.42810184 -0.11774553 0.1215257
0.4277088 -0.11825017 0.12151767
0.42731577 -0.1187548 0.12150963
0.42744333 -0.12017812 0.12124394
0.42704964 -0.12068361 0.12123589
0.42665592 -0.1211891 0.12122785
0.42626223 -0.12169458 0.1212198
0.42586851 -0.12220007 0.12121175
0.42520338 -0.12464117 0.12092987
0.42480901 -0.12514751 0.12092181
0.42441466 -0.12565383 0.12091375
0.42350629 -0.12523298 0.12116348
0.46632218 -0.049250197 0.12494757
0.46593708 -0.049744628 0.1249397
0.465552 -0.050239049 0.12493183
0.46516693 -0.050733469 0.12492396
0.46478182 -0.05122789 0.12491609
0.46439674 -0.051722322 0.12490822
0.46401164 -0.052216742 0.12490035
0.46362656 -0.052711163 0.12489248
0.46324149 -0.053205594 0.12488461
0.46285638 -0.053700015 0.12487674
0.46247131 -0.054194435 0.12486887
0.46208623 -0.054688856 0.124861
0.46170112 -0.055183288 0.12485313
0.46190661 -0.056505933 0.12458804
0.46152085 -0.0570012 0.12458015
0.46113512 -0.057496477 0.12457226
0.46074936 -0.057991758 0.12456438
0.4603636 -0.058487024 0.1245565
0.45997787 -0.058982302 0.12454861
0.4595921 -0.059477579 0.12454073
0.45920634 -0.059972856 0.12453285
0.45882061 -0.060468122 0.12452497
0.45901945 -0.061799277 0.12425973
0.45863304 -0.062295411 0.12425184
0.45824662 -0.062791534 0.12424394
0.45844287 -0.064126134 0.12397864
0.45863774 -0.065462396 0.12371332
0.45825002 -0.065960221 0.12370539
0.45786229 -0.066458046 0.12369747
0.45747453 -0.066955879 0.12368955
0.4570868 -0.067453705 0.12368162
0.45669907 -0.06795153 0.1236737
0.45631132 -0.068449356 0.12366577
0.45592359 -0.068947181 0.12365784
0.45553586 -0.069445014 0.12364992
0.4551481 -0.069942839 0.123642
0.45476037 -0.070440665 0.12363408
0.45437261 -0.07093849 0.12362615
0.45398489 -0.071436323 0.12361822
0.45359716 -0.071934149 0.1236103
0.4532094 -0.072431974 0.12360238
0.45282167 -0.0729298 0.12359445
0.45243394 -0.073427632 0.12358653
0.45204619 -0.073925458 0.1235786
0.45165846 -0.074423283 0.12357068
0.45127073 -0.074921109 0.12356275
0.45088297 -0.075418942 0.12355483
0.45049524 -0.075916767 0.12354691
0.45010751 -0.076414593 0.12353898
0.44971976 -0.076912418 0.12353106
0.44933203 -0.077410251 0.12352313
0.4489443 -0.077908076 0.1235152
0.44855654 -0.078405902 0.12350728
0.44816881 -0.078903727 0.12349936
0.44778106 -0.079401553 0.12349144
0.44739333 -0.079899386 0.12348351
0.4470056 -0.080397211 0.12347558
0.44661784 -0.080895036 0.12346766
0.44623011 -0.081392862 0.12345973
0.44584239 -0.081890695 0.12345181
0.44545463 -0.08238852 0.12344389
0.4450669 -0.082886346 0.12343596
0.44467917 -0.083384171 0.12342804
0.44429141 -0.083882004 0.12342011
0.44390368 -0.084379829 0.12341218
0.44351596 -0.084877655 0.12340426
0.4431282 -0.08537548 0.12339634
0.44274047 -0.085873321 0.12338842
0.44235271 -0.086371146 0.12338049
0.44196498 -0.086868979 0.12337256
0.44157726 -0.087366804 0.12336464
0.4411895 -0.08786463 0.12335671
0.44080177 -0.088362455 0.12334879
0.44041401 -0.088860288 0.12334087
0.44002628 -0.089358114 0.12333294
0.43963856 -0.089855939 0.12332502
0.4392508 -0.090353765 0.12331709
0.43886307 -0.090851597 0.12330917
0.43847534 -0.091349423 0.12330125
0.43808758 -0.091847248 0.12329332
0.43769985 -0.092345074 0.1232854
0.43731213 -0.092842907 0.12327747
0.43692437 -0.093340732 0.12326954
0.4370808 -0.094726354 0.12300345
0.43669242 -0.095225021 0.12299552
0.436304 -0.095723711 0.12298758
0.43591562 -0.096222378 0.12297964
0.43552721 -0.096721068 0.12297171
0.43513882 -0.097219743 0.12296376
0.4352906 -0.098611318 0.12269758
0.43490154 -0.099110849 0.12268963
0.43451247 -0.099610373 0.12268168
0.43466163 -0.10100536 0.12241543
0.4342719 -0.10150573 0.12240747
0.43388218 -0.10200612 0.1223995
0.43402871 -0.10340454 0.12213319
0.4336383 -0.10390577 0.12212521
0.43324792 -0.10440701 0.12211723
0.43339178 -0.10580879 0.12185086
0.43300071 -0.10631087 0.12184288
0.43260965 -0.10681295 0.12183488
0.43221861 -0.10731503 0.12182689
0.43235913 -0.10872108 0.12156048
0.43196744 -0.10922401 0.12155247
0.43157572 -0.10972695 0.12154447
0.43118399 -0.11022988 0.12153646
0.43079227 -0.11073282 0.12152845
0.43040055 -0.11123575 0.12152044
0.43000886 -0.11173867 0.12151244
0.42961714 -0.11224162 0.12150443
0.42922541 -0.11274455 0.12149642
0.42935932 -0.11415911 0.12122987
0.42896694 -0.11466289 0.12122185
0.42857456 -0.11516667 0.12121383
0.42870584 -0.11658466 0.1209472
0.42831281 -0.11708929 0.12093917
0.42791978 -0.11759393 0.12093113
0.42752671 -0.11809856 0.12092309
0.42765465 -0.11952078 0.12065642
0.42726097 -0.12002627 0.12064837
0.42738691 -0.12145104 0.12038166
0.42699254 -0.12195737 0.1203736
0.42659816 -0.12246371 0.12036554
0.42723912 -0.12481371 0.11984005
0.42489874 -0.12305918 0.1206001
0.42502069 -0.12448905 0.1203333
0.42462632 -0.1249954 0.12032524
0.4247463 -0.12642783 0.1200584
0.4238376 -0.12600806 0.12030912
0.4658795 -0.044683445 0.12517053
0.46549639 -0.045175314 0.12516269
0.46537361 -0.050090518 0.12434929
0.46498853 -0.050584938 0.12434142
0.46460345 -0.051079359 0.12433355
0.46421835 -0.051573791 0.12432568
0.46383327 -0.052068211 0.12431781
0.46344817 -0.052562632 0.12430994
0.46306309 -0.053057063 0.12430207
0.46267799 -0.053551484 0.1242942
0.46229291 -0.054045904 0.12428633
0.46190783 -0.054540325 0.12427846
0.46152273 -0.055034757 0.12427059
0.46172792 -0.056357149 0.1240045
0.46134216 -0.056852415 0.12399662
0.46095642 -0.057347693 0.12398873
0.46057066 -0.05784297 0.12398084
0.4601849 -0.058338236 0.12397296
0.45979917 -0.058833517 0.12396508
0.45941341 -0.059328794 0.12395719
0.45902765 -0.059824072 0.12394931
0.45864192 -0.060319338 0.12394143
0.45884046 -0.061650235 0.12367519
0.45845404 -0.062146369 0.12366729
0.45806763 -0.062642492 0.12365939
0.45826358 -0.063976832 0.1233931
0.45845813 -0.06531284 0.12312678
0.4580704 -0.065810673 0.12311886
0.45768267 -0.066308498 0.12311093
0.4578746 -0.067647904 0.12284457
0.45748618 -0.068146586 0.12283663
0.4570978 -0.068645261 0.12282869
0.45670938 -0.069143943 0.12282076
0.45632097 -0.069642618 0.12281282
0.45593259 -0.070141293 0.12280488
0.45554417 -0.070639975 0.12279694
0.45515579 -0.07113865 0.122789
0.45476738 -0.071637332 0.12278106
0.45437896 -0.072136007 0.12277313
0.45399058 -0.07263469 0.12276519
0.45360216 -0.073133364 0.12275725
0.45321375 -0.073632054 0.12274931
0.45282537 -0.074130721 0.12274137
0.45243695 -0.074629411 0.12273344
0.45204857 -0.075128078 0.12272549
0.45166016 -0.075626768 0.12271756
0.45127174 -0.076125443 0.12270962
0.45088336 -0.07662411 0.12270168
0.45049495 -0.0771228 0.12269375
0.45010656 -0.077621467 0.1226858
0.44971815 -0.078120157 0.12267787
0.44932976 -0.078618832 0.12266993
0.44894135 -0.079117514 0.12266199
0.44855294 -0.079616189 0.12265406
0.44816455 -0.080114871 0.12264612
0.44777614 -0.080613546 0.12263818
0.44738773 -0.081112228 0.12263024
0.44699934 -0.081610903 0.1226223
0.44661093 -0.082109578 0.12261436
0.44622254 -0.08260826 0.12260643
0.44583413 -0.083106935 0.12259849
0.44544572 -0.083605617 0.12259055
0.44505733 -0.084104292 0.12258261
0.44466892 -0.084602974 0.12257467
0.44428053 -0.085101649 0.12256674
0.44389212 -0.085600331 0.12255879
0.44350374 -0.086099006 0.12255086
0.44311532 -0.086597688 0.12254292
0.44272691 -0.087096363 0.12253498
0.44233853 -0.087595053 0.12252705
0.44195011 -0.08809372 0.12251911
0.44156173 -0.088592395 0.12251117
0.44117332 -0.089091077 0.12250323
0.4407849 -0.089589752 0.12249529
0.44039652 -0.090088442 0.12248735
0.4400081 -0.090587109 0.12247942
0.43961969 -0.091085799 0.12247148
0.43923131 -0.091584466 0.12246354
0.43884289 -0.092083156 0.1224556
0.43845451 -0.092581831 0.12244766
0.4380661 -0.093080513 0.12243973
0.43767768 -0.093579188 0.12243178
0.4372893 -0.094077855 0.12242385
0.43690088 -0.094576545 0.12241592
0.4365125 -0.09507522 0.12240797
0.43612409 -0.095573902 0.12240004
0.4357357 -0.096072577 0.1223921
0.43534729 -0.096571259 0.12238416
0.43549943 -0.097961731 0.12211698
0.43511039 -0.098461255 0.12210903
0.43472132 -0.098960787 0.12210108
0.43487081 -0.10035466 0.12183384
0.43448108 -0.10085504 0.12182587
0.43462864 -0.1022515 0.12155858
0.43423826 -0.10275274 0.1215506
0.43384787 -0.10325396 0.12154263
0.43345746 -0.10375519 0.12153465
0.43360168 -0.10515588 0.1212673
0.43321061 -0.10565796 0.12125931
0.43281955 -0.10616004 0.12125131
0.43242851 -0.10666212 0.12124333
0.43256938 -0.10806707 0.12097592
0.43217766 -0.10857 0.12096792
0.43178597 -0.10907292 0.12095991
0.43139425 -0.10957587 0.12095191
0.43100253 -0.11007879 0.1209439
0.43061081 -0.11058173 0.12093589
0.43021908 -0.11108466 0.12092789
0.42982739 -0.11158759 0.12091988
0.42943567 -0.11209053 0.12091187
0.42956993 -0.11350397 0.12064432
0.42917755 -0.11400776 0.12063631
0.42878518 -0.11451155 0.12062829
0.42891681 -0.11592843 0.12036067
0.42852378 -0.11643306 0.12035264
0.42813075 -0.1169377 0.1203446
0.42773768 -0.11744233 0.12033657
0.42786598 -0.11886344 0.12006889
0.42747226 -0.11936893 0.12006085
0.42707857 -0.11987442 0.1200528
0.42720422 -0.12129892 0.11978509
0.42680985 -0.12180526 0.11977702
0.42641547 -0.1223116 0.11976896
0.42705584 -0.12466109 0.11924148
0.42666015 -0.12516913 0.11923339
0.42626444 -0.12567717 0.1192253
0.42535338 -0.12526108 0.11947697
0.42495835 -0.12576827 0.1194689
0.42456332 -0.12627546 0.11946083
0.42416829 -0.12678264 0.11945275
0.46249962 -0.053402953 0.12371167
0.46211451 -0.053897373 0.12370379
0.46172944 -0.054391794 0.12369592
0.46134433 -0.054886226 0.12368806
0.46154922 -0.056208365 0.12342096
0.46116346 -0.056703631 0.12341308
0.46077773 -0.057198908 0.1234052
0.46039197 -0.057694186 0.12339731
0.46000621 -0.058189452 0.12338942
0.45962048 -0.058684729 0.12338154
0.45923471 -0.059180006 0.12337366
0.45884895 -0.059675287 0.12336577
0.45846322 -0.060170554 0.12335789
0.45866147 -0.061501194 0.12309065
0.45827505 -0.061997328 0.12308276
0.45788863 -0.062493455 0.12307486
0.45808426 -0.063827537 0.12280755
0.45827851 -0.065163292 0.12254024
0.45789078 -0.065661117 0.12253231
0.45750305 -0.066158943 0.12252438
0.45769465 -0.067498095 0.12225702
0.45730627 -0.067996778 0.12224908
0.45691785 -0.068495452 0.12224114
0.45710683 -0.06983801 0.12197372
0.45671776 -0.070337541 0.12196577
0.45632869 -0.070837073 0.12195782
0.45593962 -0.071336597 0.12194987
0.45555055 -0.071836129 0.12194192
0.45516151 -0.07233566 0.12193397
0.45477244 -0.072835192 0.12192601
0.45438337 -0.073334724 0.12191806
0.4539943 -0.073834255 0.12191011
0.45360523 -0.074333772 0.12190216
0.45321617 -0.074833304 0.1218942
0.45225704 -0.074479602 0.12214588
0.45186862 -0.07497827 0.12213795
0.45148024 -0.075476959 0.12213001
0.45109183 -0.075975634 0.12212207
0.45070344 -0.076474302 0.12211414
0.45031503 -0.076972991 0.12210619
0.44992664 -0.077471659 0.12209826
0.44953823 -0.077970348 0.12209032
0.44914982 -0.078469023 0.12208238
0.44876143 -0.078967705 0.12207444
0.44837302 -0.07946638 0.12206651
0.44798461 -0.079965062 0.12205856
0.44759622 -0.080463737 0.12205063
0.44720781 -0.08096242 0.12204269
0.44681942 -0.081461094 0.12203475
0.44643101 -0.081959769 0.12202682
0.4460426 -0.082458451 0.12201887
0.44565421 -0.082957126 0.12201094
0.4452658 -0.083455808 0.122003
0.44487742 -0.083954483 0.12199506
0.444489 -0.084453166 0.12198713
0.44410059 -0.08495184 0.12197918
0.4437122 -0.085450523 0.12197125
0.44332379 -0.085949197 0.12196331
0.44293538 -0.08644788 0.12195537
0.44254699 -0.086946554 0.12194743
0.44215858 -0.087445244 0.1219395
0.4417702 -0.087943912 0.12193156
0.44138178 -0.088442586 0.12192362
0.4409934 -0.088941269 0.12191568
0.44060498 -0.089439943 0.12190774
0.44021657 -0.089938633 0.12189981
0.43982819 -0.090437301 0.12189186
0.43943977 -0.09093599 0.12188393
0.43905139 -0.091434658 0.12187599
0.43866298 -0.091933347 0.12186805
0.43827456 -0.092432022 0.12186012
0.43788618 -0.092930704 0.12185217
0.43749776 -0.093429379 0.12184424
0.43710938 -0.093928047 0.1218363
0.43672097 -0.094426736 0.12182836
0.43633255 -0.094925411 0.12182043
0.43594417 -0.095424093 0.12181249
0.43555576 -0.095922768 0.12180455
0.43570825 -0.097312137 0.12153638
0.43531922 -0.097811669 0.12152843
0.43493015 -0.098311186 0.12152048
0.43507999 -0.099703953 0.12125225
0.43469027 -0.10020434 0.12124429
0.43483818 -0.10159969 0.12097601
0.4344478 -0.10210093 0.12096803
0.43405741 -0.10260216 0.12096005
0.433667 -0.10310338 0.12095207
0.43381158 -0.10450297 0.12068374
0.43342051 -0.10500505 0.12067574
0.43302947 -0.10550713 0.12066776
0.43263841 -0.10600922 0.12065976
0.43277964 -0.10741304 0.12039137
0.43238795 -0.10791598 0.12038336
0.43199623 -0.10841891 0.12037536
0.4316045 -0.10892184 0.12036735
0.43121278 -0.10942478 0.12035935
0.43082106 -0.10992771 0.12035134
0.43042937 -0.11043064 0.12034333
0.43003765 -0.11093358 0.12033533
0.43017292 -0.11234506 0.1200668
0.42978054 -0.11284885 0.12005878
0.42938817 -0.11335263 0.12005077
0.42899579 -0.11385642 0.12004274
0.42912778 -0.11527219 0.11977414
0.42873475 -0.11577684 0.1197661
0.42886472 -0.11719513 0.11949746
0.428471 -0.11770061 0.11948942
0.42807731 -0.1182061 0.11948137
0.42768359 -0.11871159 0.11947332
0.42781025 -0.12013414 0.11920463
0.42741588 -0.12064048 0.11919657
0.42702153 -0.12114681 0.11918851
0.42662716 -0.12165315 0.11918046
0.42675051 -0.12307996 0.11891169
0.42687252 -0.12450846 0.1186429
0.42647684 -0.1250165 0.11863481
0.42608115 -0.12552455 0.11862672
0.42517039 -0.12510872 0.1188794
0.42477536 -0.12561591 0.11887132
0.42438033 -0.1261231 0.11886325
0.4239853 -0.12663028 0.11885518
0.46193615 -0.053748846 0.12312127
0.46155104 -0.054243267 0.1231134
0.46116596 -0.054737698 0.12310553
0.46137053 -0.05605958 0.12283742
0.46098477 -0.056554846 0.12282954
0.46059901 -0.057050124 0.12282166
0.46021327 -0.057545401 0.12281377
0.45982751 -0.058040667 0.12280589
0.45944178 -0.058535945 0.122798
0.45905602 -0.059031222 0.12279012
0.45867026 -0.059526499 0.12278224
0.45828453 -0.060021766 0.12277436
0.45848244 -0.061352156 0.12250612
0.45809603 -0.06184829 0.12249822
0.45770961 -0.062344413 0.12249032
0.45790493 -0.063678242 0.12222201
0.45809889 -0.065013736 0.12195369
0.45771116 -0.065511562 0.12194576
0.45790315 -0.066849612 0.12167741
0.45751473 -0.067348287 0.12166947
0.45712632 -0.067846969 0.12166153
0.45731565 -0.069188431 0.12139313
0.45692658 -0.069687948 0.12138518
0.45653751 -0.070187479 0.12137722
0.45614848 -0.070687011 0.12136927
0.45575941 -0.071186535 0.12136132
0.45537034 -0.071686067 0.12135337
0.45498127 -0.072185598 0.12134542
0.4545922 -0.07268513 0.12133747
0.45420313 -0.073184662 0.12132952
0.45381406 -0.073684193 0.12132157
0.45342502 -0.07418371 0.12131361
0.45303595 -0.074683242 0.12130566
0.45264688 -0.075182773 0.12129771
0.45168871 -0.074828461 0.1215504
0.45130029 -0.075327151 0.12154246
0.45091191 -0.075825825 0.12153452
0.4505235 -0.076324493 0.12152658
0.45013511 -0.076823182 0.12151864
0.4497467 -0.07732185 0.12151071
0.44935828 -0.077820539 0.12150277
0.4489699 -0.078319214 0.12149483
0.44858149 -0.078817897 0.12148689
0.4481931 -0.079316571 0.12147895
0.44780469 -0.079815254 0.12147102
0.44741631 -0.080313928 0.12146308
0.44702789 -0.080812611 0.12145514
0.44663948 -0.081311285 0.12144721
0.44625109 -0.08180996 0.12143926
0.44586268 -0.082308643 0.12143133
0.4454743 -0.082807317 0.12142339
0.44508588 -0.083306 0.12141545
0.44469747 -0.083804674 0.12140751
0.44430909 -0.084303357 0.12139957
0.44392067 -0.084802032 0.12139164
0.44353226 -0.085300714 0.1213837
0.44314387 -0.085799389 0.12137576
0.44275546 -0.086298078 0.12136782
0.44236708 -0.086796746 0.12135988
0.44197866 -0.087295435 0.12135194
0.44159025 -0.087794103 0.12134401
0.44120187 -0.088292778 0.12133607
0.44081345 -0.088791467 0.12132813
0.44097495 -0.090168655 0.12105916
0.44058588 -0.090668187 0.12105121
0.44019681 -0.091167718 0.12104326
0.43980774 -0.09166725 0.12103531
0.43941867 -0.092166781 0.12102735
0.4390296 -0.092666313 0.1210194
0.43864056 -0.09316583 0.12101145
0.4382515 -0.093665361 0.1210035
0.43786243 -0.094164893 0.12099554
0.43747336 -0.094664425 0.12098759
0.43708429 -0.095163956 0.12097964
0.43669525 -0.09566348 0.12097169
0.43630618 -0.096163012 0.12096374
