# .PCD v0.7 - Point Cloud Data file format
VERSION 0.7
FIELDS x y z
SIZE 4 4 4
TYPE F F F
COUNT 1 1 1
WIDTH 1380
HEIGHT 1
VIEWPOINT 0 0 0 1 0 0 0
POINTS 1380
DATA ascii
0.51919186 -0.07892967 0.18213117
0.51750439 -0.077804968 0.18252952
0.51710176 -0.078315482 0.18250908
0.51669914 -0.078825988 0.18248864
0.51565677 -0.078515507 0.18267773
0.51525474 -0.079025179 0.18265733
0.51421434 -0.078712128 0.18284655
0.51381302 -0.079220943 0.18282618
0.51277465 -0.078905374 0.18301547
0.51237404 -0.079413339 0.18299513
0.51133764 -0.079095252 0.18318453
0.51030266 -0.078775458 0.183374
0.50926888 -0.078453936 0.18356356
0.50823653 -0.078130759 0.18375315
0.50720555 -0.077805877 0.18394284
0.50680822 -0.07830961 0.18392266
0.50577921 -0.07798221 0.18411244
0.5053826 -0.078485101 0.1840923
0.50498593 -0.078987993 0.18407217
0.50458926 -0.079490885 0.18405202
0.50419265 -0.079993777 0.18403189
0.50379598 -0.080496661 0.18401174
0.50339937 -0.080999553 0.18399161
0.5030027 -0.081502445 0.18397148
0.50260609 -0.082005337 0.18395133
0.50095803 -0.080830656 0.18435171
0.50056267 -0.081331849 0.18433164
0.49954301 -0.080992579 0.18452188
0.4985247 -0.080651633 0.18471222
0.49688464 -0.079466783 0.185113
0.49586964 -0.079121582 0.18530349
0.49423432 -0.077930853 0.18570451
0.49384367 -0.07842613 0.18568468
0.49283269 -0.078075863 0.18587537
0.49244273 -0.078570284 0.18585557
0.49143371 -0.078217432 0.18604636
0.4910444 -0.078711018 0.1860266
0.49003741 -0.078355655 0.1862175
0.48964879 -0.078848392 0.18619776
0.48926017 -0.079341128 0.18617803
0.48825586 -0.07898239 0.18636908
0.48725289 -0.078621961 0.18656017
0.48686558 -0.079112999 0.1865405
0.48525092 -0.077895977 0.18694258
0.48363894 -0.076675624 0.18734479
0.48325431 -0.077163272 0.18732525
0.4816463 -0.075937793 0.18772767
0.48126301 -0.076423757 0.18770821
0.48026937 -0.076051474 0.18789978
0.4792771 -0.075677492 0.18809143
0.47828615 -0.075301826 0.18828313
0.4769159 -0.075407036 0.18845557
0.47592825 -0.075027093 0.18864748
0.4755483 -0.075508818 0.18862818
0.47516835 -0.07599055 0.1886089
0.47539344 -0.077337332 0.18837827
0.47501284 -0.077819899 0.18835895
0.4746322 -0.078302473 0.18833962
0.4742516 -0.078785047 0.18832029
0.47387099 -0.079267614 0.18830097
0.47409201 -0.080619447 0.18807018
0.47371072 -0.081102863 0.18805082
0.47272912 -0.080715336 0.188243
0.47294816 -0.082069695 0.18801211
0.47256687 -0.082553118 0.18799274
0.47218558 -0.083036534 0.18797338
0.47180429 -0.083519958 0.18795402
0.47142303 -0.084003381 0.18793467
0.47163805 -0.085362829 0.18770358
0.47125608 -0.085847102 0.18768418
0.47087413 -0.08633136 0.18766479
0.47049218 -0.086815625 0.18764541
0.47011024 -0.087299898 0.187626
0.46913531 -0.086903907 0.18781851
0.46875402 -0.087387323 0.18779916
0.4677811 -0.086988792 0.18799178
0.46740049 -0.087471366 0.18797246
0.46701986 -0.087953933 0.18795313
0.46663925 -0.088436514 0.1879338
0.4668476 -0.089804418 0.18770236
0.56683177 -0.11595658 0.16939199
0.54959857 -0.10028519 0.1741056
0.55047405 -0.10243795 0.17366408
0.55004406 -0.10298318 0.17364225
0.54896325 -0.10272207 0.17383038
0.54853386 -0.10326646 0.17380857
0.54680574 -0.10219486 0.17420679
0.54465359 -0.10166088 0.17458346
0.51898354 -0.078741483 0.18154155
0.5179382 -0.078435548 0.18173146
0.51753491 -0.078946911 0.18171097
0.51713157 -0.079458266 0.1816905
0.51544952 -0.078328252 0.18209106
0.51504749 -0.078837924 0.18207064
0.51400745 -0.078525186 0.18226084
0.51296878 -0.078210771 0.18245107
0.51256812 -0.078718744 0.18243073
0.51153147 -0.078401804 0.18262109
0.51049608 -0.078083172 0.1828115
0.50946206 -0.077762812 0.183002
0.50842935 -0.077440783 0.18319252
0.50739801 -0.077117071 0.18338315
0.50636804 -0.076791666 0.18357384
0.50597137 -0.077294558 0.1835537
0.50494337 -0.076966606 0.18374448
0.50454742 -0.077468649 0.18372437
0.5041514 -0.077970698 0.18370427
0.50375545 -0.078472741 0.18368416
0.5033595 -0.078974791 0.18366405
0.50296348 -0.079476826 0.18364395
0.50256753 -0.079978883 0.18362385
0.50217158 -0.080480918 0.18360375
0.50177556 -0.080982968 0.18358363
0.50075418 -0.080646515 0.18377478
0.49910954 -0.0794691 0.18417723
0.49809155 -0.079128459 0.18436852
0.49707487 -0.078786075 0.18455991
0.49668223 -0.079283886 0.18453997
0.49442357 -0.077253617 0.18515421
0.4934116 -0.076905347 0.18534581
0.49240088 -0.076555356 0.1855375
0.49201161 -0.077048935 0.18551774
0.4916223 -0.077542514 0.18549797
0.49061432 -0.07718917 0.18568976
0.4902257 -0.077681907 0.18567003
0.48921973 -0.077326015 0.18586195
0.48883179 -0.077817895 0.18584225
0.48844382 -0.078309789 0.18582255
0.48744053 -0.077950507 0.18601459
0.48643857 -0.077589542 0.18620668
0.4854379 -0.077226847 0.18639888
0.4844386 -0.076862492 0.18659113
0.48282799 -0.075641915 0.18699531
0.48244402 -0.076128721 0.18697581
0.48144871 -0.075759247 0.18716827
0.48045474 -0.075388126 0.18736078
0.47946215 -0.075015314 0.18755338
0.47808957 -0.075124219 0.18772665
0.47710031 -0.07474716 0.18791941
0.47671971 -0.075229742 0.18790008
0.47573239 -0.074850112 0.18809295
0.47535244 -0.075331837 0.18807366
0.47497249 -0.075813562 0.18805437
0.47459254 -0.076295286 0.18803509
0.47421259 -0.076777019 0.18801579
0.47383264 -0.077258743 0.18799649
0.47345269 -0.077740468 0.18797721
0.47307274 -0.078222193 0.18795791
0.47329414 -0.079572894 0.18772615
0.47291353 -0.080055468 0.18770683
0.4725329 -0.080538042 0.1876875
0.47215229 -0.081020609 0.18766819
0.47177166 -0.08150319 0.18764886
0.47139105 -0.081985757 0.18762954
0.47101045 -0.082468338 0.18761021
0.47062981 -0.082950905 0.18759088
0.47084516 -0.084309191 0.18735884
0.47046387 -0.084792614 0.18733947
0.47008261 -0.085276037 0.18732011
0.46970132 -0.085759453 0.18730076
0.46932003 -0.086242877 0.1872814
0.46893874 -0.0867263 0.18726204
0.46855745 -0.087209716 0.18724269
0.46758488 -0.086811498 0.18743628
0.46720427 -0.087294072 0.18741696
0.46682364 -0.087776646 0.18739763
0.46644303 -0.08825922 0.18737832
0.46665102 -0.089626811 0.18714589
0.4668577 -0.090996116 0.18691342
0.46647575 -0.091480374 0.18689401
0.54872519 -0.099282064 0.17369075
0.54894888 -0.10062903 0.17345817
0.54786915 -0.10036743 0.17364728
0.54744112 -0.10091011 0.17362556
0.54636341 -0.10064598 0.17381479
0.54593605 -0.10118782 0.17379309
0.5448603 -0.10092113 0.17398238
0.54249042 -0.099033989 0.17459388
0.54206574 -0.099572435 0.17457232
0.54034829 -0.098488741 0.17497303
0.52046406 -0.079673409 0.1805498
0.51941699 -0.079370283 0.18074059
0.51837134 -0.079065509 0.18093143
0.51796734 -0.079577714 0.18091092
0.51692367 -0.0792704 0.18110187
0.51524228 -0.078141004 0.18150437
0.5148403 -0.078650676 0.18148395
0.51380056 -0.078338243 0.18167512
0.51276225 -0.078024141 0.18186633
0.51172525 -0.077708364 0.18205763
0.51068956 -0.077390879 0.18224896
0.50965518 -0.077071682 0.18244042
0.50862217 -0.076750815 0.18263189
0.50759053 -0.076428257 0.18282346
0.50656021 -0.076104008 0.18301508
0.50553119 -0.075778067 0.18320677
0.50513524 -0.076280102 0.18318667
0.50410819 -0.075951591 0.18337847
0.50371289 -0.076452792 0.1833584
0.50331753 -0.076953985 0.18333833
0.50292224 -0.077455185 0.18331826
0.50252694 -0.077956386 0.18329819
0.50213164 -0.078457579 0.18327811
0.50173634 -0.07895878 0.18325804
0.50134104 -0.07945998 0.18323797
0.50094575 -0.079961173 0.1832179
0.4999254 -0.079624228 0.18341003
0.49890643 -0.079285584 0.18360224
0.49788877 -0.078945249 0.1837945
0.49687245 -0.078603178 0.18398686
0.49461281 -0.076576389 0.18460394
0.49360052 -0.076229274 0.18479648
0.4925895 -0.075880438 0.18498909
0.49157986 -0.07552994 0.18518177
0.49119124 -0.076022677 0.18516204
0.49080262 -0.076515399 0.18514231
0.48979566 -0.076161534 0.18533513
0.48879004 -0.075805947 0.185528
0.48840272 -0.076296985 0.18550833
0.48801544 -0.076788031 0.18548866
0.48701251 -0.076429054 0.18568167
0.48601085 -0.076068372 0.18587478
0.48501056 -0.07570602 0.18606792
0.48462528 -0.076194525 0.18604837
0.48301399 -0.074976265 0.18645443
0.48201767 -0.074608795 0.18664779
0.48163438 -0.075094752 0.18662833
0.48064011 -0.074724779 0.18682179
0.47964719 -0.074353121 0.18701532
0.47827432 -0.074463189 0.18718953
0.4772847 -0.074087292 0.18738323
0.47690409 -0.074569866 0.18736391
0.47591645 -0.074191399 0.18755773
0.4755365 -0.074673124 0.18753843
0.47515655 -0.075154848 0.18751913
0.4747766 -0.075636581 0.18749985
0.47439665 -0.076118305 0.18748055
0.47401673 -0.07660003 0.18746127
0.47303379 -0.07621567 0.1876553
0.47265452 -0.076696545 0.18763603
0.47227523 -0.077177428 0.18761678
0.47189596 -0.077658303 0.18759753
0.47211698 -0.079008661 0.18736482
0.47173703 -0.079490386 0.18734552
0.47135708 -0.079972111 0.18732622
0.47157544 -0.081325896 0.18709335
0.47119483 -0.081808463 0.18707404
0.47081423 -0.082291037 0.18705471
0.47043359 -0.082773611 0.18703538
0.47005299 -0.083256185 0.18701605
0.46967238 -0.083738752 0.18699673
0.46929175 -0.084221333 0.1869774
0.46891114 -0.0847039 0.18695807
0.46853051 -0.085186481 0.18693875
0.4681499 -0.085669048 0.18691944
0.46776927 -0.08615163 0.18690011
0.46738866 -0.086634196 0.18688078
0.46700805 -0.087116778 0.18686146
0.46662742 -0.087599345 0.18684213
0.46624681 -0.088081926 0.1868228
0.46645448 -0.089449205 0.18658942
0.4666608 -0.090818197 0.18635596
0.46627885 -0.091302462 0.18633658
0.54654843 -0.096673265 0.17370145
0.54612237 -0.097213417 0.17367981
0.54634708 -0.098558418 0.17344631
0.54527032 -0.098293707 0.17363656
0.54484433 -0.098833844 0.17361492
0.54441828 -0.099373989 0.1735933
0.5433442 -0.099105917 0.17378365
0.54162413 -0.098027118 0.1741861
0.54055339 -0.097754784 0.17437665
0.5240472 -0.081196062 0.1791712
0.52235246 -0.080085069 0.17957494
0.52130312 -0.079785682 0.17976657
0.52025509 -0.079484604 0.17995824
0.51984978 -0.079998493 0.17993766
0.51880372 -0.079694837 0.18012945
0.51775903 -0.079389527 0.18032131
0.51671571 -0.079082526 0.18051325
0.51503503 -0.077953756 0.18091768
0.51399499 -0.077642493 0.18110979
0.51295632 -0.077329554 0.18130194
0.51255566 -0.077837519 0.1812816
0.51088297 -0.076698601 0.18168646
0.5098483 -0.076380551 0.18187883
0.50881499 -0.076060839 0.18207127
0.507783 -0.075739451 0.18226378
0.50675237 -0.075416356 0.18245633
0.505723 -0.075091563 0.18264896
0.504695 -0.074765041 0.18284167
0.5042997 -0.075266242 0.1828216
0.50327373 -0.074937224 0.18301441
0.50287908 -0.075437576 0.18299437
0.50248444 -0.075937934 0.18297432
0.5020898 -0.076438278 0.1829543
0.50169516 -0.076938637 0.18293425
0.50130051 -0.077438995 0.18291421
0.50090587 -0.077939339 0.18289419
0.50051123 -0.078439698 0.18287414
0.50011659 -0.078940049 0.1828541
0.49909729 -0.07860256 0.18304725
0.49807933 -0.07826338 0.18324046
0.49706265 -0.077922478 0.18343376
0.49480206 -0.075899154 0.18405366
0.49378943 -0.075553194 0.18424714
0.49277809 -0.07520552 0.1844407
0.49176815 -0.074856177 0.1846343
0.49075955 -0.07450515 0.184828
0.49037158 -0.07499703 0.1848083
0.48936495 -0.074643455 0.18500207
0.48897767 -0.075134493 0.1849824
0.48797306 -0.074778385 0.18517628
0.48758644 -0.075268582 0.18515666
0.48658377 -0.074909888 0.18535067
0.48558253 -0.074549548 0.18554474
0.48519722 -0.075038061 0.18552518
0.48419794 -0.074675165 0.18571933
0.48320001 -0.074310601 0.18591355
0.48220336 -0.073944293 0.18610786
0.48120812 -0.073576331 0.18630221
0.48082548 -0.074061438 0.18628278
0.47945029 -0.074175201 0.18645786
0.47845903 -0.073802166 0.18665242
0.47807774 -0.074285582 0.18663307
0.47708848 -0.073909998 0.18682772
0.47670788 -0.074392565 0.18680839
0.47572058 -0.074014418 0.1870032
0.47534063 -0.074496143 0.18698391
0.47496068 -0.074977867 0.18696462
0.47397611 -0.074596353 0.18715951
0.47359684 -0.075077228 0.18714026
0.47321755 -0.075558111 0.187121
0.47283825 -0.076038994 0.18710174
0.47245899 -0.076519869 0.18708248
0.47207969 -0.077000752 0.18706323
0.47170043 -0.077481627 0.18704396
0.47132114 -0.07796251 0.18702471
0.47094184 -0.078443401 0.18700546
0.47056258 -0.078924268 0.18698619
0.47078124 -0.080276854 0.18675241
0.47040129 -0.080758579 0.18673313
0.47002134 -0.081240319 0.18671383
0.46964139 -0.081722043 0.18669455
0.46926144 -0.082203768 0.18667525
0.46888149 -0.0826855 0.18665595
0.46850154 -0.083167225 0.18663667
0.46812159 -0.08364895 0.18661737
0.46774164 -0.084130675 0.18659809
0.46736169 -0.084612399 0.1865788
0.46757305 -0.085974328 0.18634459
0.46719244 -0.086456902 0.18632528
0.46681181 -0.086939476 0.18630596
0.4664312 -0.087422043 0.18628663
0.4660506 -0.087904625 0.1862673
0.46566996 -0.088387191 0.18624797
0.46587661 -0.089755021 0.18601358
0.46549535 -0.090238437 0.18599422
0.46511406 -0.090721861 0.18597487
0.46356219 -0.089429662 0.18638588
0.54567707 -0.095672004 0.17329243
0.54460073 -0.095407628 0.17348361
0.54417598 -0.095946088 0.17346205
0.5437513 -0.096484534 0.17344049
0.54332662 -0.09702298 0.17341892
0.54290193 -0.097561434 0.17339736
0.54182959 -0.097291999 0.17358878
0.54075849 -0.097020827 0.17378028
0.52852303 -0.084839202 0.17733854
0.52214283 -0.079895638 0.17898144
0.52173615 -0.08041124 0.17896079
0.52068782 -0.08011131 0.17915341
0.51964086 -0.079809688 0.1793461
0.5185951 -0.079506345 0.17953888
0.51755077 -0.079201348 0.1797317
0.5165078 -0.078894652 0.17992461
0.51482779 -0.077766508 0.18033101
0.5137881 -0.07745555 0.18052408
0.5121128 -0.076321483 0.18093072
0.51107645 -0.076006316 0.18112396
0.51004142 -0.075689428 0.18131728
0.50900781 -0.075370871 0.18151063
0.50797546 -0.075050645 0.18170409
0.50694448 -0.074728698 0.18189758
0.50591487 -0.074405074 0.18209115
0.50488651 -0.074079707 0.1822848
0.50385952 -0.073752694 0.18247852
0.50346488 -0.074253045 0.18245848
0.50243998 -0.073923491 0.18265229
0.50204599 -0.074423008 0.1826323
0.501652 -0.074922509 0.1826123
0.50125802 -0.075422011 0.18259229
0.50086409 -0.075921521 0.18257229
0.5004701 -0.076421022 0.18255228
0.50007612 -0.076920539 0.18253228
0.49968213 -0.077420041 0.18251228
0.49866319 -0.07708285 0.18270639
0.49764553 -0.076743953 0.18290059
0.49662924 -0.076403394 0.18309483
0.4949913 -0.075221919 0.18350336
0.49397835 -0.074877128 0.18369779
0.49296671 -0.074530594 0.18389228
0.49195644 -0.074182414 0.18408684
0.49094751 -0.073832542 0.18428148
0.4899399 -0.073480979 0.18447615
0.48955259 -0.073972017 0.1844565
0.488547 -0.073617905 0.18465129
0.48754269 -0.073262066 0.18484616
0.48715672 -0.073751412 0.18482657
0.48615447 -0.073393077 0.18502155
0.48515356 -0.07303305 0.18521658
0.48476893 -0.073520698 0.18519704
0.48376998 -0.073158138 0.18539216
0.48338604 -0.073644936 0.18537267
0.48238906 -0.073279798 0.18556793
0.48139349 -0.072912991 0.18576322
0.48001727 -0.073028751 0.18593919
0.47963533 -0.073513016 0.18591981
0.47864375 -0.073141135 0.18611531
0.47826245 -0.073624551 0.18609595
0.4772729 -0.073250122 0.18629156
0.47689226 -0.073732704 0.18627223
0.47590464 -0.073355705 0.18646796
0.47552469 -0.073837429 0.18644868
0.47453913 -0.073457927 0.18664448
0.47415987 -0.073938802 0.18662523
0.4731763 -0.073556758 0.18682115
0.47279769 -0.074036792 0.18680191
0.47241908 -0.074516825 0.18678269
0.47204044 -0.074996851 0.18676347
0.47166184 -0.075476885 0.18674424
0.47128323 -0.075956926 0.18672502
0.47090462 -0.076436959 0.1867058
0.47052601 -0.076916993 0.18668658
0.47014737 -0.077397026 0.18666735
0.46976876 -0.077877052 0.18664813
0.46939015 -0.078357086 0.18662891
0.46960849 -0.079709366 0.18639414
0.46922919 -0.080190241 0.18637489
0.46944553 -0.081545062 0.18614002
0.46847063 -0.081152 0.18633637
0.46868563 -0.082508512 0.18610144
0.46830568 -0.082990237 0.18608214
0.46792573 -0.083471969 0.18606286
0.46695352 -0.083075523 0.18625934
0.46716583 -0.084435418 0.18602428
0.46678588 -0.084917143 0.18600498
0.46640593 -0.085398868 0.18598568
0.46602598 -0.0858806 0.1859664
0.46564603 -0.086362325 0.18594711
0.46526608 -0.086844049 0.18592782
0.46488613 -0.087325774 0.18590853
0.46509314 -0.088692479 0.18567316
0.46529877 -0.09006083 0.18543775
0.4643319 -0.089657627 0.18563451
0.46395129 -0.090140194 0.18561518
0.54480642 -0.094671361 0.17288536
0.54308033 -0.093603075 0.17329137
0.54265702 -0.094139837 0.17326988
0.54223365 -0.094676591 0.17324838
0.54181027 -0.095213346 0.17322689
0.54138696 -0.095750108 0.17320539
0.54031622 -0.095479272 0.17339784
0.53989357 -0.096015185 0.17337637
0.52467859 -0.081110522 0.17778689
0.52257586 -0.080519728 0.17817377
0.52216852 -0.081036165 0.17815308
0.52111989 -0.080737397 0.17834663
0.52007252 -0.080436952 0.17854027
0.51902658 -0.080134787 0.17873397
0.51734251 -0.079013169 0.1791421
0.5162999 -0.078706779 0.17933598
0.51462054 -0.077579252 0.17974432
0.51294386 -0.076448321 0.18015282
0.51126993 -0.07531403 0.18056144
0.51023459 -0.074998304 0.1807557
0.50920063 -0.074680902 0.18095
0.50816798 -0.074361823 0.18114439
0.50713664 -0.074041046 0.18133883
0.50610673 -0.07371857 0.18153334
0.50507802 -0.073394373 0.18172795
0.50405073 -0.073068522 0.18192258
0.50302476 -0.072740965 0.18211731
0.50263083 -0.073240466 0.1820973
0.50160688 -0.072910376 0.18229212
0.50121355 -0.073409036 0.18227215
0.50082022 -0.073907696 0.18225218
0.50042695 -0.074406348 0.18223222
0.50003362 -0.074905008 0.18221225
0.49964035 -0.075403675 0.18219228
0.49862102 -0.075067624 0.18238735
0.49822837 -0.075565428 0.18236741
0.4972111 -0.075226873 0.18256256
0.49619517 -0.074886627 0.18275779
0.49518055 -0.074544683 0.18295309
0.4941673 -0.07420104 0.18314844
0.49253336 -0.073015921 0.18355912
0.4921447 -0.073508658 0.18353938
0.49113545 -0.073159941 0.18373495
0.49012753 -0.072809532 0.18393058
0.48912093 -0.072457425 0.18412627
0.4887343 -0.072947614 0.18410665
0.48772967 -0.072592936 0.18430246
0.48672643 -0.072236605 0.18449834
0.48572451 -0.071878575 0.18469428
0.4847239 -0.071518868 0.18489027
0.48334134 -0.071643375 0.18506691
0.48295805 -0.072129332 0.18504745
0.48157886 -0.072249644 0.18522424
0.48119622 -0.072734758 0.1852048
0.48020232 -0.072366565 0.18540114
0.47920975 -0.071996681 0.18559755
0.47882846 -0.072480105 0.1855782
0.47844717 -0.072963528 0.18555884
0.47745728 -0.072590254 0.18575537
0.47707668 -0.073072828 0.18573605
0.47608873 -0.072696991 0.18593274
0.47510219 -0.072319478 0.18612945
0.47472289 -0.072800368 0.18611018
0.47373834 -0.072420321 0.186307
0.4733597 -0.072900362 0.18628778
0.4729811 -0.073380396 0.18626855
0.47260249 -0.073860422 0.18624933
0.47162127 -0.073476143 0.18644631
0.47124332 -0.073955335 0.18642713
0.47086537 -0.074434526 0.18640794
0.47048745 -0.074913703 0.18638875
0.47010949 -0.075392894 0.18636955
0.46973154 -0.075872086 0.18635036
0.46935359 -0.07635127 0.18633118
0.46897566 -0.076830454 0.18631199
0.46859771 -0.077309638 0.1862928
0.46881634 -0.078660764 0.18605711
0.46843773 -0.07914079 0.18603788
0.46805912 -0.079620823 0.18601866
0.46768051 -0.080100857 0.18599942
0.46789581 -0.081456207 0.18576357
0.46692327 -0.081060931 0.18596098
0.46654466 -0.081540965 0.18594176
0.46616605 -0.082020991 0.18592253
0.46637869 -0.083379723 0.18568653
0.46599942 -0.083860606 0.18566728
0.46621004 -0.085221887 0.18543117
0.46583009 -0.085703611 0.18541187
0.46486157 -0.085303247 0.1856095
0.46448228 -0.085784137 0.18559025
0.46410301 -0.086265005 0.18557099
0.46431029 -0.087630518 0.18533471
0.46393034 -0.088112243 0.18531542
0.46355039 -0.088593967 0.18529613
0.46258587 -0.088188536 0.18549396
0.54286212 -0.093405873 0.17267351
0.54178905 -0.093138747 0.17286678
0.5413664 -0.09367466 0.17284532
0.54094368 -0.094210558 0.17282386
0.53987336 -0.093940042 0.17301728
0.53880435 -0.093667842 0.17321077
0.52511156 -0.08173167 0.17697538
0.52341616 -0.080625914 0.17738484
0.52195853 -0.080846429 0.17755859
0.5209102 -0.080547966 0.17775312
0.51986325 -0.080247834 0.17794774
0.5188176 -0.079945982 0.1781424
0.51713425 -0.078824982 0.17855248
0.51609194 -0.078518912 0.17874734
0.51377565 -0.07657285 0.17937304
0.51146334 -0.074621752 0.17999893
0.51042771 -0.074307181 0.18019412
0.50939339 -0.073990941 0.18038937
0.50836045 -0.073673017 0.1805847
0.50732881 -0.073353387 0.18078007
0.50629854 -0.073032081 0.18097553
0.50526953 -0.072709031 0.18117106
0.50424194 -0.072384335 0.18136665
0.50321567 -0.07205794 0.18156232
0.50219071 -0.071729861 0.18175805
0.50179744 -0.072228506 0.18173808
0.50077444 -0.071897849 0.18193391
0.50038177 -0.07239566 0.18191399
0.49936083 -0.0720625 0.18210991
0.49896887 -0.072559468 0.18209001
0.49857691 -0.073056437 0.18207011
0.49818495 -0.073553391 0.18205021
0.49716735 -0.073215999 0.18224631
0.49677604 -0.073712111 0.18222643
0.49576044 -0.073372178 0.18242264
0.49474618 -0.073030539 0.1826189
0.49373323 -0.072687179 0.18281525
0.49272162 -0.072342157 0.18301165
0.49171138 -0.071995452 0.18320814
0.49070245 -0.071647041 0.18340467
0.48969486 -0.071296945 0.18360126
0.48930824 -0.071787134 0.18358164
0.48830262 -0.071434461 0.18377838
0.48729837 -0.071080133 0.18397515
0.48629546 -0.070724115 0.18417199
0.48490992 -0.070853204 0.18434939
0.48391032 -0.070492908 0.18454644
0.48352703 -0.07097888 0.18452698
0.48252946 -0.070616081 0.18472409
0.48214683 -0.071101196 0.18470466
0.48115128 -0.070735842 0.18490186
0.48076931 -0.071220115 0.18488248
0.48038736 -0.07170438 0.18486309
0.47939447 -0.071335658 0.18506044
0.47840291 -0.070965238 0.18525787
0.47802231 -0.071447819 0.18523854
0.4776417 -0.071930386 0.18521921
0.47665274 -0.071556553 0.18541679
0.47627279 -0.072038278 0.18539751
0.47528592 -0.071661934 0.18559515
0.47430038 -0.071283892 0.18579288
0.47392178 -0.071763925 0.18577366
0.47293821 -0.07138335 0.18597148
0.47256029 -0.071862541 0.18595229
0.47218233 -0.072341725 0.1859331
0.47180438 -0.072820909 0.18591392
0.47082412 -0.072436064 0.18611193
0.47044685 -0.072914399 0.18609276
0.47006956 -0.073392749 0.18607362
0.46969229 -0.073871084 0.18605445
0.46931502 -0.074349418 0.18603531
0.46893772 -0.074827768 0.18601614
0.46856046 -0.07530611 0.18599699
0.46818319 -0.075784445 0.18597783
0.46780589 -0.076262794 0.18595868
0.46802491 -0.07761278 0.18572202
0.46764699 -0.078091964 0.18570283
0.46726903 -0.078571148 0.18568364
0.46689108 -0.07905034 0.18566445
0.4661352 -0.080008708 0.18562607
0.46634948 -0.081364602 0.18538919
0.46597087 -0.081844635 0.18536997
0.46559227 -0.082324661 0.18535075
0.46521366 -0.082804695 0.18533152
0.4654246 -0.084164821 0.18509446
0.46445641 -0.083764769 0.18529308
0.46466604 -0.085126571 0.18505596
0.46428674 -0.085607462 0.18503669
0.46390748 -0.08608833 0.18501744
0.46352819 -0.08656922 0.18499818
0.46314892 -0.087050088 0.18497892
0.46276963 -0.087530978 0.18495966
0.54111522 -0.090266258 0.17272419
0.54199386 -0.092405945 0.17227134
0.54092187 -0.092138276 0.17246564
0.54049981 -0.092673331 0.17244421
0.53942984 -0.092403136 0.17263861
0.5390085 -0.09293735 0.17261721
0.53729379 -0.091857605 0.17302762
0.53428978 -0.089158863 0.17387
0.53193647 -0.087262027 0.17449668
0.52958715 -0.08536008 0.17512357
0.52788579 -0.084263451 0.17553464
0.5249005 -0.081541002 0.17637798
0.52384853 -0.081247933 0.17657326
0.52279782 -0.080953144 0.17676866
0.5213412 -0.081173129 0.17694342
0.52029389 -0.080874138 0.17713897
0.51860863 -0.079757176 0.17755085
0.51692599 -0.078636803 0.17796288
0.51062083 -0.073616043 0.17963256
0.50958622 -0.073300973 0.17982873
0.50855297 -0.072984196 0.18002501
0.50752097 -0.072665736 0.18022133
0.50649041 -0.072345577 0.18041772
0.50546104 -0.072023697 0.1806142
0.50443316 -0.071700148 0.18081073
0.50340652 -0.071374916 0.18100734
0.50238127 -0.071047992 0.18120401
0.50135726 -0.070719324 0.18140076
0.50096464 -0.071217149 0.18138082
0.49994272 -0.070885979 0.18157764
0.49955073 -0.071382947 0.18155773
0.49853081 -0.071049243 0.18175468
0.49813953 -0.071545362 0.18173482
0.4971216 -0.071209125 0.18193185
0.49673095 -0.071704395 0.18191202
0.49571505 -0.07136561 0.18210915
0.49532506 -0.071860038 0.18208936
0.4949351 -0.072354458 0.18206955
0.49392182 -0.072012261 0.18226685
0.49290991 -0.071668401 0.18246418
0.49189934 -0.071322843 0.18266161
0.4902688 -0.070136458 0.18307626
0.48988217 -0.070626646 0.18305662
0.48887557 -0.070275992 0.18325426
0.48787034 -0.069923654 0.18345194
0.48686644 -0.069569632 0.1836497
0.48547989 -0.069700748 0.18382803
0.48447928 -0.069342449 0.18402594
0.48348007 -0.068982504 0.18422395
0.48248217 -0.068620868 0.184422
0.48210022 -0.069105126 0.1844026
0.48110434 -0.068740942 0.18460076
0.48072305 -0.069224365 0.1845814
0.48034176 -0.069707789 0.18456204
0.47934854 -0.069340222 0.18476033
0.47896793 -0.069822788 0.18474101
0.4785873 -0.07030537 0.18472168
0.47759673 -0.069934383 0.18492015
0.47721678 -0.070416115 0.18490085
0.47683683 -0.07089784 0.18488157
0.47584894 -0.0705235 0.18508013
0.47546968 -0.071004376 0.18506086
0.47448382 -0.070627496 0.18525952
0.47349927 -0.070248924 0.18545826
0.47312132 -0.070728108 0.18543907
0.47213873 -0.070346966 0.18563792
0.47176147 -0.070825301 0.18561877
0.4713842 -0.071303636 0.18559961
0.4710069 -0.071781985 0.18558046
0.47002771 -0.071396634 0.18577945
0.4696511 -0.071874127 0.18576033
0.46927449 -0.072351627 0.18574122
0.46889788 -0.07282912 0.1857221
0.46852127 -0.073306613 0.18570296
0.46814466 -0.073784098 0.18568385
0.46776804 -0.074261598 0.18566473
0.46739143 -0.074739091 0.18564561
0.46701482 -0.075216584 0.18562649
0.46723413 -0.076565385 0.18538891
0.46685684 -0.077043727 0.18536974
0.46647957 -0.077522062 0.1853506
0.4661023 -0.078000411 0.18533143
0.46631828 -0.079353474 0.18509366
0.46534774 -0.078957081 0.18529312
0.4655624 -0.080311842 0.18505529
0.46518445 -0.080791034 0.18503609
0.4648065 -0.081270225 0.1850169
0.46442857 -0.081749402 0.18499771
0.46463984 -0.083108366 0.18475972
0.46426123 -0.083588406 0.1847405
0.46388263 -0.08406844 0.18472128
0.46350399 -0.084548473 0.18470205
0.46312538 -0.085028499 0.18468283
0.46274677 -0.085508533 0.18466361
0.46236816 -0.085988566 0.18464439
0.46198955 -0.086468607 0.18462516
0.46102706 -0.086062089 0.184825
0.45852345 -0.084355719 0.18544407
0.54024768 -0.089268416 0.17232588
0.54112631 -0.091406621 0.17187113
0.54070425 -0.091941692 0.1718497
0.53963393 -0.091672651 0.17204505
0.53856498 -0.091401905 0.17224045
0.53749728 -0.091129437 0.17243595
0.5357846 -0.090048656 0.17284833
0.53342897 -0.088156946 0.17347778
0.53107738 -0.086260207 0.17410743
0.52937406 -0.085167542 0.17452031
0.52767342 -0.084071539 0.17493333
0.52533245 -0.08216121 0.17556351
0.52428019 -0.081869304 0.17575979
0.52258754 -0.080763094 0.17617321
0.52113122 -0.080983393 0.17634895
0.52008426 -0.080684714 0.17654546
0.51839966 -0.079568371 0.17695929
0.51671773 -0.078448616 0.17737326
0.51376319 -0.075690158 0.17822199
0.51081395 -0.072924919 0.17907098
0.50977904 -0.072610997 0.17926811
0.50874543 -0.07229539 0.17946532
0.50771314 -0.071978085 0.17966259
0.50668222 -0.071659088 0.17985991
0.50565255 -0.071338356 0.18005733
0.50462431 -0.071015976 0.1802548
0.50359738 -0.070691891 0.18045235
0.50257182 -0.070366122 0.18064995
0.50154752 -0.070038624 0.18084764
0.50052458 -0.069709457 0.18104537
0.50013262 -0.070206426 0.18102548
0.49911168 -0.069874741 0.18122333
0.49872041 -0.070370853 0.18120347
0.49770147 -0.07003662 0.1814014
0.49731085 -0.07053189 0.18138157
0.49629393 -0.070195109 0.1815796
0.49527833 -0.069856599 0.18177775
0.49488902 -0.070350178 0.18175799
0.49387544 -0.070009172 0.1819562
0.49348682 -0.070501909 0.18193647
0.49247524 -0.070158355 0.18213478
0.491465 -0.069813117 0.18233317
0.4904561 -0.069466174 0.18253161
0.48944852 -0.069117516 0.18273017
0.48844227 -0.068767183 0.18292874
0.48705277 -0.06890282 0.18310787
0.48604986 -0.06854827 0.18330663
0.48504826 -0.068191998 0.18350548
0.48404807 -0.067834049 0.18370438
0.48304918 -0.06747441 0.18390332
0.48205161 -0.067113087 0.18410236
0.48167035 -0.06759651 0.184083
0.48128906 -0.068079926 0.18406364
0.4802942 -0.067715205 0.18426281
0.47991356 -0.068197779 0.18424349
0.47953296 -0.068680353 0.18422416
0.47854072 -0.068312213 0.18442348
0.47816077 -0.068793938 0.18440419
0.47778082 -0.069275662 0.1843849
0.47679126 -0.068904184 0.18458433
0.476412 -0.069385059 0.18456508
0.4760327 -0.069865942 0.18454583
0.47504586 -0.069491059 0.1847454
0.47466722 -0.069971107 0.18472618
0.47368237 -0.069593683 0.18492584
0.47269881 -0.069214538 0.1851256
0.47232151 -0.06969288 0.18510644
0.47134 -0.069311239 0.1853063
0.47096339 -0.069788732 0.18528716
0.47058678 -0.070266217 0.18526804
0.47021016 -0.07074371 0.18524893
0.46923199 -0.070357829 0.18544894
0.46885604 -0.07083448 0.18542986
0.46848011 -0.071311124 0.18541077
0.46810418 -0.071787767 0.18539168
0.46772823 -0.072264418 0.18537259
0.46735227 -0.072741061 0.1853535
0.46697634 -0.07321772 0.18533441
0.46660039 -0.073694356 0.18531533
0.46622443 -0.074171014 0.18529624
0.46644408 -0.075518653 0.18505771
0.46606746 -0.075996146 0.1850386
0.46569085 -0.076473638 0.18501946
0.46531424 -0.076951139 0.18500035
0.46493763 -0.077428617 0.18498123
0.46456102 -0.077906117 0.18496211
0.46477595 -0.079259686 0.18472333
0.46380779 -0.078861102 0.18492386
0.46402141 -0.080216363 0.18468502
0.46305457 -0.079816096 0.18488562
0.46326685 -0.081173047 0.18464671
0.46347782 -0.082531728 0.18440773
0.46251228 -0.082129717 0.1846084
0.46272194 -0.083490096 0.18436936
0.46234399 -0.083969288 0.18435016
0.46196604 -0.084448479 0.18433097
0.46158808 -0.084927671 0.18431178
0.46062589 -0.084521428 0.18451263
0.46024862 -0.084999762 0.18449347
0.45774743 -0.083292671 0.18511553
0.54025942 -0.090407938 0.17147289
0.53983808 -0.090942167 0.17145151
0.53876877 -0.090672567 0.17164783
0.53770071 -0.090401262 0.17184426
0.53663409 -0.090128295 0.17204075
0.53492284 -0.08904729 0.17245513
0.53321415 -0.087962858 0.17286965
0.53086358 -0.086067043 0.17350222
0.52851701 -0.084166132 0.174135
0.52681774 -0.083069891 0.17455
0.52576375 -0.082780801 0.17474714
0.52406913 -0.081678636 0.17516237
0.52237719 -0.080573045 0.17557776
0.52092123 -0.080793656 0.17575447
0.51987463 -0.080495283 0.17595196
0.51755208 -0.078563876 0.17658596
0.51587152 -0.077443935 0.17700191
0.5135563 -0.075503215 0.17763628
0.51060843 -0.072739229 0.17848918
0.50957388 -0.072425619 0.17868727
0.50854057 -0.072110318 0.17888544
0.50687408 -0.070972584 0.1793021
0.50584412 -0.070653021 0.17950046
0.50481552 -0.07033179 0.17969887
0.50378823 -0.070008874 0.17989737
0.50276232 -0.069684252 0.1800959
0.50173771 -0.069357917 0.18029453
0.50071448 -0.069029912 0.18049322
0.50032252 -0.069526874 0.18047331
0.49930125 -0.069196336 0.18067209
0.49828136 -0.068864107 0.18087095
0.49789071 -0.069359377 0.18085112
0.49687281 -0.069024608 0.18105006
0.49648285 -0.069519021 0.18103026
0.49546692 -0.069181681 0.18122934
0.49445236 -0.068842679 0.18142848
0.49343914 -0.068501972 0.18162765
0.49242723 -0.068159588 0.18182692
0.49203995 -0.068650626 0.18180725
0.49103004 -0.068305694 0.18200661
0.49002147 -0.067959033 0.18220606
0.48862895 -0.068099208 0.182386
0.48762372 -0.067748353 0.18258558
0.48661983 -0.067395814 0.18278526
0.48561725 -0.067041531 0.18298501
0.48461604 -0.066685595 0.1831848
0.48361617 -0.066327952 0.18338467
0.48261765 -0.065968633 0.1835846
0.48223636 -0.066452056 0.18356524
0.48123983 -0.066090189 0.18376528
0.48085919 -0.066572756 0.18374597
0.47986463 -0.066208325 0.18394612
0.47948468 -0.06669005 0.18392684
0.47849214 -0.066323109 0.18412706
0.47811288 -0.066803984 0.18410781
0.47773358 -0.067284867 0.18408856
0.47735432 -0.067765743 0.18406931
0.47697502 -0.068246625 0.18405004
0.47598651 -0.067874603 0.1842505
0.4756079 -0.068354636 0.18423128
0.47522929 -0.06883467 0.18421204
0.47424343 -0.06845925 0.18441261
0.47386548 -0.068938442 0.18439342
0.47288159 -0.068560459 0.18459412
0.47189906 -0.068180814 0.18479487
0.47152245 -0.068658307 0.18477575
0.47054195 -0.068276115 0.18497661
0.470166 -0.068752773 0.18495752
0.46979007 -0.069229409 0.18493843
0.46941411 -0.069706067 0.18491934
0.46843696 -0.069319651 0.18512037
0.46806169 -0.069795445 0.18510133
0.46768641 -0.070271246 0.18508227
0.46731114 -0.070747048 0.18506321
0.46693587 -0.071222849 0.18504417
0.46656057 -0.071698651 0.18502511
0.4661853 -0.072174452 0.18500605
0.46581003 -0.072650254 0.18498701
0.46543476 -0.073126048 0.18496795
0.4656547 -0.074472532 0.18472847
0.46527874 -0.074949175 0.18470939
0.46490282 -0.075425826 0.1846903
0.46452686 -0.075902469 0.18467121
0.46415094 -0.076379128 0.18465212
0.46377498 -0.076855764 0.18463303
0.46399024 -0.078208178 0.18439333
0.4630231 -0.077809066 0.18459485
0.46264717 -0.078285702 0.18457577
0.46227121 -0.07876236 0.18455668
0.46248379 -0.080118157 0.18431684
0.46210721 -0.080595642 0.18429773
0.4617306 -0.081073135 0.18427861
0.46076742 -0.080668949 0.18448032
0.46097738 -0.082028128 0.18424036
0.46060076 -0.082505621 0.18422124
0.45963961 -0.082098886 0.18442307
0.45926368 -0.08257553 0.18440399
0.45888773 -0.083052181 0.1843849
0.54004222 -0.090211667 0.17085795
0.53962088 -0.090745896 0.17083655
0.53855187 -0.09047661 0.17103387
0.53748423 -0.090205617 0.17123127
0.53577161 -0.089127764 0.1716475
0.53406167 -0.088046506 0.17206389
0.53235441 -0.086961888 0.17248039
0.53000551 -0.08506614 0.17311592
0.52830422 -0.083973907 0.17353272
0.52724862 -0.083687708 0.17373072
0.52555203 -0.082589507 0.17414778
0.52385813 -0.081487961 0.17456497
0.52175885 -0.080900274 0.17496158
0.52071124 -0.080603912 0.17515998
0.519665 -0.080305859 0.17535846
0.51734346 -0.078375377 0.17599538
0.51566356 -0.077256069 0.17641328
0.51271242 -0.074499235 0.17726982
0.51040292 -0.07255353 0.17790736
0.50873309 -0.071421511 0.17832577
0.50770086 -0.071105666 0.17852494
0.50603563 -0.06996768 0.17894359
0.50500673 -0.06964761 0.17914295
0.50397915 -0.069325849 0.17934237
0.50295287 -0.069002397 0.17954186
0.50192791 -0.068677202 0.17974143
0.50090438 -0.06835036 0.17994106
0.49988213 -0.068021819 0.18014073
0.49949083 -0.068517946 0.18012087
0.4984706 -0.068186872 0.18032067
0.49745172 -0.067854106 0.18052053
0.49706176 -0.068348527 0.18050073
0.49604481 -0.068013184 0.1807007
0.49565551 -0.068506762 0.18068095
0.49464065 -0.068168916 0.18088101
0.49362707 -0.067829378 0.18108113
0.49261487 -0.067488134 0.18128134
0.491604 -0.067145206 0.1814816
0.49020845 -0.067289904 0.18166237
0.48920089 -0.066942737 0.18186279
0.4881947 -0.066593885 0.1820633
0.4871898 -0.066243351 0.18226387
0.48618624 -0.065891072 0.18246453
0.48518404 -0.06553714 0.18266523
0.48480141 -0.066022247 0.18264581
0.48380122 -0.065665774 0.18284661
0.48280236 -0.06530761 0.18304749
0.48180482 -0.064947747 0.18324843
0.48080859 -0.064586155 0.18344948
0.47981375 -0.06422291 0.18365055
0.47943446 -0.064703792 0.1836313
0.4784416 -0.064338006 0.18383247
0.47806299 -0.06481804 0.18381324
0.47768438 -0.065298066 0.18379402
0.4766942 -0.064928897 0.18399535
0.47631627 -0.065408088 0.18397616
0.47593832 -0.065887272 0.18395697
0.47556037 -0.066366456 0.18393779
0.47518241 -0.066845641 0.1839186
0.47480446 -0.067324832 0.1838994
0.47442654 -0.067804024 0.18388021
0.47344166 -0.06742803 0.18408182
0.47306436 -0.06790638 0.18406266
0.47208154 -0.06752789 0.18426436
0.47110003 -0.067147717 0.18446611
0.47072408 -0.06762436 0.18444702
0.46974459 -0.067241639 0.18464889
0.46936932 -0.06771744 0.18462984
0.46899405 -0.068193242 0.18461078
0.46861878 -0.068669036 0.18459173
0.46764261 -0.068282083 0.18479376
0.46726799 -0.068757042 0.18477473
0.4668934 -0.069231987 0.18475571
0.46651879 -0.069706947 0.18473668
0.46614417 -0.070181899 0.18471767
0.46576956 -0.070656858 0.18469866
0.46539497 -0.071131811 0.18467963
0.46502036 -0.071606763 0.18466061
0.46464574 -0.072081722 0.18464158
0.46427116 -0.072556667 0.18462257
0.46389654 -0.073031627 0.18460356
0.46352193 -0.073506571 0.18458453
0.46314731 -0.073981531 0.18456551
0.46277273 -0.074456483 0.18454649
0.46298963 -0.075806044 0.18430592
0.46261436 -0.076281846 0.18428686
0.46223909 -0.076757647 0.18426782
0.46127427 -0.076356307 0.18447042
0.46089968 -0.076831251 0.18445139
0.46170145 -0.079063885 0.18398893
0.460738 -0.078660846 0.1841916
0.4603627 -0.079136647 0.18417254
0.45881501 -0.077849664 0.18459718
0.45902663 -0.07920602 0.1843563
0.45923689 -0.080564052 0.18411538
0.45519677 -0.077563353 0.18516824
0.53982502 -0.090015396 0.170243
0.53940362 -0.090549618 0.1702216
0.53833503 -0.090280652 0.17041989
0.53726768 -0.090009965 0.17061828
0.53555578 -0.088932738 0.17103644
0.5338465 -0.087852105 0.17145479
0.53149533 -0.08596155 0.17209306
0.5291481 -0.084065869 0.17273155
0.52809149 -0.083781682 0.17293045
0.52639359 -0.082686678 0.17334934
0.52469838 -0.081588261 0.17376839
0.52364713 -0.081297293 0.17396757
0.52154851 -0.080710225 0.17436613
0.52050126 -0.080414176 0.17456551
0.51945531 -0.080116428 0.17476493
0.51713485 -0.078186892 0.1754048
0.51545566 -0.077068195 0.17582464
0.51314247 -0.075129338 0.17646486
0.50956148 -0.071550265 0.1775458
0.50789303 -0.070418008 0.17796619
0.50686175 -0.070101649 0.17816637
0.50583184 -0.069783546 0.17836666
0.50480324 -0.069463782 0.17856699
0.50377601 -0.069142334 0.17876738
0.50211817 -0.067996502 0.17918833
0.50172555 -0.068494305 0.17916839
0.50070232 -0.068167776 0.17936899
0.49968043 -0.067839548 0.17956965
0.49865985 -0.067509636 0.17977037
0.49764064 -0.067178026 0.17997119
0.49662271 -0.066844687 0.18017207
0.4962334 -0.067338265 0.1801523
0.49521753 -0.067002423 0.18035328
0.49482891 -0.06749516 0.18033355
0.49381503 -0.067156762 0.1805346
0.4928025 -0.066816688 0.18073575
0.49179128 -0.066474922 0.18093695
0.49039543 -0.066620775 0.18111867
0.48938754 -0.06627477 0.18132003
0.48838103 -0.065927073 0.18152149
0.48737583 -0.065577686 0.18172298
0.48637193 -0.06522657 0.1819246
0.48536941 -0.064873792 0.18212624
0.48436821 -0.064519316 0.18232796
0.48336837 -0.064163156 0.18252973
0.48236984 -0.063805304 0.18273158
0.48137262 -0.063445725 0.18293352
0.48037678 -0.063084476 0.18313551
0.47938228 -0.062721536 0.18333757
0.47900367 -0.063201569 0.18331835
0.47801116 -0.062836096 0.1835205
0.47763321 -0.063315287 0.18350132
0.47725525 -0.063794471 0.18348213
0.47626537 -0.063425578 0.18368444
0.4758881 -0.063903913 0.18366529
0.47551081 -0.064382263 0.18364613
0.47452366 -0.064010009 0.18384856
0.47414705 -0.064487502 0.18382944
0.47377044 -0.064964995 0.18381031
0.47339383 -0.065442495 0.18379119
0.47301722 -0.065919973 0.18377207
0.4726406 -0.066397473 0.18375295
0.47226399 -0.066874966 0.18373384
0.47128215 -0.06649594 0.18393651
0.47030169 -0.06611523 0.1841393
0.46992642 -0.066591032 0.18412024
0.46894792 -0.066207774 0.18432309
0.4685733 -0.066682719 0.18430407
0.46819872 -0.067157678 0.18428506
0.4678241 -0.067632638 0.18426603
0.46684891 -0.067245111 0.1844691
0.46647498 -0.067719221 0.18445012
0.46610102 -0.068193324 0.18443114
0.46572709 -0.068667442 0.18441215
0.46535316 -0.069141544 0.18439317
0.4649792 -0.069615655 0.18437418
0.46460527 -0.070089757 0.1843552
0.46423134 -0.070563868 0.18433622
0.4632622 -0.070168756 0.18453954
0.46348345 -0.071512073 0.18429823
0.46251565 -0.07111527 0.18450163
0.46214238 -0.071588539 0.18448268
0.4617691 -0.072061792 0.18446372
0.46139583 -0.072535053 0.18444479
0.46161374 -0.073882617 0.18420331
0.46064928 -0.073481582 0.18440688
0.46027601 -0.073954836 0.18438792
0.45990273 -0.074428096 0.18436897
0.45952946 -0.074901365 0.18435001
0.45782316 -0.075440921 0.18451595
0.45686468 -0.075032264 0.18471982
0.45532236 -0.073739968 0.18514663
0.45378274 -0.07244432 0.18557356
0.45399731 -0.073796108 0.18533191
0.45246103 -0.072496228 0.18575899
0.45209244 -0.072963558 0.18574028
0.45172381 -0.073430896 0.18572158
0.45135522 -0.073898233 0.18570286
0.45098662 -0.074365564 0.18568414
0.45119786 -0.075721592 0.18544231
0.45024943 -0.075300239 0.18564671
0.44872379 -0.073986776 0.18607438
0.4477787 -0.073561192 0.18627894
0.54067808 -0.090085246 0.16942887
0.54025602 -0.090620302 0.16940746
0.53983402 -0.091155373 0.16938603
0.53811812 -0.090084694 0.16980591
0.53705114 -0.08981432 0.17000528
0.53533995 -0.088737711 0.1704254
0.53363132 -0.087657697 0.17084569
0.53063697 -0.084961824 0.17170767
0.52893502 -0.083873332 0.17212829
0.52723581 -0.082781516 0.17254904
0.52618158 -0.082495078 0.17274901
0.52448702 -0.08139728 0.17317
0.52343607 -0.081106618 0.17337017
0.52133816 -0.080520175 0.17377068
0.52029127 -0.08022444 0.17397103
0.51924568 -0.079927005 0.17417143
0.51461083 -0.076064751 0.17545716
0.50808513 -0.069730349 0.17740743
0.50705361 -0.069415145 0.17760856
0.50602335 -0.069098204 0.17780979
0.50499445 -0.068779603 0.17801106
0.50396687 -0.06845931 0.17821239
0.50294065 -0.068137325 0.17841379
0.50128418 -0.06699127 0.17883673
0.50089222 -0.067488223 0.17881683
0.49987 -0.067161165 0.17901842
0.49884909 -0.066832401 0.1792201
0.49782959 -0.066501945 0.17942184
0.49681133 -0.066169761 0.17962366
0.49642202 -0.066663355 0.1796039
0.49540582 -0.06632866 0.17980582
0.49439096 -0.065992281 0.18000779
0.494003 -0.066484161 0.17998809
0.49299014 -0.066145249 0.18019018
0.49159199 -0.066294827 0.18037269
0.49058241 -0.065951638 0.18057495
0.48957422 -0.065606788 0.18077728
0.48856735 -0.065260254 0.18097965
0.48756185 -0.064912021 0.1811821
0.48655763 -0.064562067 0.18138465
0.48555478 -0.064210452 0.18158723
0.48455325 -0.063857138 0.18178989
0.48355308 -0.063502133 0.18199262
0.48255426 -0.063145429 0.18219541
0.48155668 -0.062787011 0.1823983
0.48056054 -0.062426917 0.18260121
0.47956571 -0.062065143 0.18280423
0.47857219 -0.061701674 0.18300728
0.47819424 -0.062180862 0.18298809
0.47720271 -0.061814811 0.18319127
0.47682545 -0.062293146 0.18317212
0.47644815 -0.062771492 0.18315296
0.47545934 -0.062402092 0.18335627
0.47508273 -0.062879585 0.18333715
0.47470611 -0.063357078 0.18331802
0.47371995 -0.062984295 0.18352145
0.473344 -0.063460946 0.18350236
0.47296807 -0.06393759 0.18348327
0.4719846 -0.063561417 0.18368685
0.47160932 -0.064037219 0.18366781
0.47123405 -0.06451302 0.18364875
0.47085875 -0.064988822 0.18362969
0.47048348 -0.065464623 0.18361065
0.469504 -0.06508337 0.18381441
0.46912941 -0.065558322 0.18379539
0.4681519 -0.065174505 0.1839993
0.46777794 -0.065648608 0.18398032
0.46740401 -0.066122718 0.18396133
0.46703008 -0.066596821 0.18394235
0.46605593 -0.066208795 0.18414639
0.46568266 -0.066682056 0.18412744
0.46530938 -0.067155324 0.18410848
0.46493614 -0.067628577 0.18408953
0.46456286 -0.068101838 0.18407057
0.46418959 -0.068575107 0.18405162
0.46381631 -0.069048353 0.18403268
0.46284753 -0.068653569 0.184237
0.46247491 -0.069125973 0.18421808
0.46269649 -0.070468135 0.18397582
0.46172971 -0.070070811 0.18418024
0.46076426 -0.069671772 0.18438472
0.4609845 -0.071015634 0.18414241
0.46002036 -0.070614912 0.18434696
0.45964843 -0.071086481 0.18432806
0.45868632 -0.070683211 0.18453272
0.45831507 -0.071153931 0.18451387
0.45853263 -0.072501175 0.18427141
0.45757252 -0.072095372 0.18447617
0.45543867 -0.06993141 0.18512836
0.45448259 -0.069520526 0.18533334
0.45470014 -0.070867769 0.18509087
0.45491639 -0.072216704 0.18484835
0.45396161 -0.071804136 0.18505338
0.4530082 -0.071389869 0.18525848
0.45263961 -0.071857199 0.18523976
0.45168811 -0.071440361 0.18544498
0.4513202 -0.071906842 0.18542629
0.45095226 -0.072373331 0.18540762
0.45058432 -0.072839819 0.18538894
0.44963625 -0.072418772 0.18559431
0.44984847 -0.073772795 0.18535158
0.45005941 -0.07512854 0.18510877
0.44737813 -0.072035559 0.18598667
0.44701222 -0.072499506 0.18596809
0.44606948 -0.072071686 0.18617372
0.44570419 -0.072534792 0.18615517
0.44591445 -0.073891342 0.18591234
0.4455485 -0.074355289 0.18589376
0.5415318 -0.09015277 0.1686129
0.54110909 -0.090688676 0.16859142
0.54068643 -0.091224588 0.16856997
0.53961647 -0.090958789 0.16877009
0.53854787 -0.090691298 0.16897032
0.5368346 -0.089618668 0.16939227
0.53576934 -0.089346945 0.16959265
0.53212702 -0.085853107 0.17068005
0.52913529 -0.083156735 0.17154603
0.52807868 -0.082874022 0.17174684
0.52638084 -0.081781961 0.17216957
0.52532756 -0.081494957 0.17237057
0.52427566 -0.081206299 0.17257163
0.52322507 -0.08091595 0.17277277
0.52112788 -0.080330133 0.17317522
0.52008128 -0.080034696 0.17337653
0.51903605 -0.079737574 0.17357793
0.51376665 -0.075061932 0.17509164
0.51018506 -0.071491018 0.17618217
0.50788069 -0.069545589 0.17682855
0.50684947 -0.069230691 0.17703065
0.50581956 -0.068914063 0.17723285
0.50415778 -0.067776278 0.17765741
0.50313121 -0.067455456 0.17785975
0.50210595 -0.067132898 0.17806217
0.50045085 -0.065986648 0.17848706
0.50005955 -0.066482775 0.1784672
0.49903837 -0.066155173 0.17866981
0.4980185 -0.065825872 0.1788725
0.49699992 -0.065494843 0.17907526
0.49598274 -0.065162167 0.17927809
0.49559411 -0.065654896 0.17925836
0.4945789 -0.06531968 0.17946126
0.49356505 -0.064982757 0.17966425
0.49317777 -0.065473802 0.17964458
0.4917793 -0.065624535 0.17982805
0.49076939 -0.065282509 0.18003125
0.48976088 -0.064938821 0.18023452
0.48875371 -0.064593442 0.18043785
0.48774785 -0.064246379 0.18064123
0.4867433 -0.063897572 0.18084471
0.48574013 -0.063547105 0.18104824
0.48473829 -0.063194953 0.18125184
0.4837378 -0.062841102 0.18145551
0.48273864 -0.062485565 0.18165924
0.48174077 -0.062128298 0.18186307
0.48074427 -0.061769366 0.18206692
0.47974911 -0.061408751 0.18227087
0.4787553 -0.061046429 0.18247487
0.47776279 -0.060682386 0.18267897
0.47738549 -0.061160732 0.1826598
0.47639501 -0.060794186 0.18286398
0.4760184 -0.061271682 0.18284486
0.47564179 -0.061749164 0.18282574
0.47465399 -0.061379239 0.18303004
0.47427803 -0.061855882 0.18301097
0.47390208 -0.062332533 0.18299188
0.47291696 -0.061959207 0.18319632
0.47254169 -0.062435009 0.18317726
0.47216639 -0.06291081 0.1831582
0.47118393 -0.062534101 0.18336278
0.47080931 -0.063009061 0.18334375
0.47043473 -0.063484006 0.18332474
0.46945488 -0.063103884 0.1835295
0.46908092 -0.063577987 0.18351051
0.468707 -0.064052097 0.18349151
0.46833307 -0.064526215 0.18347253
0.46735659 -0.06414187 0.18367741
0.46698332 -0.064615138 0.18365845
0.46661004 -0.065088399 0.1836395
0.46623677 -0.065561652 0.18362056
0.46526366 -0.065173097 0.18382561
0.46489105 -0.065645508 0.18380669
0.46451846 -0.066117927 0.18378776
0.46414584 -0.066590339 0.18376885
0.46377325 -0.06706275 0.18374993
0.46280414 -0.066669114 0.18395519
0.46243218 -0.067140684 0.18393631
0.46206024 -0.067612253 0.18391742
0.46168831 -0.068083823 0.18389854
0.46072254 -0.067685947 0.18410397
0.46035126 -0.068156667 0.18408512
0.45938745 -0.067756228 0.18429068
0.45901686 -0.068226099 0.18427186
0.45864624 -0.068695977 0.18425304
0.45768514 -0.068292163 0.18445869
0.45731521 -0.0687612 0.18443991
0.45694527 -0.069230221 0.18442112
0.45716384 -0.070575461 0.18417777
0.45561758 -0.069291227 0.18460819
0.45407397 -0.06800355 0.18503876
0.45370603 -0.068470038 0.18502007
0.45333809 -0.068936534 0.1850014
0.45355538 -0.070283495 0.18475795
0.45201775 -0.068988211 0.18518883
0.45165047 -0.069453858 0.18517017
0.45128322 -0.069919489 0.18515153
0.45091596 -0.070385136 0.18513289
0.45054871 -0.070850775 0.18511423
0.45018142 -0.071316421 0.18509559
0.44981417 -0.071782053 0.18507695
0.44828728 -0.070473261 0.18550834
0.44792134 -0.070937209 0.18548977
0.44755542 -0.071401156 0.18547119
0.44718948 -0.071865112 0.18545261
0.44624642 -0.071438447 0.18565919
0.44588116 -0.071901545 0.18564063
0.4455159 -0.072364651 0.18562208
0.44515064 -0.072827749 0.18560354
0.44421086 -0.072396822 0.18581031
0.44384629 -0.072859079 0.18579181
0.44405487 -0.074217059 0.1855479
0.5419628 -0.090754725 0.16777353
0.54153943 -0.091291495 0.16775203
0.54046851 -0.091027699 0.16795307
0.5400458 -0.091563612 0.16793162
0.53897691 -0.091297269 0.16813275
0.53661811 -0.089423023 0.16877928
0.53555316 -0.089151606 0.16898063
0.53191257 -0.085659325 0.1700729
0.5289222 -0.082964197 0.17094277
0.5265801 -0.081068829 0.17159012
0.52616876 -0.081590354 0.17156923
0.52447426 -0.080495484 0.17199406
0.52342337 -0.080206305 0.17219613
0.5223738 -0.079915412 0.17239827
0.52091753 -0.080140084 0.17257977
0.51923305 -0.079032555 0.17300507
0.51755124 -0.077921636 0.17343053
0.51587212 -0.076807313 0.17385612
0.5135594 -0.074874684 0.17450497
0.51061511 -0.072121143 0.17537719
0.50831109 -0.070177473 0.17602649
0.50664532 -0.069046244 0.17645274
