# .PCD v0.7 - Point Cloud Data file format
VERSION 0.7
FIELDS x y z
SIZE 4 4 4
TYPE F F F
COUNT 1 1 1
WIDTH 1430
HEIGHT 1
VIEWPOINT 0 0 0 1 0 0 0
POINTS 1430
DATA ascii
0.58283806 0.082146384 0.12583084
0.58312863 0.083090417 0.12584603
0.5834192 0.08403445 0.12586121
0.58370978 0.084978484 0.12587638
0.58400035 0.085922532 0.12589157
0.58429092 0.086866565 0.12590675
0.58458149 0.087810598 0.12592193
0.58487207 0.088754632 0.12593712
0.58516264 0.089698665 0.1259523
0.58545321 0.090642713 0.12596749
0.58574378 0.091586746 0.12598267
0.58603436 0.09253078 0.12599784
0.58632493 0.093474813 0.12601303
0.5866155 0.094418846 0.12602821
0.58690614 0.095362894 0.12604339
0.58719671 0.096306928 0.12605858
0.58748728 0.097250961 0.12607376
0.58777785 0.098195001 0.12608895
0.58723146 0.099663451 0.12580006
0.58752233 0.10060851 0.12581524
0.5878132 0.10155359 0.12583044
0.58726811 0.10302619 0.12554163
0.58672357 0.10450087 0.12525281
0.58617973 0.10597759 0.12496405
0.5856365 0.1074564 0.12467533
0.58509392 0.10893726 0.12438663
0.58455199 0.1104202 0.12409797
0.58484477 0.11137147 0.12411327
0.58430374 0.11285752 0.12382465
0.58459687 0.11380983 0.12383996
0.58405685 0.11529896 0.1235514
0.58351743 0.11679017 0.12326287
0.58297867 0.11828345 0.12297438
0.5824405 0.1197788 0.1226859
0.58273488 0.12073524 0.12270129
0.58219773 0.1222337 0.12241288
0.58166122 0.12373421 0.1221245
0.58278716 0.12414865 0.12244368
0.5830819 0.12510613 0.12245907
0.51672328 0.074046478 0.10467425
0.51874399 0.074125834 0.10530266
0.52503604 0.0718688 0.10746129
0.52790684 0.071467243 0.10839552
0.52821398 0.07246504 0.10841157
0.52852112 0.073462844 0.10842762
0.53736091 0.069754727 0.11150361
0.54022378 0.069327302 0.11243743
0.54393727 0.068421036 0.11367708
0.54594362 0.068453871 0.11430475
0.54880071 0.068007834 0.11523826
0.5508042 0.068031378 0.11586577
0.55280638 0.068050794 0.1164932
0.55565834 0.067588218 0.11742645
0.55765772 0.067598276 0.11805374
0.55965579 0.067604244 0.11868095
0.5616526 0.067606077 0.11930811
0.5636481 0.067603745 0.11993521
0.56479293 0.068080291 0.12025642
0.56678623 0.06807074 0.12088339
0.56708062 0.069027185 0.12089878
0.56822354 0.069497526 0.12121991
0.5693658 0.069965795 0.12154101
0.57050741 0.070432007 0.12186206
0.57164836 0.070896149 0.12218308
0.57278877 0.071358204 0.12250409
0.57392848 0.071818218 0.12282505
0.57506752 0.072276145 0.12314597
0.57620591 0.072732016 0.12346686
0.5773437 0.073185824 0.12378772
0.57848096 0.073637545 0.12410855
0.57961744 0.07408721 0.12442935
0.58075333 0.074534811 0.1247501
0.5810439 0.075478844 0.12476528
0.58133447 0.076422878 0.12478047
0.58162504 0.077366926 0.12479565
0.58191562 0.078310959 0.12481083
0.5830496 0.078752354 0.1251315
0.58333987 0.079695344 0.12514666
0.58363014 0.080638357 0.12516183
0.58392036 0.081581362 0.125177
0.58421063 0.082524352 0.12519217
0.58450091 0.083467364 0.12520732
0.58479118 0.084410369 0.12522249
0.5850814 0.085353367 0.12523766
0.58537167 0.086296372 0.12525283
0.58566195 0.08723937 0.12526798
0.58595216 0.088182375 0.12528315
0.58624244 0.08912538 0.12529832
0.58653271 0.090068378 0.12531349
0.58682299 0.091011383 0.12532865
0.5871132 0.091954395 0.12534381
0.58740348 0.092897385 0.12535898
0.58769375 0.09384039 0.12537415
0.58798403 0.094783388 0.12538931
0.58827424 0.095726393 0.12540448
0.58856452 0.096669406 0.12541965
0.58885479 0.097612396 0.12543482
0.58830833 0.099079758 0.12514484
0.58859891 0.10002381 0.12516002
0.58888948 0.10096785 0.12517521
0.58834428 0.10243932 0.12488532
0.58779979 0.10391289 0.12459546
0.58725578 0.10538854 0.12430561
0.58671254 0.10686624 0.12401582
0.5861699 0.10834602 0.12372606
0.58562791 0.10982785 0.12343633
0.58592039 0.11077809 0.12345161
0.58537936 0.11226302 0.12316194
0.58483887 0.11375004 0.12287228
0.58429915 0.11523911 0.12258267
0.58375996 0.11673024 0.12229309
0.58405375 0.11768463 0.12230844
0.58351558 0.11917887 0.1220189
0.58297795 0.12067519 0.1217294
0.58244109 0.12217358 0.12143994
0.58190483 0.12367403 0.12115051
0.58303052 0.12408853 0.12147073
0.58332521 0.12504601 0.12148613
0.58361995 0.1260035 0.12150154
0.5178349 0.073518738 0.10395487
0.51900017 0.074062541 0.10427824
0.52358192 0.072738737 0.10583001
0.52816045 0.071404591 0.10738161
0.52846754 0.072402395 0.10739766
0.52877468 0.073400199 0.10741371
0.5376119 0.069692731 0.11050019
0.54047394 0.0692655 0.11143717
0.54418635 0.068359494 0.11268103
0.54619223 0.068392456 0.1133108
0.54904854 0.067946613 0.11424747
0.55105144 0.067970291 0.11487707
0.55305314 0.067989834 0.1155066
0.55590433 0.067527451 0.11644301
0.55790317 0.067537643 0.1170724
0.5599007 0.067543738 0.11770172
0.56189698 0.067545697 0.11833096
0.56389201 0.067543499 0.11896016
0.56503654 0.068020113 0.11928244
0.5670293 0.068010695 0.11991151
0.56732368 0.068967134 0.11992688
0.56846637 0.069437541 0.12024908
0.56960833 0.069905877 0.12057122
0.57074964 0.070372149 0.12089332
0.57189035 0.070836358 0.1212154
0.57303053 0.07129848 0.12153745
0.57416993 0.071758561 0.12185946
0.57530874 0.072216555 0.12218144
0.57644689 0.072672486 0.12250338
0.57758445 0.073126361 0.12282529
0.5787214 0.073578142 0.12314717
0.57985765 0.074027874 0.12346902
0.58099324 0.074475542 0.12379082
0.58128381 0.075419575 0.12380601
0.58157438 0.076363608 0.12382119
0.58270878 0.076807141 0.12414293
0.58299899 0.077750139 0.1241581
0.58328927 0.078693144 0.12417326
0.58357954 0.079636142 0.12418843
0.58386976 0.080579147 0.12420359
0.58416003 0.081522152 0.12421876
0.5844503 0.082465149 0.12423392
0.58474058 0.083408155 0.12424909
0.58503079 0.084351167 0.12426426
0.58532107 0.085294157 0.12427942
0.58561134 0.08623717 0.12429459
0.58590156 0.08718016 0.12430976
0.58619183 0.088123165 0.12432493
0.58648211 0.089066178 0.12434009
0.58677238 0.090009168 0.12435526
0.5870626 0.09095218 0.12437042
0.58735287 0.091895185 0.12438559
0.58764315 0.092838183 0.12440075
0.58793342 0.093781188 0.12441592
0.58822364 0.094724178 0.12443108
0.58851391 0.095667191 0.12444625
0.58880419 0.096610196 0.12446141
0.58909446 0.097553194 0.12447658
0.58938468 0.098496199 0.12449174
0.58967495 0.099439204 0.12450691
0.58912939 0.10090857 0.12421593
0.58858448 0.10237999 0.12392499
0.58887535 0.10332506 0.12394019
0.5883314 0.1047996 0.12364929
0.58778805 0.10627622 0.12335841
0.58724535 0.10775487 0.12306759
0.5867033 0.10923562 0.1227768
0.58616191 0.11071842 0.12248603
0.58562112 0.11220329 0.1221953
0.5859139 0.11315456 0.1222106
0.58537406 0.11464256 0.12191991
0.58483487 0.1161326 0.12162926
0.58429629 0.1176247 0.12133865
0.58375835 0.11911888 0.12104807
0.58322102 0.12061514 0.12075751
0.5826844 0.12211347 0.120467
0.58214843 0.12361385 0.12017652
0.58327383 0.12402842 0.1204978
0.58356857 0.1249859 0.1205132
0.58386326 0.12594339 0.12052859
0.51809138 0.073455378 0.10292939
0.51925641 0.073999241 0.10325382
0.52554482 0.071743116 0.10542715
0.52670658 0.072276667 0.1057514
0.52872115 0.072339751 0.10638375
0.53158742 0.071929283 0.10732412
0.53786284 0.069630735 0.10949679
0.53987163 0.069675215 0.11012882
0.54443544 0.068297952 0.11168498
0.54644078 0.06833104 0.11231685
0.54929632 0.067885399 0.11325667
0.55129874 0.067909203 0.11388838
0.55329984 0.067928873 0.11452001
0.55615032 0.067466691 0.11545956
0.55814862 0.06747701 0.11609106
0.56014562 0.067483231 0.11672248
0.56214136 0.067485325 0.11735383
0.56413585 0.067483254 0.11798512
0.56528014 0.067959934 0.11830845
0.56727237 0.067950644 0.11893962
0.56756675 0.06890709 0.118955
0.56870914 0.069377556 0.11927824
0.56985086 0.06984596 0.11960144
0.57099193 0.070312291 0.11992459
0.57213241 0.070776567 0.12024771
0.57327229 0.071238756 0.12057082
0.57441145 0.071698897 0.12089388
0.57554996 0.072156958 0.12121691
0.57668787 0.072612949 0.1215399
0.57782513 0.073066898 0.12186286
0.57896185 0.073518738 0.1221858
0.58009779 0.073968537 0.12250869
0.58123314 0.074416272 0.12283155
0.58152372 0.075360306 0.12284673
0.58181435 0.076304339 0.12286191
0.58294839 0.076747939 0.1231847
0.58323866 0.077690929 0.12319987
0.58352894 0.078633942 0.12321503
0.58381915 0.079576932 0.1232302
0.58410943 0.080519944 0.12324537
0.5843997 0.08146295 0.12326054
0.58468997 0.08240594 0.1232757
0.58498019 0.083348952 0.12329087
0.58527046 0.084291957 0.12330603
0.58556074 0.085234955 0.1233212
0.58585101 0.08617796 0.12333636
0.58614123 0.087120958 0.12335153
0.5864315 0.088063963 0.12336669
0.58672178 0.089006968 0.12338186
0.58701199 0.089949965 0.12339702
0.58730227 0.090892971 0.12341219
0.58759254 0.091835983 0.12342735
0.58788282 0.092778973 0.12344252
0.58817303 0.093721986 0.12345769
0.58846331 0.094664976 0.12347285
0.58875358 0.095607981 0.12348802
0.58904386 0.096550994 0.12350319
0.58933407 0.097493984 0.12351836
0.58962435 0.098436996 0.12353352
0.58991462 0.099380001 0.12354869
0.5893693 0.1008493 0.12325665
0.58965987 0.10179333 0.12327184
0.58911556 0.10326573 0.12297986
0.58857185 0.1047402 0.12268791
0.58802873 0.10621675 0.12239598
0.58748633 0.10769534 0.12210411
0.58694452 0.10917602 0.12181226
0.58640337 0.11065876 0.12152044
0.58586287 0.11214356 0.12122867
0.58615565 0.11309484 0.12124397
0.58561605 0.11458277 0.12095222
0.58507711 0.11607274 0.12066053
0.58453882 0.11756478 0.12036887
0.58400118 0.1190589 0.12007724
0.58346409 0.12055509 0.11978563
0.58292776 0.12205335 0.11949407
0.58239198 0.12355367 0.11920253
0.58351719 0.1239683 0.11952486
0.58381188 0.12492578 0.11954026
0.58410662 0.12588327 0.11955566
0.51920229 0.072927803 0.10221319
0.51951259 0.073935948 0.1022294
0.52750671 0.070747748 0.10502852
0.52866757 0.071279302 0.10535379
0.52982783 0.071808778 0.10567901
0.53184021 0.071866833 0.10631336
0.53811377 0.069568738 0.10849338
0.54267853 0.068199039 0.11005491
0.54468459 0.068236411 0.11068893
0.54668939 0.068269633 0.11132289
0.5495441 0.067824177 0.11226587
0.55154598 0.067848116 0.11289967
0.55354661 0.067867912 0.11353341
0.55639625 0.067405924 0.11447611
0.55839407 0.067416377 0.11510971
0.56039053 0.067422733 0.11574323
0.56238574 0.067424953 0.11637669
0.56437969 0.067423008 0.11701009
0.56552368 0.067899756 0.11733446
0.56751543 0.067890592 0.11796773
0.56780982 0.068847038 0.11798311
0.56895196 0.069317572 0.1183074
0.57009339 0.069786035 0.11863165
0.57123423 0.070252441 0.11895586
0.5723744 0.070716776 0.11928003
0.57351404 0.071179032 0.11960419
0.57465291 0.07163924 0.1199283
0.57579118 0.072097361 0.12025238
0.57692885 0.072553419 0.12057642
0.57806587 0.073007427 0.12090042
0.57920223 0.073459342 0.12122442
0.580338 0.073909201 0.12154836
0.58147311 0.074357003 0.12187227
0.58176368 0.075301036 0.12188745
0.58205426 0.07624507 0.12190264
0.58318806 0.076688729 0.12222648
0.58347833 0.077631727 0.12224165
0.58376855 0.078574732 0.12225681
0.58405882 0.07951773 0.12227198
0.5843491 0.080460735 0.12228714
0.58463937 0.081403747 0.12230231
0.58492959 0.082346737 0.12231747
0.58521986 0.083289742 0.12233264
0.58551013 0.084232755 0.1223478
0.58580041 0.085175745 0.12236297
0.58609062 0.086118758 0.12237813
0.5863809 0.087061748 0.1223933
0.58667117 0.08800476 0.12240846
0.58696139 0.088947766 0.12242363
0.58725166 0.089890756 0.1224388
0.58754194 0.090833768 0.12245397
0.58783221 0.091776773 0.12246913
0.58812243 0.092719771 0.1224843
0.5884127 0.093662776 0.12249946
0.58870298 0.094605774 0.12251463
0.58899325 0.095548779 0.12252979
0.58928347 0.096491784 0.12254496
0.58957374 0.097434781 0.12256012
0.58986402 0.098377787 0.12257529
0.59015423 0.099320799 0.12259045
0.58960921 0.10079003 0.12229738
0.58989984 0.10173406 0.12231256
0.58935571 0.10320639 0.12201953
0.58881229 0.1046808 0.12172654
0.58826947 0.10615729 0.12143356
0.58772731 0.10763581 0.12114063
0.58718574 0.10911644 0.12084773
0.58664489 0.1105991 0.12055486
0.58610463 0.11208384 0.12026204
0.58639741 0.11303511 0.12027734
0.58585805 0.11452298 0.11998454
0.5853194 0.11601289 0.1196918
0.58478141 0.11750486 0.11939908
0.58424401 0.11899891 0.1191064
0.58370721 0.12049504 0.11881374
0.58317107 0.12199324 0.11852113
0.58263558 0.12349349 0.11822854
0.5837605 0.12390819 0.11855192
0.58405524 0.12486567 0.11856733
0.58434993 0.12582316 0.11858273
0.52202088 0.071472146 0.10211965
0.52403784 0.071546853 0.10275638
0.52776057 0.070685036 0.10401356
0.53062749 0.070282184 0.10496035
0.53093398 0.071277916 0.10497637
0.53124046 0.072273657 0.10499238
0.53751254 0.069977067 0.10717978
0.54292822 0.06813737 0.10905676
0.54493368 0.068174869 0.10969288
0.546938 0.068208218 0.11032894
0.54979193 0.067762963 0.11127507
0.55179328 0.067787021 0.11191098
0.55379337 0.067806959 0.11254681
0.55664223 0.067345157 0.11349268
0.55863947 0.067355745 0.11412837
0.56063545 0.067362227 0.11476399
0.56263012 0.067364573 0.11539955
0.56462359 0.067362763 0.11603505
0.56576729 0.067839578 0.11636048
0.5677585 0.067830548 0.11699585
0.56805289 0.068786986 0.11701123
0.56919479 0.06925758 0.11733656
0.57033598 0.069726117 0.11766186
0.57147652 0.070192583 0.11798712
0.57261646 0.070656985 0.11831234
0.5737558 0.071119308 0.11863755
0.57489443 0.071579576 0.11896271
0.57603246 0.072037764 0.11928784
0.57716984 0.072493888 0.11961294
0.57830656 0.072947964 0.11993799
0.57944268 0.073399939 0.12026304
0.58057815 0.073849864 0.12058803
0.58171302 0.074297726 0.12091299
0.58200359 0.075241759 0.12092818
0.58229417 0.0761858 0.12094335
0.58342773 0.076629527 0.12126825
0.58371794 0.077572517 0.12128341
0.58400822 0.07851553 0.12129858
0.58429849 0.07945852 0.12131374
0.58458877 0.080401532 0.12132891
0.58487898 0.081344537 0.12134408
0.58516926 0.082287535 0.12135924
0.58545953 0.08323054 0.12137441
0.5857498 0.084173545 0.12138958
0.58604002 0.085116543 0.12140474
0.58633029 0.086059548 0.12141991
0.58662057 0.087002546 0.12143508
0.58691078 0.087945551 0.12145024
0.58720106 0.088888556 0.12146541
0.58749133 0.089831553 0.12148057
0.58778161 0.090774558 0.12149574
0.58807182 0.091717571 0.1215109
0.5883621 0.092660561 0.12152607
0.58865237 0.093603574 0.12154123
0.58894265 0.094546564 0.1215564
0.58923286 0.095489569 0.12157156
0.58952314 0.096432582 0.12158673
0.58981341 0.097375572 0.12160189
0.59010363 0.098318584 0.12161706
0.5903939 0.099261589 0.12163223
0.58984917 0.10073076 0.1213381
0.59013975 0.1016748 0.12135328
0.58959591 0.10314706 0.1210592
0.58905274 0.1046214 0.12076516
0.58851016 0.10609782 0.12047113
0.58796823 0.10757628 0.12017715
0.58742702 0.10905684 0.1198832
0.58688635 0.11053944 0.11958928
0.58717883 0.11148968 0.11960457
0.58663917 0.11297538 0.1193107
0.5861001 0.1144632 0.11901686
0.58556169 0.11595304 0.11872306
0.58502394 0.11744495 0.1184293
0.58448678 0.11893893 0.11813556
0.58395028 0.12043499 0.11784185
0.58341444 0.12193312 0.11754819
0.58287919 0.12343331 0.11725456
0.58400381 0.12384807 0.11757898
0.58429855 0.12480556 0.11759438
0.58459324 0.12576304 0.11760978
0.52313012 0.07094498 0.10140972
0.52429277 0.07148388 0.1017372
0.52716112 0.071088471 0.10268727
0.53088057 0.070219666 0.10394854
0.53118706 0.071215399 0.10396455
0.53234583 0.071741924 0.10429183
0.53776377 0.069915012 0.10617533
0.54317784 0.068075694 0.1080586
0.54518282 0.068113327 0.10869683
0.54718655 0.068146802 0.109335
0.55003971 0.067701742 0.11028427
0.55204058 0.067725934 0.11092228
0.55404013 0.067745999 0.11156022
0.55688816 0.067284398 0.11250923
0.55888492 0.067295112 0.11314703
0.56088036 0.06730172 0.11378475
0.5628745 0.067304201 0.1144224
0.56486744 0.067302518 0.11506001
0.56601089 0.067779399 0.11538649
0.56800157 0.067770496 0.11602396
0.56829596 0.068726934 0.11603934
0.56943756 0.069197595 0.11636573
0.57057852 0.069666199 0.11669207
0.57171881 0.070132732 0.11701839
0.57285845 0.070597194 0.11734466
0.57399756 0.071059585 0.11767092
0.57513595 0.071519919 0.11799713
0.57627368 0.071978174 0.11832331
0.57741076 0.072434358 0.11864945
0.57854724 0.072888501 0.11897556
0.57968313 0.073340543 0.11930166
0.58081836 0.073790535 0.1196277
0.58195293 0.074238457 0.11995371
0.5822435 0.07518249 0.11996889
0.58253407 0.076126523 0.11998408
0.58366734 0.076570317 0.12031002
0.58395761 0.077513315 0.12032519
0.58424789 0.07845632 0.12034035
0.58453816 0.079399318 0.12035552
0.58482838 0.080342323 0.12037069
0.58511865 0.081285335 0.12038585
0.58540893 0.082228325 0.12040102
0.5856992 0.08317133 0.12041618
0.58598942 0.084114343 0.12043135
0.58627969 0.085057333 0.12044651
0.58656996 0.086000346 0.12046168
0.58686018 0.086943336 0.12047684
0.58715045 0.087886348 0.12049201
0.58744073 0.088829353 0.12050718
0.587731 0.089772344 0.12052234
0.58802122 0.090715356 0.12053751
0.58831149 0.091658361 0.12055267
0.58860177 0.092601359 0.12056784
0.58889204 0.093544364 0.12058301
0.58918226 0.094487362 0.12059817
0.58947253 0.095430367 0.12061334
0.58976281 0.096373372 0.12062851
0.59005302 0.097316369 0.12064367
0.5903433 0.098259374 0.12065884
0.59063357 0.099202387 0.120674
0.59008908 0.10067149 0.12037882
0.59037966 0.10161553 0.120394
0.58983612 0.10308772 0.12009887
0.58929318 0.104562 0.11980378
0.58875084 0.10603835 0.11950869
0.58820921 0.10751675 0.11921366
0.58766824 0.10899724 0.11891866
0.58712786 0.11047978 0.1186237
0.58742034 0.11143003 0.11863898
0.58688092 0.11291566 0.11834407
0.5863421 0.1144034 0.11804917
0.58580399 0.11589318 0.11775433
0.58526647 0.11738502 0.11745951
0.58472961 0.11887895 0.11716473
0.58419335 0.12037494 0.11686996
0.58365774 0.12187301 0.11657526
0.58312279 0.12337313 0.11628057
0.58424717 0.12378796 0.11660605
0.58454186 0.12474544 0.11662145
0.5848366 0.12570293 0.11663685
0.52447575 0.067950055 0.10098208
0.52478415 0.068951987 0.10099819
0.52509254 0.069953933 0.1010143
0.52625418 0.070490845 0.1013428
0.52826828 0.070559613 0.10198363
0.53198624 0.069690071 0.10324907
0.53229243 0.070684768 0.10326507
0.53430265 0.07074111 0.10390571
0.53460819 0.071733743 0.10392167
0.54427886 0.067542784 0.10737273
0.54628301 0.0675795 0.10801305
0.54743516 0.068085395 0.10834105
0.55028754 0.067640528 0.10929348
0.55228782 0.067664847 0.10993358
0.55428684 0.067685038 0.11057362
0.55713415 0.067223631 0.11152578
0.55913037 0.067234471 0.11216568
0.56112528 0.067241214 0.11280551
0.56311888 0.067243829 0.11344527
0.56511128 0.06724228 0.11408497
0.5662545 0.067719214 0.1144125
0.56824464 0.067710444 0.11505207
0.56853902 0.06866689 0.11506745
0.56968039 0.06913761 0.1153949
0.57082105 0.069606274 0.11572229
0.5719611 0.070072874 0.11604965
0.57310045 0.070537411 0.11637698
0.57423931 0.070999853 0.11670429
0.5753774 0.071460254 0.11703155
0.5765149 0.071918577 0.11735878
0.57765174 0.072374828 0.11768597
0.57878798 0.07282903 0.11801314
0.57992357 0.073281139 0.11834028
0.58105856 0.073731199 0.11866737
0.58219284 0.074179187 0.11899444
0.58248341 0.075123221 0.11900961
0.58277398 0.076067254 0.1190248
0.58390701 0.076511115 0.1193518
0.58419728 0.077454105 0.11936696
0.58448756 0.078397118 0.11938213
0.58477777 0.079340108 0.11939729
0.58506805 0.08028312 0.11941246
0.58535832 0.081226125 0.11942762
0.5856486 0.082169123 0.11944279
0.58593881 0.083112128 0.11945795
0.58622909 0.084055133 0.11947312
0.58651936 0.084998131 0.11948828
0.58680958 0.085941136 0.11950345
0.58709985 0.086884134 0.11951862
0.58739012 0.087827139 0.11953378
0.5876804 0.088770151 0.11954895
0.58797061 0.089713141 0.11956412
0.58826089 0.090656146 0.11957928
0.58855116 0.091599159 0.11959445
0.58884144 0.092542149 0.11960961
0.58913165 0.093485162 0.11962478
0.58942193 0.094428152 0.11963994
0.5897122 0.095371164 0.11965511
0.59000248 0.096314169 0.11967027
0.59029269 0.09725716 0.11968544
0.59058297 0.098200172 0.11970061
0.59087324 0.099143177 0.11971577
0.59032899 0.10061222 0.11941954
0.59061956 0.10155626 0.11943472
0.59007627 0.10302839 0.11913854
0.58953363 0.1045026 0.1188424
0.58899158 0.10597889 0.11854626
0.58845019 0.10745722 0.11825018
0.58790946 0.10893764 0.11795413
0.58736938 0.11042012 0.11765812
0.58766186 0.11137037 0.1176734
0.58712268 0.11285593 0.11737744
0.58658415 0.11434361 0.11708149
0.58604628 0.11583333 0.11678559
0.585509 0.1173251 0.11648972
0.58497244 0.11881896 0.1161939
0.58443642 0.12031489 0.11589808
0.58390105 0.12181289 0.11560231
0.58336639 0.12331295 0.11530658
0.58449048 0.12372784 0.11563312
0.58478522 0.12468533 0.11564851
0.58507991 0.12564281 0.11566391
0.52473038 0.06788715 0.099963956
0.52589244 0.068426184 0.10029353
0.52705383 0.06896317 0.10062308
0.5299207 0.068568133 0.10157946
0.53022748 0.069564909 0.10159549
0.53223902 0.06962762 0.10223831
0.53254521 0.07062231 0.10225431
0.5345549 0.070678793 0.10289705
0.53486043 0.071671419 0.10291301
0.54537934 0.06701 0.10668895
0.54653186 0.067518026 0.10701804
0.54853421 0.067550741 0.10766039
0.55053532 0.067579307 0.10830268
0.55253512 0.067603759 0.10894489
0.5545336 0.067624085 0.10958702
0.55738008 0.067162871 0.11054233
0.55937582 0.067173839 0.11118434
0.56137019 0.067180716 0.11182626
0.56336325 0.067183457 0.11246812
0.56535512 0.067182034 0.11310994
0.5664981 0.067659035 0.11343851
0.5684877 0.067650393 0.11408018
0.56878209 0.068606839 0.11409557
0.56992316 0.069077626 0.11442406
0.57106358 0.069546357 0.11475251
0.57220334 0.070013016 0.11508092
0.5733425 0.07047762 0.11540929
0.57448107 0.070940129 0.11573766
0.57561892 0.071400598 0.11606596
0.57675612 0.07185898 0.11639425
0.57789272 0.072315298 0.11672249
0.57902867 0.072769567 0.1170507
0.58016402 0.073221736 0.1173789
0.58129871 0.073671862 0.11770704
0.58243275 0.074119918 0.11803515
0.58272332 0.075063951 0.11805034
0.58301389 0.076007985 0.11806552
0.58414668 0.076451913 0.11839357
0.58443695 0.077394903 0.11840874
0.58472717 0.078337908 0.1184239
0.58501744 0.079280905 0.11843907
0.58530772 0.080223911 0.11845423
0.58559799 0.081166923 0.1184694
0.58588821 0.082109913 0.11848456
0.58617848 0.083052926 0.11849973
0.58646876 0.083995931 0.1185149
0.58675897 0.084938921 0.11853006
0.58704925 0.085881934 0.11854523
0.58733952 0.086824924 0.1185604
0.5876298 0.087767936 0.11857556
0.58792001 0.088710941 0.11859073
0.58821028 0.089653939 0.11860589
0.58850056 0.090596944 0.11862106
0.58879083 0.091539949 0.11863622
0.58908105 0.092482947 0.11865139
0.58937132 0.093425952 0.11866655
0.5896616 0.09436895 0.11868172
0.58995181 0.095311955 0.11869688
0.59024209 0.09625496 0.11871205
0.59053236 0.097197957 0.11872721
0.59082264 0.098140962 0.11874238
0.59111285 0.099083975 0.11875755
0.5905689 0.10055295 0.11846026
0.59085947 0.10149698 0.11847544
0.59031647 0.10296905 0.11817821
0.58977407 0.1044432 0.11788101
0.58923227 0.10591943 0.11758383
0.58869117 0.10739769 0.1172867
0.58815068 0.10887805 0.11698961
0.58761084 0.11036046 0.11669254
0.58790332 0.11131071 0.11670782
0.58736444 0.11279621 0.11641081
0.58682615 0.11428382 0.1161138
0.58628851 0.11577347 0.11581685
0.58575153 0.11726519 0.11551994
0.58521521 0.11875898 0.11522305
0.58467948 0.12025484 0.11492619
0.58414441 0.12175278 0.11462938
0.58361 0.12325277 0.11433259
0.58473384 0.12366773 0.11466017
0.58502853 0.12462521 0.11467557
0.58532327 0.1255827 0.11469097
0.52614677 0.068363346 0.099276468
0.52816105 0.068436503 0.099921577
0.53529054 0.06571614 0.10245349
0.53559542 0.066706702 0.10246942
0.53590035 0.067697272 0.10248535
0.53450167 0.069623835 0.10187242
0.53565866 0.07014744 0.1022028
0.54277325 0.067378446 0.10473394
0.54562843 0.066948459 0.1056929
0.54678071 0.067456543 0.10602304
0.54878253 0.067489393 0.10666748
0.5507831 0.067518085 0.10731187
0.55278236 0.067542672 0.10795619
0.55478036 0.067563124 0.10860043
0.55762607 0.067102104 0.1095589
0.55962121 0.067113206 0.11020301
0.56161505 0.067120209 0.11084703
0.56360763 0.067123078 0.11149099
0.56559902 0.067121789 0.11213489
0.5667417 0.067598857 0.11246452
0.56873077 0.067590348 0.1131083
0.56902516 0.068546787 0.11312368
0.57016599 0.069017641 0.11345322
0.57130617 0.069486439 0.11378272
0.57244563 0.069953166 0.11411218
0.5735845 0.070417829 0.11444161
0.57472283 0.070880406 0.11477102
0.57586038 0.071340933 0.11510038
0.57699734 0.071799383 0.11542972
0.5781337 0.072255768 0.11575901
0.57926935 0.072710104 0.11608827
0.58040446 0.07316234 0.11641752
0.58153892 0.073612526 0.11674671
0.58267266 0.074060649 0.11707588
0.58296323 0.075004682 0.11709106
0.5832538 0.075948715 0.11710624
0.58438635 0.076392703 0.11743534
0.58467656 0.0773357 0.11745051
0.58496684 0.078278705 0.11746567
0.58525711 0.079221696 0.11748084
0.58554739 0.080164708 0.11749601
0.5858376 0.081107713 0.11751117
0.58612788 0.082050711 0.11752634
0.58641815 0.082993716 0.1175415
0.58670837 0.083936721 0.11755667
0.58699864 0.084879719 0.11757183
0.58728892 0.085822724 0.117587
0.58757919 0.086765721 0.11760217
0.58786941 0.087708727 0.11761733
0.58815968 0.088651739 0.1176325
0.58844995 0.089594729 0.11764766
0.58874023 0.090537734 0.11766283
0.58903044 0.091480747 0.11767799
0.58932072 0.092423737 0.11769316
0.58961099 0.09336675 0.11770833
0.58990121 0.09430974 0.11772349
0.59019148 0.095252752 0.11773866
0.59048176 0.096195757 0.11775383
0.59077203 0.097138748 0.11776899
0.59106225 0.09808176 0.11778416
0.59135252 0.099024765 0.11779932
0.59080881 0.10049368 0.11750098
0.59109938 0.10143771 0.11751617
0.59055662 0.10290971 0.11721788
0.59001452 0.1043838 0.11691964
0.58947295 0.10585996 0.1166214
0.5889321 0.10733816 0.11632322
0.5883919 0.10881846 0.11602508
0.58785236 0.1103008 0.11572696
0.58814484 0.11125105 0.11574224
0.58760619 0.11273649 0.11544417
0.58706814 0.11422403 0.11514612
0.5865308 0.11571362 0.11484812
0.58599412 0.11720526 0.11455015
0.58545804 0.11869899 0.11425222
0.58492255 0.12019479 0.11395431
0.58438772 0.12169266 0.11365644
0.5838536 0.12319259 0.1133586
0.58497715 0.12360762 0.11368723
0.58527189 0.1245651 0.11370263
0.58556658 0.12552258 0.11371803
0.58668894 0.12593347 0.1140466
0.58698332 0.12688991 0.11406197
0.53694308 0.063735768 0.10206211
0.5372473 0.064724267 0.10207801
0.53755158 0.065712765 0.1020939
0.53700399 0.067168161 0.1017943
0.53816009 0.067689762 0.1021257
0.53846437 0.06867826 0.1021416
0.54387403 0.066846721 0.10405019
0.54502696 0.067357965 0.10438142
0.54702955 0.067395069 0.10502804
0.54903084 0.067428045 0.10567458
0.55103093 0.067456871 0.10632107
0.55302966 0.067481585 0.10696749
0.55502713 0.067502163 0.10761383
0.557872 0.067041337 0.10857545
0.55986667 0.067052573 0.10922165
0.56185997 0.067059703 0.10986778
0.56385201 0.067062706 0.11051385
0.56584287 0.067061543 0.11115985
0.56698531 0.067538679 0.11149053
0.56897384 0.067530297 0.11213641
0.56926823 0.068486735 0.11215179
0.57040882 0.068957657 0.11248239
0.5715487 0.069426522 0.11281294
0.57268792 0.069893308 0.11314344
0.57382655 0.070358038 0.11347392
0.57496458 0.070820682 0.11380439
0.5761019 0.071281277 0.1141348
0.57723862 0.071739793 0.11446518
0.57837462 0.072196238 0.11479553
0.57951009 0.072650634 0.11512584
0.58064491 0.073102936 0.11545614
0.58177906 0.07355319 0.11578638
0.58291256 0.074001372 0.1161166
0.58320314 0.074945413 0.11613178
0.58349377 0.075889446 0.11614697
0.58462596 0.0763335 0.11647712
0.58491623 0.077276491 0.11649228
0.58520651 0.078219496 0.11650745
0.58549678 0.079162493 0.11652261
0.585787 0.080105498 0.11653778
0.58607727 0.081048511 0.11655294
0.58636755 0.081991501 0.11656811
0.58665776 0.082934514 0.11658327
0.58694804 0.083877519 0.11659844
0.58723831 0.084820509 0.1166136
0.58752859 0.085763521 0.11662877
0.5878188 0.086706512 0.11664394
0.58810908 0.087649524 0.1166591
0.58839935 0.088592529 0.11667427
0.58868963 0.089535527 0.11668944
0.58897984 0.090478532 0.1167046
0.58927011 0.091421537 0.11671977
0.58956039 0.092364535 0.11673493
0.5898506 0.09330754 0.1167501
0.59014088 0.094250537 0.11676527
0.59043115 0.095193543 0.11678043
0.59072143 0.096136555 0.1167956
0.59101164 0.097079545 0.11681076
0.59046757 0.098546326 0.11651134
0.59075814 0.099490374 0.11652652
0.59104872 0.10043441 0.11654171
0.59133929 0.10137844 0.11655689
0.59079683 0.10285038 0.11625756
0.59025496 0.10432439 0.11595826
0.58971369 0.10580049 0.11565897
0.58917308 0.10727863 0.11535974
0.58863312 0.10875886 0.11506054
0.58809382 0.11024114 0.11476137
0.5883863 0.11119138 0.11477666
0.58784795 0.11267675 0.11447754
0.58731019 0.11416424 0.11417843
0.5867731 0.11565376 0.11387938
0.58623666 0.11714534 0.11358038
0.58570087 0.11863901 0.11328138
0.58516562 0.12013474 0.11298241
0.58463109 0.12163255 0.1126835
0.58409715 0.12313242 0.11238462
0.58522052 0.1235475 0.1127143
0.5855152 0.12450498 0.1127297
0.58580995 0.12546247 0.1127451
0.586932 0.12587342 0.11307471
0.58722639 0.12682986 0.11309009
0.53743893 0.061235033 0.10134248
0.53774285 0.062222503 0.10135836
0.53804684 0.063209966 0.10137425
0.53835076 0.064197421 0.10139012
0.53865469 0.065184899 0.10140601
0.53895867 0.066172354 0.10142189
0.54181647 0.065756187 0.10238738
0.54211944 0.066740558 0.10240321
0.54412371 0.066785045 0.10305203
0.54612666 0.066825375 0.10370079
0.54727846 0.067333587 0.10403304
0.54927921 0.067366697 0.10468169
0.55127871 0.06739565 0.10533027
0.5532769 0.067420498 0.10597879
0.55527389 0.067441203 0.10662723
0.55811799 0.066980578 0.10759201
0.56011212 0.06699194 0.10824031
0.56210488 0.066999197 0.10888854
0.56409639 0.067002334 0.1095367
0.56608671 0.067001298 0.11018481
0.56722891 0.0674785 0.11051654
0.5683704 0.067953631 0.11084825
0.56951129 0.068426691 0.11117991
0.56980568 0.069383129 0.11119529
0.57094568 0.06985309 0.11152691
0.57208496 0.070320979 0.1118585
0.57322365 0.070786789 0.11219005
0.57436168 0.071250558 0.11252156
0.57549912 0.071712226 0.11285306
0.5766359 0.072171859 0.1131845
0.57777196 0.0726294 0.11351591
0.57890749 0.073084891 0.11384729
0.5800423 0.073538311 0.11417864
0.58117658 0.073989637 0.11450997
0.58231014 0.074438915 0.11484125
0.58344311 0.074886136 0.1151725
0.58373368 0.075830169 0.11518768
0.58402425 0.076774217 0.11520287
0.58431482 0.07771825 0.11521805
0.58544618 0.078160293 0.11554922
0.58573639 0.079103291 0.11556438
0.58602667 0.080046296 0.11557955
0.58631694 0.080989301 0.11559471
0.58660716 0.081932299 0.11560988
0.58689743 0.082875304 0.11562505
0.58718771 0.083818316 0.11564022
0.58747798 0.084761307 0.11565538
0.5877682 0.085704312 0.11567055
0.58805847 0.086647309 0.11568571
0.58834875 0.087590314 0.11570088
0.58863902 0.088533327 0.11571604
0.58892924 0.089476317 0.11573121
0.58921951 0.09041933 0.11574637
0.58950979 0.091362335 0.11576154
0.5898 0.092305325 0.1157767
0.59009027 0.093248338 0.11579187
0.59038055 0.094191328 0.11580703
0.59067082 0.09513434 0.1158222
0.59096104 0.096077345 0.11583737
0.59041691 0.097543024 0.11553688
0.59070748 0.098487057 0.11555206
0.59099805 0.099431105 0.11556724
0.59128869 0.10037514 0.11558242
0.59157926 0.10131917 0.11559761
0.59103698 0.10279104 0.11529722
0.59049541 0.104265 0.11499687
0.58995438 0.10574103 0.11469654
0.58941406 0.1072191 0.11439626
0.5888744 0.10869926 0.11409601
0.58833534 0.11018148 0.11379579
0.58862782 0.11113173 0.11381107
0.5880897 0.11261703 0.11351091
0.58755219 0.11410445 0.11321075
0.58701539 0.1155939 0.11291065
0.58647919 0.11708543 0.11261059
0.58594364 0.11857902 0.11231054
0.58540869 0.12007469 0.11201053
0.58487439 0.12157243 0.11171056
0.58434075 0.12307223 0.11141063
0.58546382 0.12348739 0.11174136
0.58575857 0.12444487 0.11175676
0.58605325 0.12540236 0.11177216
0.53768986 0.061173037 0.10033908
0.53799385 0.062160507 0.10035495
0.54000235 0.062220629 0.10100614
0.54030561 0.063206032 0.10102198
0.54146063 0.063725665 0.10135546
0.5417636 0.064710021 0.1013713
0.54206663 0.065694384 0.10138712
0.54407096 0.06574107 0.10203809
0.54522371 0.066253483 0.10237143
0.54637575 0.066763833 0.10270474
0.54837704 0.06680017 0.10335555
0.54952753 0.067305349 0.10368878
0.55152655 0.067334436 0.10433947
0.5535242 0.067359403 0.10499009
0.55552059 0.06738025 0.10564064
0.55836391 0.066919811 0.10660856
0.56035751 0.066931307 0.10725897
0.5623498 0.066938698 0.10790931
0.56434083 0.066941954 0.10855956
0.56633055 0.066941053 0.10920978
0.56747246 0.067418322 0.10954256
0.56861377 0.06789352 0.10987531
0.56975436 0.068366639 0.11020802
0.57004875 0.069323085 0.11022341
0.57118851 0.069793105 0.11055608
0.57232755 0.070261054 0.11088871
0.57346594 0.070726939 0.11122131
0.57460368 0.071190767 0.11155387
0.57574087 0.071652502 0.11188642
0.57687736 0.072112203 0.11221892
0.57801324 0.072569802 0.11255138
0.57914841 0.073025361 0.11288382
0.58028305 0.073478848 0.11321621
0.58141702 0.073930234 0.1135486
0.58170825 0.074876353 0.11356381
0.58284122 0.075324655 0.11389612
0.58313209 0.076269723 0.11391132
0.58426416 0.076714948 0.11424359
0.58455473 0.077658981 0.11425877
0.5848453 0.078603014 0.11427396
0.58597606 0.079044081 0.11460616
0.58626634 0.079987086 0.11462133
0.58655661 0.080930099 0.11463649
0.58684683 0.081873089 0.11465166
0.5871371 0.082816102 0.11466682
0.58742738 0.083759107 0.11468199
0.58771759 0.084702104 0.11469715
0.58800787 0.085645109 0.11471232
0.58829814 0.0865881 0.11472748
0.58858842 0.087531112 0.11474265
0.58887863 0.088474117 0.11475781
0.58916891 0.089417115 0.11477298
0.58945918 0.09036012 0.11478814
0.58974946 0.091303125 0.11480331
0.59003967 0.092246123 0.11481848
0.59032995 0.093189128 0.11483365
0.59062022 0.094132125 0.11484881
0.59091043 0.09507513 0.11486398
0.59036624 0.096539713 0.11456242
0.59065682 0.097483747 0.11457761
0.59094739 0.098427787 0.11459278
0.59123802 0.099371836 0.11460797
0.59152859 0.10031587 0.11462315
0.59181917 0.1012599 0.11463834
0.59127718 0.1027317 0.11433689
0.59073585 0.10420559 0.11403549
0.59019512 0.10568157 0.11373411
0.58965504 0.10715957 0.11343278
0.58911562 0.10863967 0.11313148
0.58857679 0.11012182 0.11283021
0.58886933 0.11107206 0.11284549
0.58833146 0.11255731 0.11254427
0.58779424 0.11404466 0.11224307
0.58725768 0.11553405 0.11194192
0.58672172 0.1170255 0.1116408
0.58618647 0.11851904 0.11133971
0.58565176 0.12001465 0.11103865
0.58511776 0.12151232 0.11073762
0.58458436 0.12301205 0.11043664
0.58570719 0.12342727 0.11076842
0.58600187 0.12438475 0.11078382
0.58629662 0.12534223 0.11079922
0.54025275 0.06215876 0.10000483
0.54311121 0.061750222 0.10097674
0.54341358 0.062732525 0.10099254
0.54456699 0.063248098 0.10132699
0.54486901 0.064229354 0.10134277
0.54517102 0.065210618 0.10135855
0.54632318 0.065722071 0.10169292
0.54747474 0.066231437 0.10202728
0.54862559 0.066738762 0.1023616
0.54977584 0.067244001 0.10269588
0.55177432 0.067273214 0.10334868
0.5537715 0.067298315 0.10400139
0.55576736 0.067319289 0.10465404
0.5586099 0.066859052 0.10562512
0.56060296 0.066870674 0.10627763
0.56259471 0.066878192 0.10693006
0.56458521 0.066881582 0.10758242
0.56657445 0.066880807 0.10823474
0.56771606 0.067358136 0.10856857
0.56885707 0.067833401 0.10890236
0.56999743 0.068306588 0.10923613
0.57029182 0.069263034 0.10925151
0.57143134 0.069733121 0.10958524
0.57257009 0.070201136 0.10991892
0.57370824 0.070667081 0.11025257
0.57484573 0.071130976 0.11058619
0.57598263 0.071592778 0.11091979
0.57711887 0.072052538 0.11125334
0.57825446 0.072510213 0.11158685
0.57938939 0.072965831 0.11192033
0.57968128 0.073913991 0.11193559
0.58081526 0.074366517 0.11226901
0.5819487 0.07481695 0.11260243
0.58223987 0.075763047 0.11261764
0.58337229 0.076210387 0.112951
0.58366317 0.077155463 0.11296619
0.5839541 0.078100525 0.11298139
0.58508521 0.078543745 0.11331467
0.58537579 0.079487778 0.11332986
0.58566636 0.080431812 0.11334503
0.58595693 0.08137586 0.11336022
0.5862475 0.082319893 0.1133754
0.58653814 0.083263926 0.11339059
0.58682871 0.084207967 0.11340576
0.58711928 0.085152015 0.11342095
0.58740985 0.086096048 0.11343613
0.58770043 0.087040082 0.11345132
0.587991 0.087984115 0.11346649
0.58828157 0.088928148 0.11348168
0.58857214 0.089872196 0.11349686
0.58886272 0.09081623 0.11351205
0.58915329 0.091760263 0.11352722
0.58944386 0.092704296 0.11354241
0.58973444 0.093648329 0.11355759
0.59002501 0.094592378 0.11357278
0.59031558 0.095536411 0.11358795
0.59060615 0.096480444 0.11360314
0.59089679 0.097424477 0.11361832
0.59118736 0.098368511 0.11363351
0.59147793 0.099312559 0.11364868
0.5917685 0.10025659 0.11366387
0.59122646 0.1017273 0.11336137
0.59151733 0.10267237 0.11337657
0.5909763 0.1041462 0.11307412
0.5904358 0.1056221 0.11277168
0.58989602 0.10710004 0.11246929
0.58935684 0.10858008 0.11216694
0.58881831 0.11006216 0.11186463
0.58911079 0.11101241 0.11187991
0.58857322 0.11249758 0.11157764
0.58803624 0.11398488 0.11127538
0.58749998 0.11547419 0.11097318
0.58696431 0.11696558 0.11067101
0.58642924 0.11845905 0.11036888
0.58589482 0.11995459 0.11006676
0.58536106 0.1214522 0.10976469
0.58482796 0.12295187 0.10946266
0.58595049 0.12336716 0.10979549
0.58624524 0.12432464 0.10981088
0.58653992 0.12528212 0.10982628
0.54506373 0.060759392 0.10061806
0.54621661 0.061273996 0.10095354
0.54651803 0.062253192 0.10096929
0.54596883 0.063700072 0.10066535
0.54712081 0.064211585 0.10100079
0.54742217 0.065190777 0.10101654
0.54772359 0.066169962 0.10103229
0.5488742 0.066677347 0.10136765
0.55002415 0.067182653 0.10170299
0.5520221 0.067212 0.10235788
0.55401874 0.067237228 0.1030127
0.55601412 0.067258328 0.10366745
0.55885589 0.066798285 0.10464167
0.56084841 0.066810034 0.10529628
0.56283963 0.066817686 0.10595082
0.56482959 0.06682121 0.10660528
0.5668183 0.066820562 0.1072597
0.56795967 0.067297958 0.10759458
0.56910044 0.06777329 0.10792943
0.5702405 0.068246536 0.10826425
0.57053488 0.069202982 0.10827962
0.57167411 0.069673136 0.10861441
0.57281262 0.070141219 0.10894915
0.57395047 0.07060723 0.10928384
0.57508773 0.071071185 0.10961851
0.57622439 0.071533054 0.10995315
0.57651722 0.072484322 0.10996845
0.57765287 0.072943129 0.11030304
0.57878786 0.073399834 0.11063759
0.5799222 0.073854461 0.1109721
0.58021408 0.074802645 0.11098735
0.58134753 0.075254194 0.11132182
0.58248031 0.075703651 0.11165627
0.58277154 0.076649748 0.11167149
0.58306277 0.07759586 0.1116867
0.583354 0.078541964 0.11170191
0.58448517 0.078986265 0.11203626
0.58561569 0.079428509 0.11237058
0.58590627 0.080372542 0.11238576
0.5861969 0.08131659 0.11240095
0.58648747 0.082260624 0.11241613
0.58677804 0.083204657 0.11243131
0.58706862 0.08414869 0.11244649
0.58735919 0.085092738 0.11246168
0.58764976 0.086036772 0.11247686
0.58794034 0.086980812 0.11249204
0.58823091 0.087924846 0.11250722
0.58852148 0.088868879 0.11252241
0.58881205 0.089812927 0.11253759
0.58910263 0.09075696 0.11255277
0.5893932 0.091700993 0.11256795
0.58968377 0.092645027 0.11258314
0.58997434 0.09358906 0.11259831
0.59026498 0.094533108 0.1126135
0.59055555 0.095477141 0.11262868
0.59084612 0.096421175 0.11264387
0.59113669 0.097365208 0.11265904
0.59142727 0.098309241 0.11267423
0.59171784 0.099253289 0.11268941
0.59117573 0.10072289 0.11238584
0.59146667 0.10166796 0.11240104
0.59175754 0.10261304 0.11241624
0.59121674 0.10408679 0.11211274
0.59067649 0.10556263 0.11180925
0.59013695 0.10704051 0.11150581
0.58959806 0.10852048 0.11120241
0.58905983 0.1100025 0.11089904
0.58935231 0.11095274 0.11091432
0.58881497 0.11243786 0.110611
0.58827829 0.11392508 0.1103077
0.58774221 0.11541434 0.11000445
0.58720684 0.11690567 0.10970123
0.58667207 0.11839907 0.10939804
0.58613789 0.11989454 0.10909487
0.58560443 0.12139209 0.10879175
0.58507156 0.12289169 0.10848866
0.58619386 0.12330704 0.10882255
0.58648854 0.12426452 0.10883795
0.58760989 0.12467679 0.10917178
0.58790427 0.12563321 0.10918716
0.54616404 0.06023334 0.099942796
0.54646546 0.061212521 0.099958546
0.54761738 0.061725128 0.10029504
0.54791844 0.062703297 0.10031077
0.54736966 0.064150102 0.10000579
0.54767102 0.065129302 0.10002153
0.54797244 0.06610848 0.10003728
0.54912281 0.066615932 0.1003737
0.55027246 0.067121305 0.10071009
0.55226994 0.067150779 0.10136708
0.55426604 0.067176141 0.102024
0.55626088 0.067197375 0.10268085
0.55910182 0.066737525 0.10365823
0.56109387 0.066749401 0.10431495
0.56308454 0.066757187 0.10497158
0.56507397 0.066760831 0.10562815
0.56706214 0.066760316 0.10628466
0.56820327 0.067237779 0.10662059
0.56934375 0.067713179 0.1069565
0.57048357 0.068186492 0.10729236
0.57077795 0.06914293 0.10730775
0.57191694 0.069613151 0.10764357
0.57305515 0.070081294 0.10797936
0.57419276 0.070547372 0.1083151
0.57532978 0.071011402 0.10865082
0.57562286 0.071963713 0.10866614
0.57675898 0.072424598 0.10900182
0.57789433 0.072883464 0.10933745
0.57818681 0.073833697 0.10935273
0.57932127 0.074289449 0.10968832
0.57961345 0.075238653 0.10970359
0.58074689 0.075691275 0.11003912
0.58187973 0.076141872 0.11037462
0.58217126 0.077089012 0.11038985
0.58330321 0.077536464 0.11072532
0.58359444 0.078482561 0.11074053
0.58472532 0.078926928 0.11107593
0.58501625 0.079871997 0.11109113
0.58614624 0.080313273 0.11142648
0.58643681 0.081257321 0.11144166
0.58672738 0.082201354 0.11145685
0.58701795 0.083145387 0.11147203
0.58730853 0.084089421 0.11148721
0.5875991 0.085033469 0.11150239
0.58788967 0.085977502 0.11151758
0.58818024 0.086921535 0.11153276
0.58847082 0.087865569 0.11154794
0.58876139 0.088809602 0.11156312
0.58905196 0.08975365 0.11157831
0.58934253 0.090697683 0.11159348
0.58963311 0.091641724 0.11160867
0.58992368 0.092585757 0.11162385
0.59021431 0.093529791 0.11163904
0.59050488 0.094473839 0.11165421
0.59079546 0.095417872 0.1116694
0.59108603 0.096361905 0.11168458
0.5913766 0.097305939 0.11169977
0.59166718 0.098249972 0.11171494
0.59112501 0.099718481 0.11141031
0.59141594 0.10066355 0.11142551
0.59170681 0.10160863 0.11144071
0.59199774 0.1025537 0.11145591
0.59145719 0.10402739 0.11115135
0.59091723 0.10550317 0.11084682
0.59037793 0.10698098 0.11054233
0.58983928 0.10846088 0.11023788
0.58930129 0.10994284 0.10993346
0.58959377 0.11089309 0.10994874
0.58905673 0.11237814 0.10964437
0.58852029 0.11386529 0.10934002
0.5879845 0.11535449 0.10903572
0.58744937 0.11684574 0.10873144
0.5869149 0.11833908 0.1084272
0.58638096 0.11983449 0.10812299
0.58584774 0.12133197 0.10781882
0.58531517 0.12283152 0.10751467
0.58643717 0.12324693 0.10784961
0.58673191 0.12420441 0.10786501
0.58785295 0.12461673 0.10819989
0.58814734 0.12557316 0.10821528
0.5472638 0.059707403 0.099269636
0.54756492 0.06068556 0.099285364
0.54871625 0.061197206 0.099622898
0.54901701 0.06217432 0.099638611
0.54761851 0.064088628 0.099010788
0.54791993 0.06506782 0.099026538
0.54822129 0.066047005 0.099042282
0.54937136 0.066554517 0.099379748
0.55052084 0.067059956 0.099717185
0.55251771 0.067089558 0.10037629
0.55451328 0.067115054 0.1010353
0.55650759 0.067136414 0.10169426
0.55934781 0.066676758 0.10267478
0.56133926 0.066688769 0.10333359
0.56332946 0.066696681 0.10399234
0.56531835 0.066700459 0.104651
0.56730604 0.066700079 0.10530961
0.56844687 0.067177601 0.1056466
0.56958711 0.06765306 0.10598356
0.57072663 0.06812644 0.10632047
0.57102108 0.069082886 0.10633585
0.57215971 0.069553167 0.10667273
0.57329774 0.070021376 0.10700957
0.57443506 0.070487514 0.10734637
0.57557178 0.070951611 0.10768314
0.57586491 0.071903922 0.10769845
0.57700074 0.072364874 0.10803518
0.57729352 0.073316157 0.10805049
0.57842833 0.07377404 0.10838716
0.57956249 0.074229851 0.10872378
0.57985467 0.075179055 0.10873905
0.58098787 0.075631745 0.10907564
0.5812797 0.076579928 0.10909089
0.58241194 0.077029541 0.10942742
0.58270353 0.077976681 0.10944266
0.58383483 0.078423157 0.10977916
0.58412606 0.079369277 0.10979437
0.5852564 0.079812661 0.1101308
0.58554733 0.080757737 0.110146
0.5858382 0.081702814 0.1101612
0.58612913 0.082647875 0.1101764
0.58642 0.083592944 0.1101916
0.58671087 0.08453802 0.1102068
0.5870018 0.085483089 0.110222
0.58729267 0.086428151 0.1102372
0.5875836 0.087373227 0.1102524
0.58787447 0.088318303 0.11026759
0.58816534 0.089263372 0.11028279
0.58845627 0.090208448 0.11029799
0.58874714 0.09115351 0.11031319
0.58903807 0.092098579 0.11032839
0.58932894 0.093043655 0.11034359
0.58961982 0.093988732 0.11035879
0.58991075 0.0949338 0.11037399
0.59020162 0.095878862 0.11038919
0.59049255 0.096823938 0.11040439
0.59078342 0.097769007 0.11041959
0.59107429 0.098714083 0.11043479
0.59136522 0.099659145 0.11044998
0.59165609 0.10060421 0.11046518
0.59194702 0.10154929 0.11048038
0.59223789 0.10249437 0.11049558
0.59169763 0.10396799 0.11018998
0.59115791 0.1054437 0.10988439
0.59061891 0.10692145 0.10957885
0.59008056 0.10840129 0.10927334
0.58954281 0.10988318 0.10896788
0.58983529 0.11083342 0.10898316
0.58929849 0.1123184 0.10867774
0.58876228 0.1138055 0.10837233
0.5882268 0.11529463 0.10806698
0.5876919 0.11678582 0.10776166
0.58715767 0.1182791 0.10745636
0.58662403 0.11977445 0.10715109
0.5860911 0.12127186 0.10684588
0.58555877 0.12277134 0.10654069
0.58585382 0.12372985 0.1065561
0.58697522 0.1241443 0.10689207
0.58726996 0.12510177 0.10690747
0.54751241 0.059645992 0.098275676
0.54781348 0.060624145 0.098291412
0.54896456 0.061135858 0.098630004
0.54926533 0.062112972 0.098645717
0.54786736 0.064027146 0.098015778
0.54816878 0.065006346 0.098031528
0.54847014 0.065985523 0.098047279
0.54961997 0.066493109 0.098385796
0.55076915 0.066998608 0.098724291
0.55276555 0.067028344 0.099385478
0.55476058 0.067053966 0.1000466
0.55675435 0.067075454 0.10070766
0.55959374 0.066615991 0.10169134
0.56158471 0.066628136 0.10235225
0.56357437 0.066636175 0.1030131
0.56556273 0.066640086 0.10367386
0.56754988 0.066639833 0.10433458
0.56869048 0.067117423 0.10467261
0.56983042 0.067592949 0.10501062
0.5709697 0.068066388 0.10534858
0.57126415 0.069022834 0.10536396
0.57240254 0.069493182 0.1057019
0.57354027 0.069961458 0.10603978
0.57467735 0.070427664 0.10637764
0.57497078 0.071381003 0.10639297
0.57610691 0.071844131 0.10673077
0.57724249 0.07230515 0.10706855
0.57753527 0.073256433 0.10708385
0.57866979 0.073714375 0.10742157
0.57980371 0.074170254 0.10775925
0.58009589 0.075119458 0.10777452
0.58122885 0.075572215 0.10811216
0.58152068 0.076520398 0.1081274
0.58265269 0.076970078 0.10846499
0.58294421 0.077917218 0.10848022
0.58407527 0.078363761 0.10881776
0.5843665 0.079309873 0.10883299
0.5854966 0.079753332 0.10917047
0.58578748 0.080698401 0.10918567
0.58607841 0.081643477 0.10920087
0.58636928 0.082588539 0.10921607
0.58666015 0.083533607 0.10923127
0.58695108 0.084478684 0.10924647
0.58724195 0.08542376 0.10926167
0.58753288 0.086368814 0.10927687
0.58782375 0.08731389 0.10929207
0.58811468 0.088258967 0.10930727
0.58840555 0.089204036 0.10932247
0.58869642 0.090149112 0.10933767
0.58898735 0.091094173 0.10935286
0.58927822 0.092039242 0.10936806
0.58956915 0.092984319 0.10938326
0.58986002 0.093929395 0.10939846
0.59015089 0.094874464 0.10941366
0.59044182 0.095819525 0.10942886
0.59073269 0.096764602 0.10944406
0.59102362 0.097709671 0.10945926
0.59131449 0.098654747 0.10947446
0.59160537 0.099599808 0.10948966
0.5918963 0.10054488 0.10950486
0.59218717 0.10148995 0.10952006
0.5924781 0.10243503 0.10953525
0.59193808 0.10390859 0.10922859
0.5913986 0.10538424 0.10892196
0.59085989 0.10686192 0.10861537
0.59032178 0.10834169 0.10830881
0.58978426 0.10982352 0.10800229
0.5900768 0.11077376 0.10801757
0.58954024 0.11225868 0.10771111
0.58900434 0.11374571 0.10740464
0.58846909 0.11523478 0.10709824
0.58793449 0.11672591 0.10679187
0.5874005 0.11821911 0.10648553
0.58686709 0.11971439 0.10617921
0.58633441 0.12121174 0.10587294
0.58580238 0.12271115 0.1055667
0.58609736 0.12366968 0.10558211
0.58721852 0.12408418 0.10591914
0.58751327 0.12504166 0.10593454
0.54606014 0.060513221 0.096633844
0.547212 0.061028086 0.096973538
0.54751343 0.062007282 0.096989281
0.54781479 0.062986478 0.097005032
0.54811621 0.063965671 0.097020783
0.54841763 0.064944863 0.097036526
0.54871899 0.065924048 0.097052276
0.54986858 0.066431694 0.097391844
0.55101746 0.06693726 0.097731382
0.55301332 0.066967122 0.098394677
0.55500787 0.066992871 0.099057898
0.55700111 0.067014493 0.099721059
0.55983973 0.066555232 0.1007079
0.56183016 0.066567503 0.10137091
0.56381929 0.066575669 0.10203386
0.5658071 0.066579714 0.10269672
0.56779373 0.066579588 0.10335954
0.56893408 0.067057244 0.10369863
0.57007372 0.06753283 0.10403769
0.57121277 0.068006344 0.1043767
