# .PCD v0.7 - Point Cloud Data file format
VERSION 0.7
FIELDS x y z
SIZE 4 4 4
TYPE F F F
COUNT 1 1 1
WIDTH 1396
HEIGHT 1
VIEWPOINT 0 0 0 1 0 0 0
POINTS 1396
DATA ascii
0.47453395 0.126698 0.014707007
0.47418398 0.12624867 0.014699855
0.47383401 0.12579936 0.014692702
0.47348407 0.12535003 0.01468555
0.4731341 0.12490071 0.014678397
0.47278413 0.12445139 0.014671245
0.47243419 0.12400207 0.014664093
0.47208422 0.12355275 0.01465694
0.47173426 0.12310342 0.014649788
0.47138432 0.12265411 0.014642635
0.47103435 0.12220479 0.014635483
0.47068438 0.12175547 0.014628331
0.47033444 0.12130614 0.014621179
0.46998447 0.12085682 0.014614026
0.4696345 0.1204075 0.014606874
0.46994954 0.11937943 0.014107858
0.46959892 0.11892926 0.014100691
0.46924829 0.11847909 0.014093526
0.46889767 0.11802892 0.01408636
0.46920934 0.11699662 0.013587298
0.46885806 0.1165456 0.013580118
0.46850678 0.11609457 0.013572939
0.4688158 0.11505888 0.013073823
0.46846384 0.11460701 0.01306663
0.4681119 0.11415514 0.013059437
0.46841827 0.11311603 0.012560267
0.46806565 0.11266331 0.01255306
0.46837008 0.11162162 0.012053828
0.4680168 0.11116804 0.012046607
0.46766353 0.11071447 0.012039388
0.46731028 0.11026089 0.012032167
0.46761134 0.10921498 0.011532889
0.46725741 0.10876056 0.011525655
0.46690345 0.10830613 0.011518422
0.46720189 0.10725681 0.011019096
0.46684727 0.10680153 0.011011848
0.46649268 0.10634626 0.011004602
0.46678844 0.10529354 0.010505214
0.4664332 0.10483741 0.010497954
0.46737605 0.10318297 0.0095063373
0.46766785 0.10212515 0.009006869
0.4679583 0.10106563 0.0085073812
0.46824744 0.1000044 0.0080078524
0.46853527 0.098941438 0.0075082877
0.46882176 0.09787681 0.0070087044
0.46910694 0.096810475 0.0065091075
0.46939078 0.095742442 0.0060094697
0.46902955 0.095278658 0.0060020871
0.46995449 0.093601234 0.0050101052
0.51148009 0.14727242 0.0053137881
0.51039916 0.1473165 0.005798148
0.5093196 0.14736223 0.006282513
0.50824142 0.14740968 0.0067669051
0.50716448 0.14745884 0.0072513171
0.50608891 0.14750968 0.0077357702
0.50572968 0.14704844 0.0077284281
0.50465602 0.14710188 0.0082129305
0.50429749 0.14664149 0.0082056019
0.50286794 0.14623791 0.0086828209
0.50179833 0.14629643 0.0091673825
0.50073004 0.14635663 0.009651971
0.50037348 0.1458988 0.0096446825
0.49930713 0.1459616 0.010129347
0.4989512 0.14550461 0.010122074
0.4985953 0.14504763 0.010114799
0.49753165 0.1451138 0.010599482
0.49717638 0.14465767 0.010592221
0.49611473 0.1447264 0.011076952
0.49576011 0.14427112 0.011069705
0.49470046 0.14434239 0.011554476
0.49434653 0.14388795 0.011547242
0.49328884 0.14396179 0.012032054
0.49293557 0.14350821 0.012024835
0.49187982 0.14358462 0.012509702
0.49152723 0.1431319 0.012502495
0.49047351 0.14321083 0.012987388
0.48942113 0.14329146 0.013472309
0.48906985 0.14284043 0.01346513
0.48871857 0.14238942 0.01345795
0.48836729 0.14193839 0.013450771
0.48801601 0.14148736 0.013443591
0.48696759 0.1415731 0.013928593
0.48661697 0.14112294 0.013921427
0.48626634 0.14067276 0.013914261
0.48591572 0.14022259 0.013907094
0.4855651 0.13977242 0.013899929
0.4852145 0.13932224 0.013892763
0.48486388 0.13887207 0.013885597
0.48451325 0.13842189 0.013878431
0.48416263 0.13797173 0.013871266
0.483812 0.13752155 0.013864099
0.48346138 0.13707139 0.013856933
0.48311076 0.13662121 0.013849767
0.48276013 0.13617104 0.013842601
0.48240951 0.13572086 0.013835436
0.48205888 0.1352707 0.013828269
0.48170826 0.13482052 0.013821104
0.48135763 0.13437034 0.013813938
0.48100701 0.13392018 0.013806771
0.48065642 0.13347 0.013799606
0.48030579 0.13301983 0.013792439
0.47995517 0.13256966 0.013785274
0.47960454 0.13211949 0.013778108
0.47925392 0.13166931 0.013770942
0.47890329 0.13121915 0.013763776
0.47855267 0.13076897 0.01375661
0.47820204 0.13031881 0.013749444
0.47785142 0.12986863 0.013742278
0.47682154 0.12997822 0.014227681
0.47647157 0.12952891 0.014220528
0.47612163 0.12907958 0.014213377
0.47577167 0.12863027 0.014206224
0.4754217 0.12818094 0.014199072
0.47507173 0.12773162 0.014191919
0.47472179 0.12728231 0.014184766
0.47437182 0.12683298 0.014177614
0.47402185 0.12638366 0.014170462
0.47367191 0.12593433 0.01416331
0.47332194 0.12548502 0.014156157
0.47297198 0.12503569 0.014149005
0.47262204 0.12458637 0.014141852
0.47227207 0.12413705 0.014134699
0.4719221 0.12368773 0.014127548
0.47157216 0.12323841 0.014120395
0.47122219 0.12278908 0.014113243
0.47087222 0.12233976 0.01410609
0.47052228 0.12189045 0.014098938
0.47017232 0.12144113 0.014091785
0.47048837 0.12041501 0.013591793
0.47013775 0.11996484 0.013584627
0.46978712 0.11951467 0.013577461
0.4694365 0.11906449 0.013570296
0.46908587 0.11861432 0.013563129
0.4693979 0.11758313 0.013063078
0.46904662 0.11713211 0.013055898
0.46869534 0.11668109 0.013048719
0.46900472 0.1156465 0.012548613
0.46865276 0.11519463 0.012541421
0.46830082 0.11474276 0.012534227
0.46860754 0.11370476 0.012034068
0.46825492 0.11325204 0.012026861
0.4679023 0.11279931 0.012019655
0.46820644 0.11175787 0.011519426
0.46785316 0.1113043 0.011512205
0.46749988 0.11085072 0.011504984
0.4678013 0.10980592 0.011004717
0.46744737 0.10935149 0.010997483
0.46709344 0.10889707 0.010990249
0.46739221 0.10784886 0.010489927
0.46703762 0.10739359 0.01048268
0.466683 0.1069383 0.010475433
0.46697915 0.1058867 0.0099750562
0.46662387 0.10543057 0.0099677956
0.46691799 0.10437641 0.0094673848
0.46721086 0.10332051 0.0089669116
0.46750233 0.10226294 0.0084664468
0.46779248 0.10120367 0.0079659559
0.46808133 0.10014271 0.0074654231
0.46836886 0.099079996 0.0069648554
0.46865505 0.098015629 0.0064642685
0.4689399 0.096949548 0.0059636687
0.46922344 0.095881768 0.0054630348
0.51023155 0.14745608 0.0052507096
0.50915229 0.14750157 0.0057360707
0.50807434 0.14754875 0.0062214732
0.50699776 0.14759764 0.0067068883
0.50663787 0.14713556 0.0066995332
0.50556326 0.14718699 0.0071849958
0.50448996 0.14724018 0.0076705012
0.50413138 0.14677981 0.0076631727
0.50270218 0.14637595 0.0081413956
0.50163287 0.14643422 0.0086269602
0.5012756 0.14597553 0.0086196586
0.50020826 0.14603634 0.0091052642
0.4998517 0.1455785 0.0090979757
0.49878633 0.14564189 0.0095836511
0.4984304 0.14518492 0.0095763765
0.49736705 0.14525083 0.01006207
0.49701181 0.1447947 0.010054809
0.49595046 0.14486316 0.010540543
0.49559587 0.14440788 0.010533296
0.49453649 0.1444789 0.011019063
0.49418256 0.14402448 0.01101183
0.4931252 0.14409804 0.011497645
0.49277192 0.14364447 0.011490425
0.49171647 0.14372063 0.011976303
0.49136388 0.1432679 0.011969096
0.49031049 0.14334658 0.012454993
0.48995852 0.1428947 0.0124478
0.48890713 0.14297593 0.01293373
0.48855585 0.1425249 0.012926551
0.48820454 0.14207388 0.012919371
0.48785326 0.14162286 0.012912191
0.48750198 0.14117183 0.012905012
0.48645455 0.14125817 0.013391031
0.48610392 0.140808 0.013383864
0.4857533 0.14035782 0.013376699
0.48540267 0.13990766 0.013369533
0.48505208 0.13945748 0.013362367
0.48470145 0.1390073 0.013355201
0.48435083 0.13855714 0.013348035
0.48400021 0.13810696 0.013340869
0.48364958 0.13765679 0.013333703
0.48329896 0.13720661 0.013326537
0.48294833 0.13675645 0.013319371
0.48259771 0.13630627 0.013312206
0.48224708 0.13585611 0.013305039
0.48189646 0.13540593 0.013297874
0.48154584 0.13495576 0.013290707
0.48119521 0.13450558 0.013283541
0.48084459 0.13405541 0.013276376
0.48049399 0.13360524 0.013269209
0.48014337 0.13315506 0.013262044
0.47979274 0.1327049 0.013254877
0.47944212 0.13225472 0.013247712
0.4790915 0.13180456 0.013240546
0.47874087 0.13135438 0.013233379
0.47839025 0.13090421 0.013226214
0.47803962 0.13045403 0.013219048
0.477689 0.13000387 0.013211882
0.47665942 0.13011321 0.013698288
0.47630948 0.12966388 0.013691136
0.47595951 0.12921457 0.013683983
0.47560954 0.12876524 0.013676831
0.47525957 0.12831593 0.013669679
0.47490963 0.1278666 0.013662526
0.47455966 0.12741728 0.013655374
0.4742097 0.12696795 0.013648221
0.47385976 0.12651864 0.013641069
0.47350979 0.12606932 0.013633916
0.47315982 0.12561999 0.013626765
0.47280988 0.12517068 0.013619612
0.47245991 0.12472136 0.013612459
0.47210994 0.12427203 0.013605307
0.47176 0.12382271 0.013598154
0.47141004 0.12337339 0.013591002
0.47106007 0.12292407 0.01358385
0.47137779 0.12190076 0.013082894
0.4710272 0.12145059 0.013075729
0.47067657 0.12100042 0.013068563
0.47032595 0.12055025 0.013061397
0.46997532 0.12010007 0.013054231
0.4696247 0.1196499 0.013047066
0.46927407 0.11919973 0.013039899
0.46892345 0.11874956 0.013032733
0.46923518 0.11771863 0.012531678
0.46888387 0.1172676 0.012524499
0.46919361 0.11623412 0.012023411
0.46884167 0.11578225 0.012016217
0.46848974 0.11533038 0.012009025
0.46879682 0.11429349 0.011507875
0.4684442 0.11384076 0.011500669
0.46809158 0.11338804 0.011493462
0.46839607 0.11234771 0.010992236
0.46804279 0.11189414 0.010985016
0.46768951 0.11144056 0.010977795
0.46733624 0.11098699 0.010970576
0.46763736 0.10994244 0.010469304
0.46728343 0.10948801 0.01046207
0.46758255 0.10844091 0.009960765
0.46722794 0.10798563 0.0099535175
0.46687335 0.10753036 0.0099462708
0.46716982 0.10647985 0.0094449045
0.46681458 0.10602372 0.0094376439
0.4664593 0.1055676 0.0094303824
0.46675313 0.10451369 0.0089289621
0.4676941 0.10285942 0.0079333261
0.46798462 0.10180125 0.0074318447
0.46827379 0.10074139 0.0069303229
0.46856171 0.09967979 0.0064287651
0.46884823 0.098616526 0.0059271958
0.46913344 0.097551554 0.0054256059
0.50898492 0.1476409 0.0051896353
0.50790733 0.14768782 0.0056760344
0.50683105 0.14773646 0.006162453
0.50647116 0.14727437 0.0061550974
0.50539684 0.14732556 0.006641564
0.50503761 0.14686432 0.0066342219
0.50396526 0.1469181 0.0071207439
0.50253636 0.14651401 0.0075999699
0.50217843 0.14605448 0.0075926548
0.50111014 0.14611332 0.0080792364
0.50075287 0.14565465 0.0080719348
0.49968651 0.14571604 0.0085585574
0.49932992 0.14525822 0.0085512688
0.49826553 0.1453222 0.0090379603
0.49720249 0.14538786 0.0095246509
0.49684724 0.14493172 0.0095173893
0.49578619 0.14499994 0.010004127
0.4954316 0.14454466 0.0099968798
0.49437255 0.14461541 0.01048365
0.49401858 0.14416099 0.010476417
0.49296153 0.1442343 0.010963243
0.49260825 0.14378072 0.010956023
0.49155313 0.14385663 0.011442897
0.49120054 0.1434039 0.01143569
0.49014744 0.14348231 0.01192259
0.48979551 0.14303045 0.011915397
0.48944354 0.14257857 0.011908204
0.4890916 0.14212669 0.011901011
0.48873964 0.14167482 0.011893818
0.48769054 0.14175835 0.012380792
0.48733926 0.14130732 0.012373612
0.48698798 0.1408563 0.012366434
0.48663667 0.14040528 0.012359254
0.48559088 0.14049307 0.012846296
0.48524025 0.14004289 0.01283913
0.48488963 0.13959272 0.012831964
0.48453903 0.13914254 0.012824798
0.48418841 0.13869238 0.012817631
0.48383778 0.1382422 0.012810466
0.48348716 0.13779202 0.0128033
0.48313653 0.13734186 0.012796134
0.48278591 0.13689168 0.012788968
0.48243529 0.13644151 0.012781803
0.48208466 0.13599133 0.012774636
0.48173404 0.13554117 0.01276747
0.48138341 0.13509099 0.012760304
0.48103279 0.13464083 0.012753138
0.48068216 0.13419065 0.012745973
0.48033154 0.13374048 0.012738806
0.47998092 0.13329031 0.012731641
0.47963032 0.13284013 0.012724474
0.4792797 0.13238996 0.012717308
0.47892907 0.13193978 0.012710143
0.47857845 0.13148962 0.012702976
0.47822782 0.13103944 0.012695811
0.4778772 0.13058928 0.012688645
0.47752658 0.1301391 0.012681479
0.47649729 0.13024819 0.013168888
0.47614735 0.12979887 0.013161736
0.47579738 0.12934954 0.013154584
0.47544742 0.12890023 0.013147431
0.47509748 0.1284509 0.013140279
0.47474751 0.12800159 0.013133126
0.47439754 0.12755226 0.013125974
0.4740476 0.12710294 0.013118821
0.47369763 0.12665363 0.01311167
0.47334766 0.1262043 0.013104517
0.47299773 0.12575498 0.013097364
0.47264776 0.12530565 0.013090212
0.47229779 0.12485633 0.013083059
0.47194785 0.12440702 0.013075907
0.47159788 0.12395769 0.013068755
0.47191662 0.12293635 0.012566824
0.47156599 0.12248617 0.012559658
0.47121537 0.122036 0.012552491
0.47086474 0.12158583 0.012545326
0.47051415 0.12113566 0.01253816
0.47016352 0.12068549 0.012530994
0.4698129 0.12023531 0.012523828
0.46946228 0.11978514 0.012516662
0.46911165 0.11933497 0.012509496
0.46942371 0.11830514 0.012007458
0.46907243 0.11785412 0.012000279
0.46872115 0.1174031 0.0119931
0.46903059 0.11636987 0.011491008
0.46867862 0.115918 0.011483815
0.46832669 0.11546613 0.011476622
0.46863347 0.11442949 0.010974469
0.46828085 0.11397676 0.010967262
0.46792823 0.11352404 0.010960056
0.46823239 0.11248397 0.010457833
0.46787915 0.11203039 0.010450614
0.46752587 0.11157682 0.010443393
0.46782732 0.11053338 0.0099411253
0.46747339 0.11007895 0.0099338917
0.46711946 0.10962453 0.0099266572
0.46741828 0.10857768 0.0094243493
0.46706367 0.1081224 0.0094171017
0.46670908 0.10766713 0.0094098542
0.46700525 0.10661688 0.0089074848
0.46664998 0.10616075 0.0089002242
0.46694416 0.10510795 0.0083978204
0.46788585 0.10345589 0.0074002054
0.46817672 0.10239884 0.0068977345
0.4678188 0.10193931 0.0068904194
0.46875453 0.10027958 0.0058926749
0.46904141 0.09921743 0.0053901155
0.50774032 0.1478269 0.0051305955
0.50737971 0.14736396 0.005123226
0.50630444 0.14741319 0.005610662
0.50523043 0.14746413 0.0060981316
0.50487119 0.14700289 0.0060907896
0.50379914 0.1470564 0.006578315
0.50344056 0.14659603 0.0065709865
0.50201267 0.14619252 0.0070512295
0.50058734 0.14579244 0.0075315125
0.49952132 0.14585358 0.0080191381
0.49916473 0.14539576 0.0080118505
0.49810064 0.14545947 0.008499545
0.49703792 0.14552487 0.0089872377
0.49668267 0.14506875 0.0089799771
0.49562192 0.1451367 0.0094677182
0.49526733 0.14468142 0.0094604706
0.49420857 0.14475194 0.0099482452
0.49385464 0.1442975 0.0099410117
0.49279788 0.14437056 0.010428833
0.4924446 0.14391698 0.010421613
0.49138978 0.14399263 0.01090949
0.49103719 0.14353991 0.010902284
0.48998439 0.14361806 0.011390187
0.48963246 0.1431662 0.011382994
0.48928052 0.14271432 0.011375802
0.48892856 0.14226244 0.011368608
0.48857662 0.14181057 0.011361415
0.48822466 0.1413587 0.011354222
0.48717651 0.14144282 0.011842214
0.48682523 0.14099179 0.011835034
0.48647395 0.14054078 0.011827854
0.48612267 0.14008975 0.011820675
0.48577139 0.13963872 0.011813495
0.4847272 0.13972795 0.012301568
0.48437658 0.13927779 0.012294401
0.48402599 0.13882761 0.012287236
0.48367536 0.13837744 0.012280069
0.48332474 0.13792726 0.012272904
0.48297411 0.13747708 0.012265738
0.48262349 0.13702692 0.012258572
0.48227286 0.13657674 0.012251406
0.48192224 0.13612658 0.01224424
0.48157161 0.1356764 0.012237074
0.48122099 0.13522623 0.012229908
0.48087037 0.13477606 0.012222742
0.48051974 0.13432589 0.012215576
0.48016912 0.13387571 0.012208411
0.47981849 0.13342555 0.012201244
0.4794679 0.13297537 0.012194078
0.47911727 0.13252519 0.012186913
0.47876665 0.13207503 0.012179746
0.47841603 0.13162485 0.012172581
0.4780654 0.13117468 0.012165414
0.47771478 0.1307245 0.012158249
0.47736415 0.13027434 0.012151083
0.47701353 0.12982416 0.012143916
0.4766629 0.129374 0.012136751
0.47631228 0.12892382 0.012129585
0.47596166 0.12847365 0.012122419
0.47561103 0.12802348 0.012115253
0.47526041 0.1275733 0.012108087
0.47490981 0.12712313 0.012100921
0.47455919 0.12667295 0.012093755
0.47420856 0.12622279 0.012086589
0.47385794 0.12577261 0.012079423
0.47350731 0.12532245 0.012072258
0.47315669 0.12487227 0.012065091
0.47280607 0.1244221 0.012057926
0.47245544 0.12397192 0.012050759
0.47210482 0.12352175 0.012043593
0.47175419 0.12307158 0.012036428
0.47140357 0.12262141 0.012029261
0.47105294 0.12217124 0.012022096
0.47070232 0.12172107 0.01201493
0.47035173 0.1212709 0.012007764
0.4700011 0.12082072 0.012000598
0.46965048 0.12037054 0.011993431
0.46929985 0.11992037 0.011986266
0.46961227 0.11889166 0.011483238
0.46926099 0.11844064 0.011476059
0.46890971 0.11798961 0.01146888
0.46855843 0.11753859 0.0114617
0.46886754 0.11650562 0.010958605
0.4685156 0.11605375 0.010951412
0.46816364 0.11560187 0.010944219
0.46847013 0.11456549 0.010441063
0.46811751 0.11411277 0.010433856
0.46842203 0.1130738 0.0099306442
0.46806875 0.11262023 0.0099234236
0.46771547 0.11216665 0.009916204
0.4673622 0.11171307 0.0099089835
0.46766338 0.1106699 0.0094057191
0.46730945 0.11021546 0.0093984855
0.4676086 0.10916973 0.0088951876
0.46725401 0.10871445 0.0088879401
0.46689942 0.10825917 0.0088806925
0.46719593 0.10721003 0.0083773332
0.46684068 0.1067539 0.0083700726
0.46713522 0.10570221 0.0078666797
0.4680776 0.10405237 0.0068670847
0.46836883 0.10299642 0.0063636238
0.46865872 0.10193877 0.0058601219
0.46894735 0.10087939 0.0053565847
0.50613773 0.147552 0.0050662332
0.50577778 0.14708991 0.0050588776
0.50470477 0.14714144 0.0055473642
0.50363302 0.14719471 0.0060358858
0.50327444 0.14673433 0.0060285577
0.50184685 0.14633058 0.0065098037
0.50148892 0.14587104 0.0065024886
0.50042188 0.14593023 0.0069910833
0.50006461 0.14547154 0.0069837822
0.49899957 0.14553329 0.0074724243
0.49793577 0.14559676 0.0079611223
0.49687335 0.14566191 0.0084498189
0.49651808 0.14520578 0.0084425583
0.49545765 0.14527348 0.0089313015
0.49510306 0.1448182 0.0089240549
0.49404463 0.14488845 0.0094128326
0.49369067 0.14443402 0.009405599
0.49263424 0.14450681 0.0098944241
0.49228096 0.14405324 0.0098872036
0.49192768 0.14359966 0.009879984
0.49087384 0.14367591 0.010368878
0.48982137 0.14375381 0.010857784
0.48946941 0.14330193 0.010850592
0.48911747 0.14285007 0.010843398
0.48876554 0.14239819 0.010836205
0.48841357 0.14194632 0.010829012
0.48806164 0.14149444 0.010821819
0.48770967 0.14104258 0.010814627
0.48666251 0.14112729 0.011303634
0.48631123 0.14067626 0.011296455
0.48595995 0.14022525 0.011289275
0.48560864 0.13977422 0.011282096
0.48525736 0.13932319 0.011274916
0.48490608 0.13887218 0.011267737
0.48386356 0.13896285 0.011756839
0.48351294 0.13851267 0.011749674
0.48316231 0.13806251 0.011742508
0.48281169 0.13761233 0.011735342
0.48246107 0.13716215 0.011728176
0.48211044 0.13671198 0.011721009
0.48175982 0.13626181 0.011713844
0.48140919 0.13581164 0.011706678
0.48105857 0.13536146 0.011699512
0.48070794 0.1349113 0.011692346
0.48035732 0.13446112 0.01168518
0.48000669 0.13401096 0.011678014
0.47965607 0.13356078 0.011670848
0.47930548 0.13311061 0.011663682
0.47895485 0.13266043 0.011656516
0.47860423 0.13221025 0.011649351
0.4782536 0.13176009 0.011642184
0.47790298 0.13130991 0.011635019
0.47755235 0.13085975 0.011627852
0.47720173 0.13040957 0.011620686
0.47685111 0.1299594 0.011613521
0.47650048 0.12950923 0.011606354
0.47614986 0.12905906 0.011599189
0.47579923 0.12860888 0.011592023
0.47544861 0.12815872 0.011584857
0.47509798 0.12770854 0.011577691
0.47474736 0.12725836 0.011570524
0.47439677 0.1268082 0.011563359
0.47404614 0.12635802 0.011556193
0.47369552 0.12590785 0.011549027
0.47334489 0.12545767 0.011541861
0.47299427 0.12500751 0.011534696
0.47264364 0.12455733 0.011527529
0.47229302 0.12410716 0.011520363
0.47194239 0.12365699 0.011513197
0.47159177 0.12320682 0.011506031
0.47124115 0.12275665 0.011498866
0.47089052 0.12230647 0.011491699
0.4705399 0.1218563 0.011484534
0.47018927 0.12140613 0.011477368
0.46983868 0.12095596 0.011470201
0.46948805 0.12050579 0.011463036
0.46980083 0.11947817 0.010959019
0.46944955 0.11902715 0.010951839
0.46909827 0.11857612 0.01094466
0.46874699 0.1181251 0.01093748
0.46905646 0.11709324 0.010433395
0.46870452 0.11664136 0.010426202
0.46835256 0.11618949 0.010419009
0.46865937 0.11515422 0.0099148629
0.46830678 0.11470149 0.0099076563
0.46861166 0.11366364 0.0094034551
0.46825838 0.11321007 0.0093962345
0.4679051 0.11275649 0.0093890149
0.46755183 0.11230291 0.0093817944
0.46785334 0.11126084 0.00887754
0.46749941 0.11080641 0.0088703064
0.46714547 0.11035198 0.0088630728
0.46744436 0.1093065 0.008358771
0.46708974 0.10885122 0.0083515244
0.46738663 0.10780319 0.007847175
0.46703136 0.10734706 0.0078399144
0.46732625 0.10629647 0.0073355311
0.46761987 0.10524415 0.0068310923
0.46791211 0.10419016 0.0063266554
0.46820304 0.10313447 0.005822198
0.46849263 0.10207707 0.0053176931
0.50453836 0.14728001 0.0050039319
0.50310838 0.14687262 0.0054861354
0.5027498 0.14641224 0.0054788068
0.5013231 0.14600909 0.0059610563
0.49989912 0.14560933 0.0064433599
0.49883437 0.14567083 0.0069330051
0.49847779 0.14521299 0.0069257175
0.49741498 0.14527707 0.0074154325
0.49635351 0.1453428 0.0079051452
0.49529341 0.14541024 0.0083948933
0.49493879 0.14495496 0.0083876457
0.49388066 0.14502496 0.0088774264
0.49352673 0.14457053 0.0088701928
0.49247059 0.14464308 0.009360021
0.49211732 0.14418951 0.0093528014
0.49176404 0.14373593 0.0093455808
0.4907105 0.14381191 0.0098354723
0.48965833 0.14388956 0.010325382
0.48930639 0.14343768 0.010318189
0.48895442 0.14298582 0.010310995
0.48860249 0.14253394 0.010303803
0.48825052 0.14208207 0.010296609
0.48789859 0.14163019 0.010289417
0.48754665 0.14117831 0.010282223
0.48719469 0.14072645 0.010275031
0.48684275 0.14027457 0.010267837
0.4857972 0.14036073 0.010757876
0.48544592 0.13990971 0.010750696
0.48509464 0.13945869 0.010743516
0.48474336 0.13900766 0.010736337
0.48439208 0.13855664 0.010729157
0.4840408 0.13810562 0.010721979
0.48368949 0.13765459 0.010714799
0.48264927 0.13774757 0.011204946
0.48229864 0.13729739 0.011197779
0.48194802 0.13684721 0.011190614
0.48159739 0.13639705 0.011183447
0.48124677 0.13594687 0.011176282
0.48089615 0.13549671 0.011169116
0.48054552 0.13504653 0.011161949
0.4801949 0.13459636 0.011154784
0.47984427 0.13414618 0.011147618
0.47949365 0.13369602 0.011140452
0.47914302 0.13324584 0.011133286
0.47879243 0.13279566 0.01112612
0.4784418 0.1323455 0.011118954
0.47809118 0.13189532 0.011111788
0.47774056 0.13144515 0.011104622
0.47738993 0.13099498 0.011097456
0.47703931 0.13054481 0.011090291
0.47668868 0.13009463 0.011083124
0.47633806 0.12964447 0.011075959
0.47598743 0.12919429 0.011068792
0.47563681 0.12874413 0.011061626
0.47528619 0.12829395 0.011054461
0.47493556 0.12784378 0.011047294
0.47458494 0.1273936 0.011040129
0.47423434 0.12694342 0.011032963
0.47388372 0.12649326 0.011025797
0.47353309 0.12604308 0.011018631
0.47318247 0.12559292 0.011011465
0.47283185 0.12514274 0.011004299
0.47248122 0.12469257 0.010997133
0.4721306 0.1242424 0.010989967
0.47177997 0.12379222 0.010982801
0.47142935 0.12334205 0.010975636
0.47107872 0.12289188 0.010968469
0.4707281 0.12244171 0.010961303
0.47037748 0.12199154 0.010954137
0.47002685 0.12154137 0.010946971
0.46967626 0.12109119 0.010939806
0.46998939 0.12006469 0.010434799
0.46963811 0.11961366 0.010427619
0.46928683 0.11916264 0.01042044
0.46893552 0.11871162 0.01041326
0.46924537 0.11768086 0.0099081853
0.46889341 0.11722898 0.0099009927
0.46854147 0.11677711 0.0098937992
0.46884865 0.11574295 0.0093886638
0.46849602 0.11529022 0.0093814572
0.46814343 0.1148375 0.0093742507
0.46844801 0.1137999 0.0088690519
0.46809474 0.11334632 0.0088618323
0.46839726 0.1123062 0.0083566019
0.46804333 0.11185177 0.0083493683
0.46768939 0.11139735 0.0083421348
0.46798927 0.11035383 0.0078368569
0.46763468 0.10989854 0.0078296093
0.46728009 0.10944327 0.0078223618
0.46757731 0.10839634 0.0073170234
0.46722206 0.10794021 0.0073097623
0.46751732 0.10689073 0.0068043899
0.46716139 0.10643375 0.0067971153
0.46745467 0.10538168 0.0062916731
0.46839514 0.10373205 0.0052880803
0.50115734 0.14614713 0.0054196306
0.49973363 0.14574713 0.0059029371
0.49937639 0.14528845 0.005895636
0.49831259 0.14535053 0.0063862982
0.49725008 0.14541434 0.0068770167
0.49618894 0.14547983 0.0073677264
0.49512914 0.14554702 0.0078584766
0.49477452 0.14509173 0.00785123
0.49371669 0.14516148 0.0083420137
0.49336275 0.14470704 0.0083347801
0.49230692 0.14477934 0.0088256123
0.49195367 0.14432576 0.0088183917
0.49089977 0.14440064 0.0093092797
0.49054715 0.14394791 0.0093020732
0.48949528 0.14402531 0.0097929789
0.48914334 0.14357343 0.0097857863
0.48879141 0.14312156 0.0097785927
0.48843944 0.14266969 0.0097714001
0.48808751 0.14221781 0.0097642066
0.48773554 0.14176594 0.009757014
0.4873836 0.14131406 0.0097498205
0.48703167 0.1408622 0.0097426279
0.4866797 0.14041032 0.0097354343
0.48632777 0.13995844 0.0097282417
0.4859758 0.13950656 0.0097210482
0.48493192 0.13959418 0.010212117
0.48458064 0.13914315 0.010204938
0.48422933 0.13869213 0.010197759
0.48387805 0.13824111 0.010190579
0.48352677 0.13779008 0.0101834
0.48317549 0.13733906 0.01017622
0.48282421 0.13688804 0.01016904
0.4817856 0.13698246 0.010660217
0.48143497 0.13653228 0.010653052
0.48108435 0.13608211 0.010645886
0.48073372 0.13563193 0.010638719
0.4803831 0.13518177 0.010631554
0.48003247 0.13473159 0.010624387
0.47968185 0.13428143 0.010617222
0.47933123 0.13383125 0.010610056
0.4789806 0.13338108 0.01060289
0.47863001 0.1329309 0.010595724
0.47827938 0.13248074 0.010588558
0.47792876 0.13203056 0.010581392
0.47757813 0.13158038 0.010574226
0.47722751 0.13113022 0.01056706
0.47687688 0.13068004 0.010559894
0.47652626 0.13022988 0.010552729
0.47617564 0.1297797 0.010545562
0.47582501 0.12932953 0.010538396
0.47547439 0.12887935 0.010531231
0.47512376 0.12842919 0.010524064
0.47477314 0.12797901 0.010516899
0.47509593 0.12696552 0.010011092
0.47474465 0.12651451 0.010003912
0.47439337 0.12606348 0.0099967327
0.47404209 0.12561245 0.0099895531
0.47369078 0.12516144 0.0099823736
0.4733395 0.12471041 0.009975194
0.47298822 0.12425939 0.0099680144
0.47263694 0.12380836 0.0099608349
0.47228566 0.12335734 0.0099536553
0.47193438 0.12290632 0.0099464757
0.47158307 0.1224553 0.0099392962
0.47123179 0.12200427 0.0099321166
0.47088051 0.12155325 0.009924938
0.47052923 0.12110223 0.0099177584
0.47017795 0.1206512 0.0099105788
0.46982667 0.12020018 0.0099033993
0.46947536 0.11974916 0.0098962197
0.46912408 0.11929813 0.0098890401
0.46943426 0.11826848 0.0093829753
0.46908233 0.1178166 0.0093757827
0.46873039 0.11736473 0.0093685901
0.46903792 0.11633168 0.0088624712
0.4686853 0.11587895 0.0088552646
0.46833268 0.11542623 0.0088480581
0.46863762 0.11438973 0.0083418628
0.46828434 0.11393616 0.0083346432
0.46858725 0.11289714 0.0078284228
0.46823332 0.11244272 0.0078211892
0.46787935 0.11198829 0.0078139557
0.46817961 0.11094587 0.0073076878
0.46782503 0.1104906 0.0073004407
0.46747041 0.11003532 0.0072931931
0.46776801 0.1089895 0.0067868647
0.46741274 0.10853337 0.0067796037
0.46770835 0.107485 0.0062732482
0.46735242 0.10702801 0.0062659741
0.46764609 0.10597705 0.0057595419
0.46728951 0.10551922 0.0057522543
0.49956813 0.14588493 0.0053625149
0.49921089 0.14542624 0.0053552138
0.4981474 0.14548807 0.0058468794
0.49708521 0.14555162 0.006338594
0.49602437 0.14561686 0.0068303137
0.49496487 0.14568378 0.0073220679
0.49461025 0.14522851 0.0073148203
0.49355274 0.14529799 0.007806601
0.49319881 0.14484356 0.0077993674
0.49214327 0.1449156 0.0082912026
0.49179 0.14446202 0.0082839821
0.49073642 0.14453664 0.0087758731
0.4903838 0.14408392 0.0087686665
0.49003118 0.14363119 0.00876146
0.48898029 0.14370918 0.0092533901
0.48862836 0.14325731 0.0092461966
0.48827642 0.14280543 0.009239004
0.48792446 0.14235356 0.0092318105
0.48757252 0.14190169 0.0092246179
0.48722056 0.14144981 0.0092174252
0.48686862 0.14099793 0.0092102317
0.48651668 0.14054607 0.0092030391
0.48616472 0.14009419 0.0091958456
0.48581278 0.13964231 0.009188653
0.48546082 0.13919044 0.0091814594
0.48510888 0.13873856 0.0091742668
0.48406661 0.13882762 0.0096663591
0.48371533 0.13837659 0.0096591795
0.48336405 0.13792558 0.0096519999
0.48301277 0.13747455 0.0096448204
0.48266146 0.13702352 0.0096376408
0.48231018 0.13657251 0.0096304612
0.4819589 0.13612148 0.0096232817
0.48160762 0.13567045 0.0096161021
0.4805713 0.13576718 0.010108324
0.48022068 0.135317 0.010101157
0.47987005 0.13486683 0.010093992
0.47951943 0.13441665 0.010086825
0.4791688 0.13396649 0.01007966
0.47881818 0.13351631 0.010072494
0.47846758 0.13306615 0.010065327
0.47811696 0.13261597 0.010058162
0.47776634 0.13216579 0.010050996
0.47741571 0.13171563 0.01004383
0.47706509 0.13126545 0.010036664
0.47671446 0.13081528 0.010029498
0.47636384 0.1303651 0.010022332
0.47601321 0.12991494 0.010015166
0.47566259 0.12946476 0.010008
0.47531196 0.1290146 0.010000834
0.47563577 0.12800306 0.0094940513
0.47528449 0.12755205 0.0094868718
0.47493321 0.12710102 0.0094796922
0.47458193 0.12664999 0.0094725126
0.47423062 0.12619898 0.0094653331
0.47387934 0.12574795 0.0094581535
0.47352806 0.12529692 0.0094509739
0.47317678 0.1248459 0.0094437944
0.4728255 0.12439488 0.0094366148
0.47247422 0.12394386 0.0094294352
0.47212291 0.12349284 0.0094222557
0.47177163 0.12304181 0.0094150761
0.47142035 0.12259079 0.0094078975
0.47106907 0.12213976 0.0094007179
0.47071779 0.12168874 0.0093935383
0.47036651 0.12123772 0.0093863588
0.4700152 0.1207867 0.0093791792
0.46966392 0.12033567 0.0093719997
0.46931264 0.11988465 0.0093648201
0.46962318 0.1188561 0.0088577727
0.46927124 0.11840423 0.0088505801
0.46891928 0.11795235 0.0088433865
0.46856734 0.11750048 0.0088361939
0.46887457 0.11646768 0.0083290646
0.46852195 0.11601496 0.008321858
0.46882725 0.11497957 0.0078146737
0.46847397 0.11452599 0.0078074536
0.46812069 0.11407241 0.0078002336
0.46842328 0.11303366 0.0072930101
0.46806934 0.11257923 0.0072857761
0.46836996 0.11153792 0.0067785257
0.46801534 0.11108264 0.0067712786
0.46766075 0.11062737 0.0067640315
0.46795869 0.10958266 0.0062567131
0.46760345 0.10912652 0.006249452
0.46724817 0.10867039 0.0062421914
0.46754348 0.10762227 0.0057348255
0.46718755 0.1071653 0.0057275514
0.4674809 0.10611459 0.0052201231
0.46712431 0.10565676 0.005212835
0.4979822 0.14562561 0.0053074532
0.49692032 0.14568891 0.0058001783
0.4958598 0.14575388 0.0062929015
0.4948006 0.14582056 0.0067856517
0.49444601 0.14536527 0.0067784046
0.49338877 0.1454345 0.0072711953
0.49303484 0.14498007 0.0072639617
0.49197963 0.14505185 0.0077567929
0.49162635 0.14459828 0.0077495729
0.49127308 0.1441447 0.0077423528
0.49022046 0.14421992 0.0082352608
0.48986787 0.14376719 0.0082280543
0.48951524 0.14331447 0.0082208477
0.48846531 0.14339305 0.0087137939
0.48811337 0.14294118 0.0087066013
0.48776144 0.1424893 0.0086994078
0.48740947 0.14203744 0.0086922152
0.48705754 0.14158556 0.0086850217
0.48670557 0.14113368 0.0086778291
0.48635364 0.1406818 0.0086706355
0.4860017 0.14022994 0.0086634429
0.48564973 0.13977806 0.0086562503
0.4852978 0.13932618 0.0086490568
0.48494583 0.13887431 0.0086418642
0.4845939 0.13842244 0.0086346706
0.4835526 0.13851209 0.0091277799
0.4832013 0.13806106 0.0091206003
0.48285002 0.13761005 0.0091134207
0.48249874 0.13715902 0.0091062412
0.48214746 0.13670799 0.0090990616
0.48179618 0.13625698 0.009091882
0.4814449 0.13580595 0.0090847025
0.48109359 0.13535492 0.0090775238
0.48074231 0.13490391 0.0090703443
0.48039103 0.13445288 0.0090631647
0.48003975 0.13400187 0.0090559851
0.47968847 0.13355084 0.0090488056
0.47830513 0.13320138 0.0095349317
0.47795454 0.13275121 0.0095277652
0.47760391 0.13230103 0.0095205996
0.47725329 0.13185085 0.009513434
0.47690266 0.13140069 0.0095062675
0.47655204 0.13095051 0.0094991019
0.47620142 0.13050035 0.0094919354
0.47585079 0.13005017 0.0094847698
0.47550017 0.1296 0.0094776042
0.47514954 0.12914982 0.0094704377
0.47547305 0.12813856 0.0089626517
0.47512177 0.12768753 0.0089554721
0.47544324 0.12667371 0.0084476518
0.47509131 0.12622184 0.0084404591
0.47473937 0.12576996 0.0084332656
0.47438741 0.1253181 0.008426073
0.47403547 0.12486622 0.0084188795
0.47368351 0.12441434 0.0084116869
0.47333157 0.12396246 0.0084044933
0.47297964 0.12351059 0.0083973007
0.47262767 0.12305871 0.0083901072
0.47227573 0.12260684 0.0083829146
0.47192377 0.12215497 0.0083757211
0.47157183 0.1217031 0.0083685284
0.4712199 0.12125122 0.0083613349
0.47086793 0.12079935 0.0083541423
0.470516 0.12034747 0.0083469488
0.47016403 0.1198956 0.0083397562
0.4698121 0.11944372 0.0083325636
0.46946016 0.11899185 0.00832537
0.46910819 0.11853997 0.0083181774
0.46875626 0.1180881 0.0083109839
0.46906385 0.11705641 0.0078028655
0.46871123 0.11660369 0.0077956589
0.46835861 0.11615096 0.0077884523
0.4686636 0.11511583 0.0072802645
0.46831033 0.11466225 0.0072730444
0.46861327 0.1136246 0.006764838
0.46825933 0.11317018 0.006757604
0.46790537 0.11271574 0.0067503704
0.46820569 0.1116747 0.0062421099
0.46785107 0.11121941 0.0062348628
0.46814939 0.1101758 0.0057265614
0.46779412 0.10971968 0.0057193004
0.46743885 0.10926355 0.0057120398
0.46773452 0.10821653 0.0052036843
0.46737859 0.10775956 0.0051964102
0.49675545 0.14582619 0.0052617625
0.49569523 0.14589091 0.0057554822
0.49463633 0.14595732 0.0062492425
0.49428174 0.14550205 0.0062419954
0.49322483 0.14557101 0.0067357826
0.4928709 0.14511658 0.006728549
0.49181598 0.14518811 0.0072223907
0.49146271 0.14473453 0.0072151707
0.49110943 0.14428096 0.0072079506
0.49005711 0.14435592 0.0077018547
0.48970452 0.1439032 0.0076946481
0.4893519 0.14345047 0.0076874415
0.48899928 0.14299774 0.0076802345
0.48864669 0.14254501 0.0076730279
0.48759839 0.14262505 0.0081670051
0.48724645 0.14217319 0.0081598125
0.48689449 0.14172131 0.008152619
0.48654255 0.14126943 0.0081454264
0.48619059 0.14081755 0.0081382329
0.48583865 0.14036569 0.0081310403
0.48548672 0.13991381 0.0081238467
0.48513475 0.13946193 0.0081166541
0.48478281 0.13901006 0.0081094606
0.48443085 0.13855818 0.008102268
0.48407891 0.13810632 0.0080950754
0.48372698 0.13765444 0.0080878818
0.48268729 0.13774553 0.0085820211
0.48233601 0.13729452 0.0085748415
0.48198473 0.13684349 0.008567662
0.48163342 0.13639247 0.0085604833
0.48128214 0.13594145 0.0085533038
0.48093086 0.13549042 0.0085461242
0.48057958 0.1350394 0.0085389446
0.4802283 0.13458838 0.0085317651
0.47987702 0.13413735 0.0085245855
0.47952572 0.13368633 0.0085174059
0.47917444 0.13323531 0.0085102264
0.47882316 0.13278428 0.0085030468
0.47847188 0.13233326 0.0084958673
0.4781206 0.13188224 0.0084886877
0.47776932 0.13143121 0.0084815081
0.47741801 0.13098019 0.0084743286
0.47706673 0.13052917 0.0084671499
0.47671545 0.13007814 0.0084599704
0.47636417 0.12962712 0.0084527908
0.47601289 0.1291761 0.0084456112
0.47566161 0.12872507 0.0084384317
0.4753103 0.12827405 0.0084312521
0.47563216 0.12726133 0.0079224417
0.47528023 0.12680946 0.0079152491
0.47492826 0.12635759 0.0079080556
0.47457632 0.12590571 0.007900863
0.47422439 0.12545383 0.0078936694
0.47387242 0.12500197 0.0078864768
0.47352049 0.12455009 0.0078792842
0.47316852 0.12409821 0.0078720907
0.47281659 0.12364634 0.0078648981
0.47246465 0.12319446 0.0078577045
0.47211269 0.12274259 0.0078505119
0.47176075 0.12229072 0.0078433184
0.47140878 0.12183885 0.0078361258
0.47105685 0.12138697 0.0078289323
0.47070491 0.1209351 0.0078217397
0.47035295 0.12048322 0.0078145461
0.47000101 0.12003134 0.0078073535
0.46964905 0.11957947 0.0078001604
0.46929711 0.1191276 0.0077929674
0.46894518 0.11867572 0.0077857743
0.46925309 0.11764514 0.0072766659
0.4689005 0.11719241 0.0072694593
0.46854788 0.11673969 0.0072622527
0.46819526 0.11628696 0.0072550462
0.46849993 0.11525209 0.0067458618
0.46814665 0.11479851 0.0067386418
0.46844929 0.11376111 0.0062294253
0.46809536 0.11330669 0.0062221913
0.46774143 0.11285226 0.0062149577
0.46804142 0.11181146 0.0057057007
0.4676868 0.11135618 0.0056984536
0.4679848 0.11031283 0.0051891422
0.46762955 0.1098567 0.0051818811
0.49553066 0.14602792 0.0052180695
0.49447206 0.1460941 0.0057128267
0.49411747 0.14563881 0.0057055792
0.49306086 0.14570753 0.0062003769
0.49270692 0.14525311 0.0061931433
0.49165231 0.14532436 0.0066879811
0.49129906 0.14487079 0.006680761
0.49094579 0.14441721 0.0066735409
0.49059251 0.14396363 0.0066663208
0.49023923 0.14351006 0.0066591008
0.48918855 0.14358647 0.0071540354
0.48883593 0.14313374 0.0071468288
0.48848334 0.14268102 0.0071396222
0.48813072 0.14222831 0.0071324157
0.4877781 0.14177558 0.0071252091
0.48673147 0.14185706 0.0076202163
0.4863795 0.14140518 0.0076130233
0.48602757 0.1409533 0.0076058302
0.4856756 0.14050142 0.0075986371
0.48532367 0.14004956 0.0075914445
0.4849717 0.13959768 0.0075842515
0.48461977 0.13914581 0.0075770584
0.48426783 0.13869393 0.0075698653
0.48391587 0.13824207 0.0075626723
0.48356393 0.13779019 0.0075554792
0.48321196 0.13733831 0.0075482861
0.48286003 0.13688643 0.007541093
0.48182198 0.13697898 0.0080362633
0.4814707 0.13652796 0.0080290837
0.48111942 0.13607694 0.0080219042
0.48076814 0.13562591 0.0080147246
0.48041686 0.13517489 0.008007545
0.48006555 0.13472387 0.0080003655
0.47971427 0.13427284 0.0079931859
0.47936299 0.13382182 0.0079860063
0.47901171 0.1333708 0.0079788268
0.47866043 0.13291977 0.0079716472
0.47830915 0.13246875 0.0079644676
0.47795784 0.13201773 0.0079572881
0.47760656 0.1315667 0.0079501094
0.47725528 0.13111567 0.0079429299
0.476904 0.13066466 0.0079357503
0.47655272 0.13021363 0.0079285707
0.47620144 0.1297626 0.0079213912
0.47585014 0.12931159 0.0079142116
0.47549886 0.12886056 0.007907032
0.47582108 0.12784895 0.0073972321
0.47546914 0.12739708 0.007390039
0.47511718 0.12694521 0.007382846
0.47476524 0.12649333 0.0073756529
0.47441328 0.12604146 0.0073684603
0.47406134 0.12558958 0.0073612672
0.4737094 0.12513772 0.0073540742
0.47335744 0.12468583 0.0073468811
0.4730055 0.12423396 0.007339688
0.47265354 0.12378208 0.0073324949
0.4723016 0.12333021 0.0073253019
0.47194967 0.12287834 0.0073181088
0.4715977 0.12242647 0.0073109157
0.47124577 0.12197459 0.0073037227
0.4708938 0.12152272 0.0072965296
0.47054186 0.12107084 0.0072893365
0.47018993 0.12061897 0.0072821435
0.46983796 0.12016709 0.0072749504
0.46948603 0.11971522 0.0072677573
0.46913406 0.11926334 0.0072605647
0.46944237 0.11823387 0.0067504663
0.46908975 0.11778114 0.0067432597
0.46873716 0.11732841 0.0067360532
0.46838453 0.11687569 0.0067288466
0.46868956 0.11584192 0.0062186727
0.46833628 0.11538834 0.0062114527
0.46798301 0.11493476 0.0062042326
0.46828535 0.11389763 0.0056940191
0.46793142 0.1134432 0.0056867856
0.46823174 0.11240351 0.0051765321
0.46787715 0.11194823 0.0051692845
0.49430779 0.14623086 0.0051764175
0.4939532 0.14577559 0.0051691704
0.49289691 0.14584404 0.0056649642
0.49254298 0.14538962 0.0056577306
0.49148867 0.14546064 0.0061535719
0.49113539 0.14500706 0.0061463518
0.49078211 0.14455348 0.0061391317
0.49042886 0.14409991 0.0061319117
0.49007559 0.14364633 0.0061246911
0.48972231 0.14319275 0.006117471
0.48867258 0.14326975 0.0066134296
0.48831999 0.14281702 0.0066062231
0.48796737 0.14236431 0.0065990165
0.48761478 0.14191158 0.0065918099
0.48726216 0.14145885 0.0065846033
0.48621646 0.14154093 0.0070806206
0.48586452 0.14108905 0.0070734276
0.48551258 0.14063717 0.0070662345
0.48516062 0.1401853 0.0070590414
0.48480868 0.13973343 0.0070518483
0.48445672 0.13928156 0.0070446553
0.48410478 0.13882968 0.0070374622
0.48375285 0.1383778 0.0070302691
0.48340088 0.13792594 0.0070230765
0.48304895 0.13747406 0.0070158835
0.48269698 0.13702218 0.0070086904
0.48234504 0.1365703 0.0070014973
0.48199311 0.13611844 0.0069943042
0.48164114 0.13566656 0.0069871112
0.48128921 0.13521469 0.0069799181
0.48093724 0.13476281 0.006972725
0.48058531 0.13431095 0.006965532
0.48023337 0.13385907 0.0069583389
0.47988141 0.13340719 0.0069511458
0.47952947 0.13295531 0.0069439528
0.4791775 0.13250345 0.0069367597
0.47882557 0.13205157 0.0069295666
0.47847363 0.13159969 0.0069223735
0.47812167 0.13114782 0.0069151809
0.47776973 0.13069594 0.0069079879
0.47741777 0.13024408 0.0069007948
0.47706583 0.1297922 0.0068936017
0.4767139 0.12934032 0.0068864087
0.47636193 0.12888844 0.0068792156
0.47600999 0.12843658 0.0068720225
0.47565803 0.1279847 0.0068648295
0.47530609 0.12753282 0.0068576364
0.47495416 0.12708095 0.0068504433
0.4752734 0.12606619 0.0063395794
0.47492078 0.12561347 0.0063323728
0.47456819 0.12516074 0.0063251662
0.47421557 0.12470802 0.0063179596
0.47386295 0.12425529 0.0063107531
0.47351035 0.12380257 0.0063035465
0.47315773 0.12334985 0.0062963399
0.47280511 0.12289712 0.0062891333
0.47245252 0.12244439 0.0062819263
0.4720999 0.12199167 0.0062747197
0.47174731 0.12153894 0.0062675131
0.47139469 0.12108622 0.0062603066
0.47104207 0.12063349 0.0062531
0.47068948 0.12018077 0.0062458934
0.47033685 0.11972804 0.0062386869
0.46998423 0.11927532 0.0062314803
0.46963164 0.1188226 0.0062242737
0.46927902 0.11836987 0.0062170671
0.4689264 0.11791714 0.0062098606
0.46857381 0.11746442 0.006202654
0.46887919 0.11643176 0.0056914836
0.46852592 0.11597818 0.0056842631
0.46882924 0.114943 0.0051730741
0.46847531 0.11448857 0.0051658405
0.46812138 0.11403415 0.0051586065
0.49273294 0.14598055 0.0051295515
0.49237901 0.14552613 0.0051223179
0.49202508 0.1450717 0.0051150839
0.49097174 0.14514332 0.0056119491
0.49061847 0.14468974 0.0056047291
0.49026519 0.14423616 0.005597509
0.48991191 0.14378259 0.0055902889
0.48955867 0.14332901 0.0055830688
0.48920539 0.14287543 0.0055758487
0.48885211 0.14242186 0.0055686287
0.48780403 0.14250031 0.0060656103
0.48745143 0.14204758 0.0060584038
0.48709881 0.14159486 0.0060511972
0.48674619 0.14114213 0.0060439906
0.4863936 0.1406894 0.006036784
0.48604098 0.14023668 0.0060295775
0.48568836 0.13978395 0.0060223709
0.48533577 0.13933122 0.0060151643
0.48498315 0.13887851 0.0060079573
0.48394173 0.13896543 0.0065050595
0.4835898 0.13851355 0.0064978665
0.48323786 0.13806169 0.0064906734
0.4828859 0.13760981 0.0064834803
0.48253396 0.13715793 0.0064762873
0.482182 0.13670605 0.0064690942
0.48183006 0.13625418 0.0064619016
0.48147812 0.13580231 0.0064547085
0.48112616 0.13535044 0.0064475155
0.48077422 0.13489856 0.0064403224
0.48042226 0.13444668 0.0064331293
0.48007032 0.13399482 0.0064259362
0.47971839 0.13354294 0.0064187432
0.47936642 0.13309106 0.0064115501
0.47901449 0.13263918 0.006404357
0.47866252 0.13218732 0.006397164
0.47831059 0.13173544 0.0063899709
0.47795865 0.13128357 0.0063827778
0.47760668 0.13083169 0.0063755848
0.47725475 0.13037983 0.0063683917
0.47690278 0.12992795 0.0063611986
0.47655085 0.12947607 0.006354006
0.47619891 0.12902419 0.0063468129
0.47584695 0.12857233 0.0063396199
0.47616789 0.12756038 0.0058277929
0.47581527 0.12710765 0.0058205863
0.47546268 0.12665492 0.0058133798
0.47511005 0.1262022 0.0058061732
0.47475743 0.12574947 0.0057989666
0.47440484 0.12529674 0.00579176
0.47405222 0.12484402 0.0057845535
0.4736996 0.1243913 0.0057773469
0.47334701 0.12393858 0.0057701403
0.47299439 0.12348585 0.0057629338
0.4726418 0.12303312 0.0057557272
0.47228917 0.12258039 0.0057485206
0.47193655 0.12212767 0.005741314
0.47158396 0.12167495 0.0057341075
0.47123134 0.12122222 0.0057269009
0.47087872 0.12076949 0.0057196943
0.47052613 0.12031677 0.0057124877
0.47017351 0.11986405 0.0057052807
0.46982089 0.11941132 0.0056980741
0.4694683 0.1189586 0.0056908675
0.46911567 0.11850587 0.005683661
0.46876305 0.11805315 0.0056764544
0.4690688 0.11702159 0.005164301
0.46871552 0.11656801 0.0051570809
0.48939499 0.14346527 0.0050486592
0.48904172 0.14301169 0.0050414391
0.48868847 0.14255811 0.005034219
0.48833519 0.14210454 0.0050269989
0.48728809 0.14218359 0.0055249976
0.48693547 0.14173086 0.005517791
0.48658285 0.14127813 0.0055105845
0.48623025 0.14082541 0.0055033779
0.48587763 0.14037268 0.0054961713
0.48552501 0.13991995 0.0054889647
0.48517242 0.13946722 0.0054817582
0.4848198 0.13901451 0.0054745516
0.48377872 0.13910118 0.0059726569
0.48342675 0.1386493 0.0059654638
0.48307481 0.13819742 0.0059582707
0.48272288 0.13774556 0.0059510777
0.48237091 0.13729368 0.0059438846
0.48201898 0.1368418 0.0059366915
0.48166701 0.13638993 0.0059294985
0.48131508 0.13593806 0.0059223054
0.48096314 0.13548619 0.0059151123
0.48061118 0.13503431 0.0059079193
0.48025924 0.13458243 0.0059007267
0.47990727 0.13413057 0.0058935336
0.47955534 0.13367869 0.0058863405
0.4792034 0.13322681 0.0058791474
0.47885144 0.13277493 0.0058719544
0.4784995 0.13232306 0.0058647613
0.47814754 0.13187119 0.0058575682
0.4777956 0.13141932 0.0058503752
0.47744364 0.13096744 0.0058431821
0.47776759 0.12996 0.0053304196
0.477415 0.12950727 0.0053232131
0.47706237 0.12905455 0.0053160065
0.47670975 0.12860183 0.0053087999
0.47635716 0.12814911 0.0053015933
0.47600454 0.12769638 0.0052943868
0.47565192 0.12724365 0.0052871802
0.47529933 0.12679093 0.0052799736
0.47494671 0.1263382 0.005272767
0.47459409 0.12588547 0.0052655605
0.4742415 0.12543274 0.0052583539
0.47388887 0.12498002 0.0052511473
0.47353625 0.12452731 0.0052439407
0.47318366 0.12407458 0.0052367342
0.47283104 0.12362185 0.0052295276
0.47247845 0.12316912 0.005222321
0.47212583 0.1227164 0.0052151144
0.47177321 0.12226368 0.0052079079
0.47142062 0.12181095 0.0052007013
0.47106799 0.12135822 0.0051934947
0.47071537 0.1209055 0.0051862882
0.47036278 0.12045278 0.0051790816
0.47001016 0.12000005 0.005171875
0.46965754 0.11954732 0.0051646684
0.46930495 0.1190946 0.0051574619
0.46895233 0.11864188 0.0051502553
0.48326373 0.13878505 0.0054330612
0.48291177 0.13833317 0.0054258681
0.48255983 0.13788129 0.005418675
0.48220789 0.13742943 0.005411482
0.48185593 0.13697755 0.0054042889
0.48150399 0.13652568 0.0053970958
0.48115203 0.1360738 0.0053899027
0.48080009 0.13562194 0.0053827097
0.48044813 0.13517006 0.0053755166
0.48009619 0.13471818 0.0053683235
0.47974426 0.1342663 0.0053611305
0.47939229 0.13381444 0.0053539374
0.47868839 0.13291068 0.0053395513
0.47833645 0.13245881 0.0053323586
0.47798452 0.13200694 0.0053251656
0.47763255 0.13155507 0.0053179725
0.47728062 0.13110319 0.0053107794
0.47911397 0.13400245 0.092725478
0.47944242 0.13506953 0.092742637
0.47808006 0.13713622 0.092157155
0.47925428 0.13770452 0.092475675
0.48042774 0.13827077 0.09279412
0.48075619 0.13933785 0.092811286
0.48192886 0.139901 0.093129717
0.48225698 0.14096704 0.093146861
0.4825851 0.1420331 0.093164004
0.48375636 0.1425921 0.093482345
0.48492709 0.14314903 0.093800679
0.48609716 0.14370389 0.094118975
0.48642433 0.14476685 0.094136067
0.48927715 0.14429627 0.095056571
0.49128664 0.14433166 0.095675886
0.49161223 0.14538945 0.095692903
0.47058907 0.11509497 0.090406924
0.47091848 0.11616516 0.090424135
0.47124788 0.11723533 0.090441346
0.47157729 0.11830553 0.090458557
0.47190669 0.11937571 0.090475768
0.4722361 0.12044589 0.090492979
0.47341546 0.12103185 0.090812825
0.47374457 0.122101 0.090830021
0.47407365 0.12317015 0.090847217
0.47440273 0.1242393 0.090864412
0.4747318 0.12530844 0.090881601
0.47506091 0.12637758 0.090898797
0.47538999 0.12744674 0.090915993
0.47571906 0.12851588 0.090933189
0.47604817 0.12958504 0.090950385
0.47637725 0.13065419 0.090967573
0.47670633 0.13172334 0.090984769
0.47703543 0.13279249 0.091001965
0.47736451 0.13386165 0.091019161
0.47938514 0.13393545 0.091641165
0.47971359 0.13500254 0.091658331
0.47835177 0.13706909 0.091070741
0.47952574 0.13763745 0.091390312
0.48069894 0.13820377 0.091709815
0.48102739 0.13927086 0.091726974
0.48219976 0.13983406 0.092046455
0.48252791 0.14090011 0.092063598
0.48285604 0.14196616 0.092080742
0.48402703 0.14252524 0.092400134
0.48519748 0.14308223 0.092719518
0.48636729 0.14363717 0.093038864
0.48669448 0.14470011 0.093055956
0.48954651 0.14422974 0.093979612
0.49155548 0.14426525 0.094601028
0.49188104 0.14532304 0.094618045
0.49136591 0.14689504 0.094332904
0.49253222 0.14743859 0.094652064
0.49285781 0.14849636 0.094669081
0.49402308 0.14903685 0.094988167
0.49434835 0.15009359 0.095005162
0.49719092 0.14959218 0.095928341
0.49751523 0.15064581 0.095945291
0.47262672 0.10778569 0.090448856
0.47295487 0.10885174 0.090466
0.47328299 0.10991778 0.090483144
0.47190672 0.11193561 0.089892678
0.4722355 0.11300372 0.089909859
0.47171265 0.11454982 0.08962325
0.47119045 0.11609796 0.089336671
0.47151986 0.11716814 0.089353882
0.47184926 0.11823834 0.089371093
0.47217867 0.11930851 0.089388303
0.47250807 0.1203787 0.089405514
0.47368717 0.12096472 0.089726411
0.47401628 0.12203387 0.089743607
0.47434536 0.12310302 0.089760803
0.47467443 0.12417217 0.089777999
0.47500354 0.12524131 0.089795195
0.47533262 0.12631047 0.089812383
0.4756617 0.12737961 0.089829579
0.4759908 0.12844877 0.089846775
0.47631988 0.12951791 0.089863971
0.47664896 0.13058707 0.089881167
0.47697806 0.13165621 0.089898363
0.47730714 0.13272537 0.089915551
