# .PCD v0.7 - Point Cloud Data file format
VERSION 0.7
FIELDS x y z
SIZE 4 4 4
TYPE F F F
COUNT 1 1 1
WIDTH 1355
HEIGHT 1
VIEWPOINT 0 0 0 1 0 0 0
POINTS 1355
DATA ascii
0.61974263 -0.079399638 0.091003172
0.62001026 -0.078530051 0.091017157
0.62027794 -0.077660456 0.091031142
0.62141562 -0.077150993 0.091416918
0.62168294 -0.076282442 0.091430888
0.62281966 -0.075776078 0.091816619
0.62395573 -0.075271785 0.092202321
0.62509125 -0.074769579 0.092587993
0.62622607 -0.074269421 0.092973627
0.62736022 -0.073771335 0.093359224
0.62849379 -0.07327532 0.093744785
0.62962669 -0.072781362 0.094130322
0.62989181 -0.071920045 0.094144173
0.63015693 -0.071058728 0.094158024
0.63128859 -0.070568927 0.094543509
0.63241959 -0.070081189 0.094928935
0.63268405 -0.069221936 0.094942756
0.6338141 -0.068737283 0.095328137
0.63494349 -0.068254702 0.095713489
0.63520736 -0.067397527 0.09572728
0.63547117 -0.066540338 0.095741063
0.6365993 -0.066061907 0.096126348
0.63772684 -0.065585546 0.096511602
0.63885367 -0.065111242 0.09689682
0.6399799 -0.064639002 0.097282
0.64024246 -0.063785963 0.097295724
0.64136773 -0.063316815 0.097680852
0.64249241 -0.062849768 0.098065965
0.64361638 -0.062384777 0.098451033
0.64473975 -0.061921839 0.098836064
0.64672387 -0.061849013 0.099592417
0.64698458 -0.061002173 0.099606037
0.64724523 -0.060155332 0.099619657
0.60238761 -0.1397415 0.089528605
0.60265499 -0.13887294 0.089542575
0.61451882 -0.14174432 0.094418727
0.61478204 -0.1408892 0.094432481
0.61504525 -0.14003408 0.094446227
0.6242193 -0.14208685 0.098199628
0.62447929 -0.14124207 0.098213211
0.62206799 -0.13951872 0.097104996
0.62232894 -0.13867085 0.097118631
0.62170011 -0.13752806 0.096758373
0.62285089 -0.13697511 0.0971459
0.62400103 -0.13642421 0.097533405
0.62426174 -0.13557738 0.097547024
0.62452239 -0.13473053 0.097560644
0.62567127 -0.13418379 0.097948082
0.62593162 -0.13333799 0.097961687
0.6235292 -0.13158569 0.096853942
0.62290323 -0.13043359 0.09649384
0.62227792 -0.12927942 0.096133761
0.6216532 -0.12812316 0.095773704
0.62102914 -0.12696487 0.095413692
0.62040573 -0.12580448 0.095053717
0.61889726 -0.12433366 0.094320089
0.6182754 -0.12316812 0.093960196
0.61676919 -0.12169008 0.093226686
0.61526424 -0.12020788 0.092493236
0.61464494 -0.11903407 0.092133477
0.61402631 -0.11785819 0.091773748
0.61340833 -0.11668023 0.091414057
0.61279094 -0.11550022 0.091054395
0.61217415 -0.11431811 0.090694755
0.61155808 -0.11313395 0.090335168
0.6109426 -0.11194773 0.089975603
0.61120999 -0.11107917 0.089989565
0.61059546 -0.10988985 0.089630067
0.61086315 -0.10902026 0.089644052
0.61024952 -0.10782782 0.089284569
0.6105175 -0.1069572 0.089298569
0.61078548 -0.10608657 0.089312576
0.61105347 -0.10521594 0.089326575
0.61132145 -0.10434532 0.089340575
0.61158943 -0.1034747 0.089354575
0.61185741 -0.10260408 0.089368582
0.61124641 -0.10140338 0.089009255
0.61151469 -0.10053172 0.08902327
0.61178303 -0.099660061 0.089037292
0.61205131 -0.098788403 0.089051306
0.61231959 -0.097916752 0.089065328
0.61258787 -0.097045094 0.089079343
0.61285621 -0.096173435 0.089093365
0.61312449 -0.095301777 0.089107379
0.61339277 -0.094430119 0.089121401
0.61366111 -0.09355846 0.089135416
0.61392939 -0.092686802 0.089149438
0.61419767 -0.091815151 0.089163452
0.61446595 -0.090943493 0.089177474
0.61473429 -0.090071835 0.089191489
0.61500257 -0.089200176 0.089205511
0.61527085 -0.088328518 0.089219525
0.61553919 -0.08745686 0.089233547
0.61580747 -0.086585209 0.089247562
0.61607575 -0.08571355 0.089261584
0.61634409 -0.084841892 0.089275606
0.61661237 -0.083970234 0.089289621
0.61688066 -0.083098575 0.089303643
0.61802095 -0.082579747 0.089690618
0.61828893 -0.081709124 0.089704618
0.61855692 -0.080838501 0.089718625
0.6188249 -0.079967879 0.089732625
0.61909288 -0.079097256 0.089746624
0.62023127 -0.078584641 0.090133533
0.62049896 -0.077715054 0.090147518
0.62076658 -0.076845467 0.090161502
0.62190372 -0.076336972 0.090548307
0.62217104 -0.075468414 0.090562277
0.62330717 -0.074963026 0.090949044
0.6244427 -0.074459702 0.091335781
0.62557757 -0.073958464 0.091722481
0.62671185 -0.073459275 0.092109159
0.62784541 -0.072962165 0.092495784
0.62897837 -0.072467104 0.092882387
0.62924379 -0.071604759 0.092896253
0.6303758 -0.071112804 0.093282804
0.63150722 -0.070622943 0.09366934
0.63263792 -0.070135131 0.094055817
0.63376802 -0.069649383 0.094442263
0.63403219 -0.068791166 0.094456062
0.63516134 -0.068308517 0.094842471
0.63542515 -0.067451343 0.094856255
0.63568902 -0.066594161 0.094870038
0.63681686 -0.066115662 0.095256373
0.63794416 -0.065639235 0.095642678
0.63907075 -0.065164864 0.096028954
0.64019668 -0.064692564 0.096415184
0.6404593 -0.063839518 0.096428901
0.64158428 -0.06337031 0.096815087
0.64270866 -0.062903196 0.09720125
0.64383239 -0.062438138 0.097587369
0.64495552 -0.061975136 0.097973451
0.64607793 -0.061514206 0.098359495
0.64719975 -0.06105534 0.098745517
0.64832097 -0.060598567 0.09913151
0.64944154 -0.060143843 0.099517465
0.6497016 -0.059299067 0.099531054
0.60260838 -0.13979603 0.088646032
0.60287571 -0.13892747 0.088660002
0.60403484 -0.13834654 0.089049034
0.60519326 -0.13776766 0.089438036
0.62417394 -0.14298466 0.097327627
0.62443399 -0.14213988 0.09734121
0.62469399 -0.14129512 0.0973548
0.62317365 -0.13986474 0.096618414
0.62343431 -0.13901791 0.096632034
0.62369496 -0.13817106 0.096645653
0.62484491 -0.13762014 0.097034208
0.6251052 -0.13677433 0.097047813
0.62536556 -0.13592851 0.097061418
0.62562591 -0.13508271 0.097075015
0.62588626 -0.1342369 0.09708862
0.62614661 -0.1333911 0.097102225
0.62463224 -0.13194108 0.096366152
0.62400627 -0.13079008 0.096004978
0.62338084 -0.12963702 0.095643841
0.62275612 -0.12848186 0.095282726
0.62213194 -0.12732466 0.094921634
0.62062281 -0.12585811 0.094185852
0.6200003 -0.12469573 0.093824856
0.61849326 -0.12322194 0.093089171
0.61698759 -0.12174403 0.09235356
0.61636764 -0.12057338 0.091992706
0.61574823 -0.11940064 0.09163186
0.61512953 -0.11822586 0.091271065
0.61451149 -0.11704901 0.090910308
0.61389405 -0.11587009 0.090549581
0.61327726 -0.1146891 0.090188883
0.61266106 -0.11350603 0.089828223
0.61204559 -0.1123209 0.089467593
0.6114307 -0.1111337 0.089106992
0.61169803 -0.11026515 0.089120962
0.6110841 -0.10907485 0.088760421
0.61135179 -0.10820527 0.088774405
0.61073875 -0.10701185 0.088413894
0.61100674 -0.10614123 0.088427901
0.61127472 -0.10527061 0.088441901
0.6115427 -0.10439999 0.088455901
0.61181068 -0.10352936 0.0884699
0.61207867 -0.10265874 0.088483907
0.6114679 -0.1014581 0.088123523
0.61173624 -0.10058644 0.088137545
0.61200452 -0.099714793 0.088151559
0.6122728 -0.098843127 0.088165581
0.61254114 -0.097971477 0.088179596
0.61280942 -0.097099818 0.088193618
0.6130777 -0.09622816 0.088207632
0.61334604 -0.095356502 0.088221654
0.61361432 -0.094484843 0.088235669
0.6138826 -0.093613185 0.088249691
0.61415088 -0.092741534 0.088263705
0.61441922 -0.091869876 0.088277727
0.6146875 -0.090998217 0.088291742
0.61495578 -0.090126559 0.088305764
0.61522412 -0.089254901 0.088319778
0.6154924 -0.08838325 0.0883338
0.61576068 -0.087511584 0.088347815
0.61602896 -0.086639933 0.088361837
0.6162973 -0.085768275 0.088375852
0.61656559 -0.084896617 0.088389874
0.61683387 -0.084024966 0.088403888
0.61710221 -0.0831533 0.08841791
0.61737049 -0.082281649 0.088431925
0.61851019 -0.081763789 0.088819943
0.61877817 -0.080893159 0.08883395
0.61904615 -0.080022544 0.08884795
0.61931413 -0.079151914 0.08886195
0.61958212 -0.078281298 0.088875957
0.62071991 -0.077769645 0.089263886
0.62098759 -0.076900065 0.089277871
0.62125528 -0.076030478 0.089291856
0.62239176 -0.075522944 0.089679703
0.62352765 -0.075017489 0.090067521
0.62466288 -0.074514106 0.090455309
0.62579757 -0.074012801 0.090843059
0.62693149 -0.073513545 0.09123078
0.62719756 -0.072649121 0.091244675
0.62833059 -0.07215298 0.091632344
0.62946296 -0.071658902 0.092019975
0.63059467 -0.07116688 0.092407577
0.63172585 -0.070676953 0.092795163
0.63285631 -0.070189081 0.09318269
0.63398612 -0.069703266 0.093570195
0.63425028 -0.068845049 0.093583994
0.6353792 -0.068362333 0.093971446
0.63564301 -0.067505158 0.093985237
0.6367709 -0.067025557 0.094372638
0.63703448 -0.066169411 0.094386406
0.63816148 -0.065692924 0.094773769
0.63928783 -0.065218486 0.095161088
0.64041346 -0.064746119 0.095548369
0.64067608 -0.063893072 0.095562093
0.64180082 -0.063423805 0.095949315
0.64292496 -0.062956624 0.096336529
0.64404839 -0.062491503 0.096723698
0.64517123 -0.062028434 0.09711083
0.6462934 -0.061567441 0.097497933
0.64741498 -0.061108511 0.097885005
0.64853597 -0.060651671 0.098272048
0.64965624 -0.06019688 0.098659053
0.65163547 -0.060136214 0.099419408
0.65189487 -0.059293505 0.09943296
0.62208557 -0.14415212 0.095689803
0.62234622 -0.14330529 0.095703423
0.62438864 -0.14303771 0.096469209
0.62464869 -0.14219293 0.096482798
0.62312818 -0.14076476 0.095744275
0.62338883 -0.13991793 0.095757894
0.62453914 -0.13936485 0.096147545
0.62479949 -0.13851905 0.096161142
0.62594879 -0.13796906 0.096550725
0.62620884 -0.13712429 0.096564308
0.62646884 -0.13627951 0.096577898
0.62672883 -0.13543475 0.09659148
0.6261012 -0.13429001 0.096229158
0.62636155 -0.1334442 0.096242763
0.62484771 -0.13199432 0.095504589
0.62510872 -0.13114645 0.095518231
0.62448329 -0.12999447 0.095156014
0.62385851 -0.12884043 0.094793841
0.62234849 -0.12737814 0.094055869
0.62172532 -0.12621893 0.093693785
0.62021762 -0.12474942 0.092955939
0.61959594 -0.12358502 0.092593916
0.61809045 -0.12210827 0.091856182
0.61747044 -0.12093873 0.091494255
0.61685103 -0.11976711 0.091132373
0.61623222 -0.11859341 0.09077049
0.61561412 -0.11741766 0.09040866
0.61499667 -0.11623983 0.090046868
0.61437982 -0.11505994 0.089685112
0.61376363 -0.11387798 0.089323379
0.61314797 -0.11269394 0.088961676
0.61253309 -0.11150785 0.08860001
0.61191875 -0.11031968 0.088238381
0.61218613 -0.10945113 0.088252351
0.6115728 -0.10825986 0.087890781
0.61184043 -0.10739028 0.087904766
0.61122799 -0.10619589 0.087543212
0.61149597 -0.10532527 0.087557219
0.61176395 -0.10445464 0.087571219
0.61203194 -0.10358402 0.087585218
0.61229992 -0.1027134 0.087599225
0.61168945 -0.10151283 0.087237798
0.61195773 -0.10064117 0.087251812
0.61222607 -0.099769518 0.087265834
0.61249435 -0.098897859 0.087279849
0.61276263 -0.098026201 0.087293871
0.61303091 -0.097154543 0.087307885
0.61329925 -0.096282884 0.087321907
0.61356753 -0.095411226 0.087335922
0.61383581 -0.094539575 0.087349944
0.61410415 -0.093667917 0.087363958
0.61437243 -0.092796259 0.08737798
0.61464071 -0.0919246 0.087391995
0.61490905 -0.091052942 0.087406017
0.61517733 -0.090181291 0.087420031
0.61544561 -0.089309625 0.087434053
0.61571389 -0.088437974 0.087448068
0.61598223 -0.087566316 0.08746209
0.61625051 -0.086694658 0.087476104
0.6165188 -0.085822999 0.087490126
0.61678714 -0.084951341 0.087504141
0.61705542 -0.08407969 0.087518163
0.6173237 -0.083208032 0.087532178
0.61759198 -0.082336374 0.0875462
0.61786032 -0.081464715 0.087560214
0.6181286 -0.080593057 0.087574236
0.61839688 -0.079721406 0.087588251
0.61953539 -0.079206578 0.087977268
0.61980337 -0.078335956 0.087991267
0.62094092 -0.077824242 0.088380255
0.62120861 -0.076954655 0.088394247
0.62147623 -0.076085076 0.088408232
0.62261248 -0.075577475 0.088797122
0.62374812 -0.075071961 0.089185983
0.62488312 -0.074568503 0.089574821
0.62601751 -0.074067138 0.08996363
0.62715119 -0.073567815 0.090352401
0.62741727 -0.072703399 0.090366304
0.62854999 -0.07220719 0.090755023
0.62968212 -0.071713038 0.091143705
0.6308136 -0.071220957 0.091532357
0.63194448 -0.070730962 0.091920994
0.6330747 -0.070243031 0.092309564
0.63420427 -0.069757149 0.09269812
0.63446844 -0.068898931 0.092711918
0.63559705 -0.068416156 0.093100429
0.63586086 -0.067558974 0.093114212
0.63698852 -0.067079313 0.093502663
0.63811558 -0.066601723 0.093891092
0.6383788 -0.065746613 0.093904845
0.63950485 -0.065272108 0.094293214
0.6406303 -0.064799681 0.094681554
0.6417551 -0.064329311 0.095069848
0.6420173 -0.063477293 0.09508355
0.64314121 -0.063010052 0.095471822
0.6442644 -0.062544867 0.095860034
0.64538699 -0.062081732 0.096248217
0.64650893 -0.061620671 0.09663637
0.64763021 -0.061161678 0.097024485
0.6487509 -0.060704775 0.097412586
0.64987093 -0.060249921 0.097800635
0.65184969 -0.060189124 0.098563097
0.65296817 -0.059739448 0.098951079
0.65322721 -0.058897778 0.098964609
0.62319207 -0.14449279 0.095206462
0.62345243 -0.14364699 0.095220067
0.62371272 -0.14280118 0.095233671
0.62486339 -0.14224596 0.095624387
0.62512338 -0.14140119 0.095637977
0.62538344 -0.14055642 0.09565156
0.62564343 -0.13971165 0.095665149
0.62679249 -0.1391616 0.096055783
0.62705219 -0.13831785 0.096069351
0.62731189 -0.13747412 0.096082918
0.62757158 -0.13663039 0.096096486
0.62783128 -0.13578664 0.096110061
0.62720358 -0.134643 0.095746659
0.62746358 -0.13379823 0.095760249
0.62683684 -0.13265149 0.095396899
0.62621063 -0.13150267 0.095033579
0.6255852 -0.1303518 0.094670303
0.6249603 -0.12919886 0.094307058
0.62345058 -0.12773775 0.093566984
0.62282729 -0.12657963 0.093203805
0.62131977 -0.12511128 0.092463851
0.6198135 -0.12363878 0.091723949
0.61919278 -0.12247239 0.091360912
0.61857271 -0.12130394 0.090997919
0.6179533 -0.12013342 0.090634957
0.61733449 -0.11896084 0.090272032
0.61671627 -0.11778617 0.089909121
0.6160987 -0.11660944 0.089546256
0.61548185 -0.11543065 0.089183427
0.61486554 -0.11424979 0.088820636
0.61424994 -0.11306687 0.088457868
0.61363488 -0.11188185 0.088095129
0.61302054 -0.11069479 0.087732434
0.61240685 -0.10950566 0.08736977
0.61179376 -0.10831446 0.08700715
0.61206144 -0.10744487 0.087021135
0.61232913 -0.10657528 0.08703512
0.61259675 -0.10570569 0.087049104
0.61198521 -0.10450931 0.086686544
0.61225319 -0.10363869 0.086700544
0.61252117 -0.10276806 0.086714551
0.611911 -0.10156755 0.086352065
0.61217928 -0.1006959 0.086366087
0.61244756 -0.099824242 0.086380102
0.61271584 -0.098952584 0.086394124
0.61298418 -0.098080926 0.086408138
0.61325246 -0.097209267 0.08642216
0.61352074 -0.096337616 0.086436175
0.61378908 -0.095465958 0.086450197
0.61405736 -0.0945943 0.086464211
0.61432564 -0.093722641 0.086478233
0.61459392 -0.092850983 0.086492248
0.61486226 -0.091979332 0.08650627
0.61513054 -0.091107666 0.086520284
0.61539882 -0.090236016 0.086534306
0.61566716 -0.089364357 0.086548321
0.61593544 -0.088492699 0.086562343
0.61620373 -0.087621041 0.086576357
0.61647207 -0.086749382 0.086590379
0.61674035 -0.085877731 0.086604394
0.61700863 -0.085006073 0.086618416
0.61727691 -0.084134415 0.086632431
0.61754525 -0.083262756 0.086646453
0.61781353 -0.082391098 0.086660467
0.61808181 -0.08151944 0.086674489
0.61835015 -0.080647781 0.086688504
0.61861843 -0.079776131 0.086702526
0.61975664 -0.079261236 0.087092593
0.62002462 -0.078390621 0.087106593
0.62116194 -0.07787884 0.087496631
0.62142956 -0.077009253 0.087510616
0.62169725 -0.076139666 0.0875246
0.62283325 -0.075632006 0.087914541
0.6239686 -0.075126424 0.08830446
0.62510329 -0.074622907 0.088694341
0.62623745 -0.074121475 0.089084208
0.62650383 -0.073256023 0.089098126
0.62763697 -0.072757669 0.089487925
0.6287694 -0.072261393 0.089877695
0.62990129 -0.071767181 0.090267427
0.63103247 -0.071275033 0.09065713
0.63216311 -0.070784979 0.091046818
0.63329303 -0.070296973 0.091436446
0.63442236 -0.069811031 0.091826051
0.63468653 -0.068952814 0.09183985
0.63581485 -0.068469971 0.092229404
0.63607872 -0.067612797 0.092243187
0.63720608 -0.067133062 0.092632696
0.6383329 -0.066655405 0.093022175
0.63859612 -0.065800294 0.093035921
0.63972193 -0.06532573 0.093425348
0.64084709 -0.064853236 0.093814731
0.64197159 -0.064382799 0.094204083
0.64309555 -0.063914455 0.094593413
0.6442188 -0.063448168 0.094982706
0.64534146 -0.062983938 0.095371954
0.64646339 -0.062521778 0.095761172
0.64758474 -0.062061686 0.096150361
0.64870554 -0.061603688 0.09653952
0.64982557 -0.061147735 0.096928641
0.65094501 -0.060693845 0.097317733
0.65206385 -0.060242031 0.097706787
0.65318203 -0.059792291 0.098095819
0.65515804 -0.059738602 0.098860256
0.65541643 -0.058899 0.098873757
0.62429798 -0.14483333 0.094725214
0.62455803 -0.14398855 0.094738804
0.62570834 -0.14343327 0.09513057
0.62685812 -0.14288005 0.095522307
0.62711746 -0.14203735 0.095535859
0.62737685 -0.14119464 0.095549412
0.62763625 -0.14035194 0.095562965
0.62789565 -0.13950923 0.095576517
0.62904352 -0.13896224 0.095968157
0.62930256 -0.13812056 0.095981687
0.62956166 -0.1372789 0.095995225
0.62893319 -0.13613841 0.095630728
0.62919259 -0.1352957 0.09564428
0.62856513 -0.13415213 0.095279835
0.62793833 -0.1330065 0.09491542
0.62731212 -0.1318588 0.094551034
0.62668651 -0.13070901 0.094186686
0.62606162 -0.12955716 0.093822375
0.62543738 -0.12840325 0.093458086
0.62392879 -0.12694021 0.092715949
0.62242144 -0.12547301 0.091973864
0.62091541 -0.12400168 0.091231845
0.61941063 -0.12252621 0.090489894
0.61879081 -0.12135782 0.090125851
0.61817163 -0.12018737 0.089761831
0.61755311 -0.11901485 0.089397863
0.61693513 -0.11784025 0.089033894
0.61631787 -0.11666358 0.088669986
0.61570126 -0.11548486 0.088306107
0.61508524 -0.11430407 0.087942265
0.61446989 -0.1131212 0.087578446
0.61385512 -0.11193626 0.087214656
0.61324102 -0.11074926 0.086850904
0.61262757 -0.10956019 0.086487196
0.61201477 -0.10836906 0.086123519
0.61228245 -0.10749947 0.086137503
0.61255008 -0.10662988 0.086151488
0.61281776 -0.10576029 0.086165473
0.61220646 -0.10456397 0.085801862
0.61247444 -0.10369334 0.085815862
0.61274242 -0.10282272 0.085829861
0.61213249 -0.10162228 0.085466333
0.61240077 -0.10075063 0.085480347
0.61266911 -0.099878967 0.085494369
0.61293739 -0.099007308 0.085508384
0.61320567 -0.098135658 0.085522406
0.61347401 -0.097263999 0.08553642
0.61374229 -0.096392341 0.085550442
0.61401057 -0.095520683 0.085564457
0.61427885 -0.094649024 0.085578479
0.61454719 -0.093777366 0.085592493
0.61481547 -0.092905708 0.085606515
0.61508375 -0.092034057 0.08562053
0.61535209 -0.091162398 0.085634552
0.61562037 -0.09029074 0.085648566
0.61588866 -0.089419082 0.085662588
0.616157 -0.088547423 0.085676603
0.61642528 -0.087675765 0.085690625
0.61669356 -0.086804114 0.08570464
0.61696184 -0.085932456 0.085718662
0.61723018 -0.085060798 0.085732676
0.61749846 -0.084189139 0.085746698
0.61776674 -0.083317481 0.085760713
0.61803508 -0.08244583 0.085774735
0.61830336 -0.081574164 0.085788749
0.61857164 -0.080702506 0.085802771
0.61883992 -0.079830855 0.085816786
0.61997789 -0.079315901 0.086207911
0.62024587 -0.078445278 0.086221911
0.62138295 -0.077933438 0.086612992
0.62165058 -0.077063851 0.086626977
0.62191826 -0.076194264 0.086640961
0.62305397 -0.075686537 0.087031968
0.62418908 -0.075180888 0.08742293
0.62532353 -0.074677311 0.087813869
0.62645739 -0.074175812 0.088204779
0.62672377 -0.07331036 0.088218696
0.62785661 -0.072811939 0.088609554
0.62898886 -0.072315603 0.089000374
0.63012046 -0.071821325 0.089391157
0.63125139 -0.071329109 0.08978191
0.63238174 -0.070838988 0.090172648
0.63351142 -0.070350923 0.09056332
0.63464046 -0.069864914 0.090953983
0.63576889 -0.069380976 0.091344595
0.63689661 -0.06889911 0.091735192
0.63716018 -0.068042956 0.09174896
0.63742369 -0.067186818 0.091762729
0.63855022 -0.066709094 0.092153251
0.63967609 -0.066233434 0.092543744
0.64080131 -0.065759838 0.092934191
0.64192587 -0.065288305 0.093324609
0.6430499 -0.064818867 0.093715012
0.6441732 -0.064351477 0.09410537
0.64529586 -0.063886151 0.094495684
0.64641792 -0.063422889 0.094885975
0.64753932 -0.062961698 0.095276222
0.64866012 -0.0625026 0.095666453
0.64978027 -0.062045541 0.09605664
0.65089977 -0.061590552 0.096446805
0.65201861 -0.061137643 0.096836917
0.65313685 -0.060686812 0.097227015
0.65339595 -0.059845138 0.097240552
0.65537143 -0.059791319 0.098007098
0.6564877 -0.059346668 0.098397076
0.65674585 -0.058508098 0.098410562
0.62451267 -0.14488636 0.093866803
0.62655348 -0.14461838 0.094638884
0.62681288 -0.14377567 0.094652437
0.62707227 -0.14293297 0.094665989
0.62733167 -0.14209026 0.094679542
0.6284802 -0.1415401 0.095072284
0.62962806 -0.14099199 0.09546499
0.62988681 -0.14015135 0.095478505
0.63014561 -0.13931072 0.095492028
0.63040435 -0.13847007 0.095505551
0.6306631 -0.13762943 0.095519066
0.63092184 -0.1367888 0.095532589
0.63029367 -0.1356484 0.095167041
0.63055277 -0.13480672 0.095180579
0.62992549 -0.13366321 0.094815068
0.62929899 -0.13251764 0.09444961
0.62867308 -0.13136999 0.094084173
0.62804776 -0.13022028 0.093718775
0.6265381 -0.12876251 0.092974439
0.62502974 -0.12730063 0.092230186
0.62352258 -0.1258346 0.09148597
0.62201679 -0.12436444 0.090741843
0.62051219 -0.12289014 0.089997776
0.6198923 -0.12172285 0.08963266
0.61839002 -0.12024131 0.088888712
0.61777174 -0.11906886 0.088523686
0.61715406 -0.11789432 0.088158675
0.61653703 -0.11671773 0.087793708
0.61592066 -0.11553907 0.087428778
0.61530495 -0.11435834 0.087063886
0.61468983 -0.11317554 0.086699016
0.6140753 -0.11199066 0.086334176
0.61346149 -0.11080372 0.085969381
0.61284834 -0.10961472 0.085604616
0.61311567 -0.10874617 0.085618585
0.61250341 -0.10755407 0.085253872
0.61277109 -0.10668448 0.085267857
0.61303878 -0.10581489 0.085281841
0.6133064 -0.10494529 0.085295826
0.61269569 -0.10374801 0.08493118
0.61296368 -0.10287739 0.08494518
0.61235404 -0.10167701 0.0845806
0.61262232 -0.10080535 0.084594622
0.6128906 -0.099933699 0.084608637
0.61315888 -0.09906204 0.084622659
0.61342722 -0.098190382 0.084636673
0.6136955 -0.097318724 0.084650695
0.61396378 -0.096447065 0.08466471
0.61423212 -0.095575407 0.084678732
0.6145004 -0.094703749 0.084692746
0.61476868 -0.09383209 0.084706768
0.61503702 -0.09296044 0.084720783
0.6153053 -0.092088781 0.084734805
0.61557359 -0.091217123 0.084748819
0.61584187 -0.090345465 0.084762841
0.61611021 -0.089473806 0.084776856
0.61637849 -0.088602155 0.084790878
0.61664677 -0.087730497 0.084804893
0.61691511 -0.086858839 0.084818915
0.61718339 -0.08598718 0.084832929
0.61745167 -0.085115522 0.084846951
0.61772001 -0.084243871 0.084860966
0.61798829 -0.083372205 0.084874988
0.61825657 -0.082500555 0.084889002
0.61852485 -0.081628896 0.084903024
0.61879319 -0.080757238 0.084917039
0.61906147 -0.07988558 0.084931061
0.62019914 -0.079370558 0.085323229
0.62046713 -0.078499943 0.085337229
0.62160391 -0.077988036 0.085729368
0.62187159 -0.077118449 0.085743353
0.62213928 -0.076248862 0.085757338
0.62327468 -0.075741068 0.086149387
0.62440956 -0.075235359 0.086541407
0.62554371 -0.074731708 0.086933389
0.62667733 -0.074230149 0.087325357
0.62694371 -0.07336469 0.087339275
0.62807631 -0.072866209 0.087731175
0.62920827 -0.072369806 0.088123046
0.63033956 -0.071875468 0.088514879
0.63147026 -0.071383186 0.088906683
0.63260037 -0.070893005 0.089298472
0.63372982 -0.070404872 0.089690201
0.63572288 -0.070291974 0.090459794
0.63685071 -0.069809005 0.090851448
0.63711423 -0.068952866 0.090865217
0.63737774 -0.068096712 0.090878986
0.63850433 -0.067617901 0.091270581
0.63963026 -0.067141131 0.091662131
0.63989311 -0.066287056 0.09167587
0.64101809 -0.0658134 0.092067376
0.64214242 -0.0653418 0.092458837
0.64326614 -0.064872295 0.09285029
0.64438921 -0.064404838 0.093241699
0.64551163 -0.063939445 0.093633063
0.64663339 -0.063476123 0.094024405
0.64775455 -0.063014865 0.094415709
0.64973491 -0.062943354 0.095184639
0.65085447 -0.062487271 0.095575862
0.65197337 -0.062033258 0.095967054
0.65309173 -0.061581325 0.096358217
0.65335077 -0.060739659 0.096371755
0.65446812 -0.060290806 0.096762858
0.65558475 -0.059844032 0.097153932
0.65670085 -0.059399318 0.097544968
0.65695894 -0.058560748 0.097558454
0.62765783 -0.14495963 0.094162881
0.62880671 -0.14440732 0.094556704
0.62906545 -0.14356668 0.094570227
0.6293242 -0.14272603 0.094583742
0.63047183 -0.14217786 0.094977491
0.63073027 -0.14133826 0.094990999
0.63098872 -0.14049865 0.095004499
0.6312471 -0.13965906 0.095017999
0.63150555 -0.13881946 0.095031507
0.63176399 -0.13797985 0.095045008
0.63202244 -0.13714024 0.095058508
0.63139421 -0.13600095 0.094691902
0.63165295 -0.13516031 0.094705418
0.63102573 -0.1340179 0.094338849
0.63039905 -0.1328734 0.093972318
0.62977308 -0.13172686 0.093605816
0.62914777 -0.13057825 0.093239352
0.62763828 -0.12912166 0.092492901
0.62613016 -0.12766093 0.091746517
0.62462324 -0.12619609 0.091000207
0.62311763 -0.12472707 0.090253949
0.62161326 -0.12325395 0.089507759
0.62011015 -0.12177666 0.088761635
0.61949122 -0.12060738 0.088395506
0.61799037 -0.11912287 0.087649517
0.61737293 -0.1179484 0.087283447
0.6167562 -0.11677187 0.086917438
0.61614007 -0.11559327 0.086551458
0.61552459 -0.11441261 0.086185507
0.61490977 -0.11322988 0.085819595
0.61429554 -0.11204506 0.085453704
0.61368197 -0.11085819 0.085087851
0.61306906 -0.10966925 0.084722042
0.61333638 -0.1088007 0.084736004
0.61272442 -0.10760866 0.084370248
0.61299211 -0.10673907 0.084384233
0.61325973 -0.10586949 0.084398217
0.61352742 -0.10499989 0.084412202
0.6137951 -0.10413031 0.084426187
0.61318499 -0.10293204 0.084060505
0.61257553 -0.10173173 0.083694868
0.61284381 -0.10086007 0.08370889
0.61311215 -0.099988423 0.083722904
0.61338043 -0.099116765 0.083736926
0.61364871 -0.098245107 0.083750941
0.61391705 -0.097373448 0.083764963
0.61418533 -0.09650179 0.083778985
0.61445361 -0.095630132 0.083792999
0.61472195 -0.094758481 0.083807021
0.61499023 -0.093886822 0.083821036
0.61525851 -0.093015164 0.083835058
0.6155268 -0.092143506 0.083849072
0.61579514 -0.091271847 0.083863094
0.61606342 -0.090400197 0.083877109
0.6163317 -0.089528531 0.083891131
0.61660004 -0.08865688 0.083905146
0.61686832 -0.087785222 0.083919168
0.6171366 -0.086913563 0.083933182
0.61740488 -0.086041912 0.083947204
0.61767322 -0.085170247 0.083961219
0.6179415 -0.084298596 0.083975241
0.61820978 -0.083426937 0.083989255
0.61847812 -0.082555279 0.084003277
0.6187464 -0.081683621 0.084017292
0.61901468 -0.080811962 0.084031314
0.61928302 -0.079940312 0.084045328
0.6204204 -0.079425223 0.084438555
0.62068838 -0.0785546 0.084452555
0.62182492 -0.078042634 0.084845737
0.6220926 -0.077173047 0.084859721
0.62236023 -0.07630346 0.084873706
0.62349546 -0.075795598 0.085266814
0.62462997 -0.075289823 0.085659876
0.62576395 -0.074786112 0.086052917
0.62689728 -0.074284486 0.086445928
0.62716365 -0.073419027 0.086459845
0.62829602 -0.072920486 0.086852804
0.62942767 -0.072424017 0.087245725
0.63055873 -0.071929611 0.087638609
0.63168919 -0.071437269 0.088031456
0.632819 -0.070947014 0.088424303
0.63394815 -0.070458822 0.088817075
0.63594073 -0.070345789 0.089588769
0.63706827 -0.069862761 0.089981481
0.63733178 -0.069006614 0.08999525
0.6375953 -0.068150468 0.090009019
0.63872164 -0.06767159 0.090401657
0.63984728 -0.067194752 0.090794265
0.64097232 -0.066720001 0.091186844
0.6420967 -0.066247307 0.09157937
0.64322048 -0.065776691 0.091971897
0.64434361 -0.065308146 0.092364363
0.64546609 -0.06484165 0.0927568
0.64658791 -0.064377226 0.093149208
0.64770907 -0.063914873 0.093541577
0.6488297 -0.063454613 0.093933925
0.65080917 -0.063383982 0.094704933
0.65192819 -0.06292887 0.095097192
0.65304655 -0.062475838 0.09548942
0.65416425 -0.062024854 0.095881619
0.654423 -0.06118422 0.095895134
0.65553975 -0.060736351 0.096287273
0.65665585 -0.060290538 0.096679375
0.65691394 -0.059451967 0.09669286
0.65888619 -0.059405144 0.097463503
0.65914363 -0.058568645 0.097476959
0.62787175 -0.14501247 0.093307622
0.62990993 -0.14474939 0.094083823
0.63016832 -0.14390978 0.094097331
0.63220459 -0.14365292 0.094873428
0.63246238 -0.14281538 0.094886899
0.63272017 -0.14197785 0.094900362
0.63297802 -0.14114031 0.094913833
0.63323581 -0.14030278 0.094927303
0.6334936 -0.13946524 0.094940774
0.63375139 -0.13862771 0.094954245
0.6331225 -0.13749157 0.094586529
0.63338059 -0.13665299 0.094600014
0.63275266 -0.13551375 0.094232358
0.63212538 -0.13437244 0.093864724
0.63149869 -0.13322908 0.093497127
0.63087261 -0.13208361 0.093129553
0.63024724 -0.1309361 0.092762023
0.62873799 -0.12948067 0.092013456
0.62723005 -0.12802111 0.091264948
0.62572336 -0.12655741 0.090516523
0.62421793 -0.12508957 0.089768142
0.6227138 -0.1236176 0.08901985
0.62121087 -0.1221415 0.088271603
0.61970931 -0.12066126 0.087523431
0.61909121 -0.11948997 0.087156281
0.61759186 -0.11800247 0.08640822
0.61697537 -0.11682601 0.08604116
0.61635953 -0.11564748 0.085674129
0.61574429 -0.11446688 0.085307129
0.61512971 -0.11328422 0.084940165
0.61451572 -0.11209946 0.084573224
0.61390245 -0.11091266 0.084206328
0.61328977 -0.10972378 0.083839461
0.61355716 -0.10885523 0.083853424
0.61294544 -0.10766326 0.083486617
0.61321306 -0.10679367 0.083500601
0.61348075 -0.10592408 0.083514586
0.61374843 -0.10505449 0.083528571
0.61401606 -0.1041849 0.083542556
0.61340624 -0.10298671 0.083175823
0.61279708 -0.10178646 0.082809143
0.61306536 -0.10091481 0.082823157
0.61333364 -0.10004315 0.082837179
0.61360198 -0.099171489 0.082851194
0.61387026 -0.098299831 0.082865216
0.61413854 -0.097428173 0.08287923
0.61440682 -0.096556522 0.082893252
0.61467516 -0.095684864 0.082907267
0.61494344 -0.094813205 0.082921289
0.61521173 -0.093941547 0.082935311
0.61548007 -0.093069889 0.082949325
0.61574835 -0.092198238 0.082963347
0.61601663 -0.091326572 0.082977362
0.61628497 -0.090454921 0.082991384
0.61655325 -0.089583263 0.083005399
0.61682153 -0.088711604 0.083019421
0.61708981 -0.087839946 0.083033435
0.61735815 -0.086968288 0.083047457
0.61762643 -0.086096637 0.083061472
0.61789471 -0.085224979 0.083075494
0.61816305 -0.08435332 0.083089508
0.61843133 -0.083481662 0.08310353
0.61869961 -0.082610004 0.083117545
0.61896789 -0.081738345 0.083131567
0.61923623 -0.080866687 0.083145581
0.61950451 -0.079995036 0.083159603
0.62064165 -0.079479881 0.083553873
0.62090963 -0.078609265 0.083567873
0.62204593 -0.078097224 0.083962113
0.62231356 -0.077227645 0.083976097
0.62258124 -0.076358058 0.083990082
0.62371618 -0.075850137 0.084384225
0.62485045 -0.075344294 0.084778354
0.62598413 -0.074840516 0.085172437
0.62711722 -0.074338824 0.085566506
0.62738359 -0.073473364 0.085580423
0.62851566 -0.072974756 0.085974425
0.62964714 -0.072478227 0.086368397
0.6307779 -0.071983755 0.086762331
0.63190806 -0.071491346 0.087156236
0.63303763 -0.071001023 0.087550126
0.63416654 -0.070512764 0.087943956
0.63615853 -0.070399612 0.088717751
0.63728583 -0.069916517 0.089111514
0.6375494 -0.06906037 0.089125283
0.63781291 -0.068204217 0.089139052
0.63893896 -0.067725278 0.089532748
0.64006436 -0.067248374 0.089926399
0.6411891 -0.066773556 0.090320028
0.64231324 -0.066300794 0.090713605
0.64343673 -0.065830119 0.091107182
0.64455962 -0.065361507 0.0915007
0.64654237 -0.065278344 0.092274003
0.64766365 -0.06481488 0.092667446
0.64878428 -0.064353526 0.093060859
0.64990431 -0.063894205 0.093454234
0.65188295 -0.06382449 0.094227329
0.65300137 -0.063370354 0.094620623
0.65411913 -0.062918276 0.095013887
0.65523624 -0.062468272 0.095407106
0.65549469 -0.061628666 0.095420606
0.65661085 -0.061181758 0.095813774
0.65772635 -0.060736913 0.096206918
0.65798414 -0.059899382 0.096220389
0.65909874 -0.059457663 0.096613489
0.66106915 -0.059414823 0.097386152
0.66132599 -0.058580384 0.097399577
0.63279122 -0.14566982 0.094377831
0.63304871 -0.14483331 0.094391286
0.63241744 -0.1437055 0.094022371
0.63267523 -0.14286797 0.094035842
0.63293302 -0.14203043 0.094049305
0.63319087 -0.14119288 0.094062775
0.63344866 -0.14035535 0.094076246
0.63459355 -0.1398143 0.094472006
0.63485104 -0.13897781 0.094485454
0.63510853 -0.1381413 0.09449891
0.63447982 -0.13700521 0.094130129
0.63385183 -0.13586707 0.093761399
0.63322449 -0.13472687 0.0933927
0.63259774 -0.13358459 0.093024038
0.63197166 -0.13244024 0.092655405
0.63134617 -0.13129382 0.092286803
0.62983716 -0.12983955 0.091536112
0.6283294 -0.12838115 0.090785481
0.62682289 -0.12691863 0.090034932
0.62531775 -0.12545195 0.089284457
0.62381375 -0.12398114 0.088534027
0.62231112 -0.12250621 0.087783679
0.62080967 -0.12102712 0.087033384
0.62019157 -0.11985692 0.086665168
0.61869246 -0.11837061 0.085915007
0.61719453 -0.11688016 0.08516489
0.61657894 -0.11570168 0.084796809
0.615964 -0.11452115 0.084428757
0.61534965 -0.11333854 0.084060743
0.61473596 -0.11215387 0.083692752
0.61412293 -0.11096712 0.083324797
0.61351055 -0.10977831 0.08295688
0.61377788 -0.10890976 0.082970843
0.61316639 -0.10771786 0.082602993
0.61343408 -0.10684827 0.082616977
0.61370176 -0.10597868 0.082630962
0.61396939 -0.10510909 0.082644947
0.61423707 -0.1042395 0.082658932
0.61362749 -0.10304137 0.082291141
0.61301857 -0.10184119 0.08192341
0.61328685 -0.10096953 0.081937432
0.61355519 -0.10009787 0.081951447
0.61382347 -0.099226214 0.081965469
0.61409175 -0.098354563 0.081979483
0.61436009 -0.097482905 0.081993505
0.61462837 -0.096611246 0.08200752
0.61489666 -0.095739588 0.082021542
0.615165 -0.09486793 0.082035556
0.61543328 -0.093996271 0.082049578
0.61570156 -0.093124613 0.082063593
0.61596984 -0.092252962 0.082077615
0.61623818 -0.091381304 0.08209163
0.61650646 -0.090509646 0.082105651
0.61677474 -0.089637987 0.082119673
0.61704308 -0.088766329 0.082133688
0.61731136 -0.087894671 0.08214771
0.61757964 -0.08702302 0.082161725
0.61784798 -0.086151361 0.082175747
0.61811626 -0.085279703 0.082189761
0.61838454 -0.084408045 0.082203783
0.61865282 -0.083536386 0.082217798
0.61892116 -0.082664736 0.08223182
0.61918944 -0.08179307 0.082245834
0.61945772 -0.080921412 0.082259856
0.61972606 -0.080049761 0.082273871
0.62086296 -0.079534546 0.082669191
0.62113094 -0.078663923 0.082683191
0.62226689 -0.078151822 0.083078481
0.62253457 -0.077282235 0.083092466
0.62280226 -0.076412648 0.083106451
0.62393689 -0.075904667 0.083501644
0.62507093 -0.075398758 0.083896823
0.62620437 -0.074894913 0.084291965
0.62733716 -0.074393161 0.084687077
0.62760353 -0.073527701 0.084700994
0.62873536 -0.073029026 0.085096054
0.62986654 -0.07253243 0.085491076
0.63099706 -0.072037891 0.085886061
0.63212699 -0.071545422 0.086281009
0.63325626 -0.07105504 0.086675957
0.63438493 -0.070566714 0.08707083
0.63637638 -0.070453428 0.087846734
0.63750345 -0.069970265 0.08824154
0.63776696 -0.069114119 0.088255309
0.63803047 -0.068257973 0.088269077
0.64001852 -0.068156078 0.089044794
0.64114332 -0.067680165 0.089439489
0.64226753 -0.067206301 0.089834131
0.64339107 -0.06673453 0.090228774
0.64451396 -0.066264816 0.090623371
0.64563626 -0.065797158 0.091017917
0.64761817 -0.065714896 0.091793314
0.64873892 -0.065252438 0.092187792
0.64985895 -0.064792022 0.092582233
0.65097833 -0.06433367 0.092976645
0.65295619 -0.064264871 0.093751833
0.65321529 -0.063423194 0.093765363
0.65433276 -0.062971056 0.094159678
0.65544963 -0.062520981 0.094553947
0.65570807 -0.061681379 0.094567448
0.65682393 -0.061234407 0.094961673
0.6579392 -0.060789499 0.095355861
0.65819699 -0.059951968 0.095369332
0.65931135 -0.059510183 0.09576349
0.66128123 -0.059467211 0.096538246
0.66153806 -0.058632772 0.096551664
0.63300377 -0.14572233 0.093527831
0.63503867 -0.14546624 0.094308116
0.63529551 -0.1446318 0.094321534
0.63288808 -0.14292054 0.093184784
0.63314593 -0.142083 0.093198247
0.63606608 -0.1421285 0.09436179
0.63809711 -0.1418848 0.095141873
0.63835335 -0.14105244 0.095155261
0.63683659 -0.13962521 0.094402052
0.63620728 -0.13849229 0.094032183
0.63646442 -0.13765682 0.094045624
0.63583606 -0.13652082 0.093675815
0.63520825 -0.13538273 0.093306005
0.63458115 -0.13424258 0.092936255
0.63307017 -0.13279673 0.092183344
0.63244462 -0.13165142 0.091813684
0.63093579 -0.13019831 0.091060869
0.62942827 -0.12874109 0.090308137
0.62792194 -0.1272797 0.089555457
0.62641698 -0.1258142 0.088802859
0.62491322 -0.12434455 0.088050306
0.62341076 -0.12287077 0.087297842
0.62190956 -0.12139285 0.08654543
0.62040967 -0.11991081 0.0857931
0.61891109 -0.11842462 0.085040838
0.61829472 -0.11724931 0.084671631
0.61767912 -0.11607195 0.084302478
0.61706412 -0.11489251 0.083933368
0.61644971 -0.11371101 0.083564281
0.61583602 -0.11252744 0.083195232
0.61522287 -0.11134177 0.082826205
0.61461043 -0.11015407 0.082457222
0.61399859 -0.10896429 0.082088269
0.61338741 -0.10777245 0.081719361
0.61365509 -0.10690286 0.081733346
0.61392272 -0.10603327 0.081747331
0.6141904 -0.10516369 0.081761315
0.61445808 -0.1042941 0.0817753
0.61384875 -0.10309603 0.081406467
0.61324012 -0.10189591 0.081037685
0.6135084 -0.10102426 0.0810517
0.61377668 -0.1001526 0.081065722
0.61404502 -0.099280939 0.081079736
0.6143133 -0.098409288 0.081093758
0.61458158 -0.097537629 0.081107773
0.61484987 -0.096665971 0.081121795
0.61511821 -0.095794313 0.081135809
0.61538649 -0.094922654 0.081149831
0.61565477 -0.094050996 0.081163846
0.61592311 -0.093179345 0.081177868
0.61619139 -0.092307687 0.081191882
0.61645967 -0.091436028 0.081205904
0.61672801 -0.09056437 0.081219919
0.61699629 -0.089692712 0.081233941
0.61726457 -0.088821061 0.081247956
0.61753285 -0.087949395 0.081261978
0.61780119 -0.087077744 0.081275992
0.61806947 -0.086206086 0.081290014
0.61833775 -0.085334428 0.081304036
0.61860609 -0.084462777 0.081318051
0.61887437 -0.083591111 0.081332073
0.61914265 -0.08271946 0.081346087
0.61941099 -0.081847802 0.081360109
0.61967927 -0.080976143 0.081374124
0.61994755 -0.080104485 0.081388146
0.62108421 -0.079589203 0.081784517
0.6213522 -0.078718588 0.081798516
0.6224879 -0.07820642 0.082194857
0.62275559 -0.077336833 0.082208842
0.62302321 -0.076467246 0.082222827
0.62415767 -0.075959198 0.082619071
0.62529141 -0.075453222 0.083015293
0.62642455 -0.074949317 0.083411485
0.6275571 -0.074447498 0.083807647
0.62782347 -0.073582038 0.083821572
0.62895507 -0.073083296 0.084217675
0.63008595 -0.072586641 0.084613748
0.63121623 -0.072092034 0.085009784
0.63234586 -0.071599498 0.085405789
0.63347489 -0.071109049 0.08580178
0.63460326 -0.070620663 0.086197719
0.63659424 -0.070507243 0.086975709
0.637721 -0.070024021 0.087371565
0.63798451 -0.069167875 0.087385334
0.63911039 -0.068687767 0.087781154
0.6402356 -0.0682097 0.088176928
0.6413601 -0.06773372 0.088572666
0.64248401 -0.067259796 0.088968366
0.64360738 -0.066787958 0.089364059
0.64472997 -0.066318177 0.0897597
0.64585197 -0.065850452 0.090155296
0.64783341 -0.065768063 0.090932801
0.64895386 -0.065305538 0.09132833
0.65007365 -0.064845055 0.091723822
0.65119278 -0.064386643 0.092119284
0.65317011 -0.064317718 0.092896573
0.65428764 -0.06386447 0.093291946
0.65540457 -0.0634133 0.093687288
0.65652084 -0.062964194 0.094082586
0.65677893 -0.062125627 0.094096072
0.65789425 -0.06167962 0.094491333
0.65900898 -0.061235704 0.094886579
0.65926647 -0.060399204 0.094900034
0.66038018 -0.059958372 0.095295198
0.66149324 -0.0595196 0.09569034
0.66175014 -0.058685165 0.095703766
0.63525075 -0.14551862 0.093460202
0.63550758 -0.1446842 0.093473621
0.62954974 -0.14180432 0.090795986
0.6306963 -0.14125589 0.091193944
0.63627809 -0.14218089 0.093513884
0.63830864 -0.14193706 0.094296068
0.63856488 -0.1411047 0.094309449
0.63704866 -0.13967758 0.093554139
0.6373055 -0.13884316 0.093567558
0.63756233 -0.13800873 0.093580984
0.63693392 -0.13687381 0.093210101
0.63630611 -0.13573684 0.092839256
0.63567889 -0.13459778 0.092468418
0.63505238 -0.13345666 0.09209764
0.63354254 -0.13200887 0.091342658
0.63291758 -0.13086259 0.090971954
0.63140994 -0.12940754 0.090217076
0.62902045 -0.12764065 0.089078076
0.62751567 -0.12617631 0.088323362
0.62601221 -0.12470784 0.087568715
0.62450993 -0.12323521 0.086814113
0.62212712 -0.1214466 0.085675463
0.62062776 -0.11996469 0.084921025
0.62001079 -0.11879256 0.084550738
0.61851364 -0.11730339 0.083796404
0.61789829 -0.11612609 0.083426207
0.61728352 -0.11494672 0.08305604
0.61666942 -0.11376528 0.08268591
0.61605597 -0.11258177 0.08231581
0.61544305 -0.11139618 0.081945732
0.61483091 -0.11020853 0.081575699
0.61421931 -0.10901882 0.081205688
0.61360842 -0.10782705 0.08083573
0.6138761 -0.10695746 0.080849715
0.61414373 -0.10608787 0.080863699
0.61441141 -0.10521828 0.080877692
0.61467904 -0.1043487 0.080891676
0.61407 -0.1031507 0.080521785
0.61346161 -0.10195064 0.080151945
0.61372995 -0.10107899 0.080165967
0.61399823 -0.10020733 0.080179982
0.61426651 -0.09933567 0.080194004
0.6145348 -0.098464012 0.080208018
0.61480314 -0.097592354 0.08022204
0.61507142 -0.096720695 0.080236055
0.6153397 -0.095849037 0.080250077
0.61560804 -0.094977386 0.080264091
0.61587632 -0.094105728 0.080278113
0.6161446 -0.09323407 0.080292128
0.61641294 -0.092362411 0.08030615
0.61668122 -0.091490753 0.080320165
0.6169495 -0.090619102 0.080334187
0.61721778 -0.089747444 0.080348201
0.61748612 -0.088875785 0.080362223
0.6177544 -0.088004127 0.080376238
0.61802268 -0.087132469 0.08039026
0.61829102 -0.086260818 0.080404274
0.6185593 -0.085389152 0.080418296
0.61882758 -0.084517501 0.080432311
0.61909586 -0.083645843 0.080446333
0.6193642 -0.082774185 0.080460355
0.61963248 -0.081902526 0.080474369
0.61990076 -0.081030868 0.080488391
0.6201691 -0.080159217 0.080502406
0.62130547 -0.079643868 0.080899835
0.62157345 -0.078773245 0.080913834
0.62270892 -0.078261018 0.081311226
0.62297654 -0.077391431 0.081325211
0.62324423 -0.076521844 0.081339195
0.62437838 -0.076013729 0.08173649
0.62551188 -0.075507693 0.08213377
0.62664473 -0.075003721 0.082531013
0.62777704 -0.074501835 0.082928225
0.62804347 -0.073636375 0.082942143
0.62917471 -0.073137574 0.083339304
0.63030535 -0.072640844 0.083736427
0.63143539 -0.072146177 0.084133513
0.63256472 -0.071653575 0.084530562
0.63369352 -0.071163066 0.084927604
0.63482165 -0.070674606 0.085324593
0.63681209 -0.070561066 0.086104691
0.63793862 -0.070077769 0.086501598
0.63820213 -0.069221623 0.086515367
0.6393277 -0.068741448 0.08691223
0.64045262 -0.068263322 0.087309062
0.64157695 -0.067787275 0.087705851
0.64270055 -0.067313291 0.088102601
0.64382362 -0.066841386 0.088499345
0.64580643 -0.066752665 0.089279033
0.64692783 -0.066285916 0.089675672
0.6489085 -0.066204451 0.090455264
0.65002829 -0.065742873 0.090851821
0.65114748 -0.065283358 0.091248356
0.65226603 -0.064825915 0.091644838
0.65424252 -0.064757884 0.092424221
0.65535951 -0.064305618 0.092820622
0.65647584 -0.063855417 0.093217
0.65759152 -0.063407272 0.093613334
0.65784931 -0.062569737 0.093626805
0.6589641 -0.062124725 0.094023116
0.66007817 -0.061681755 0.094419375
0.66033536 -0.060846291 0.094432808
0.66144848 -0.060406424 0.094829015
0.66170532 -0.059571993 0.094842434
0.66196215 -0.058737554 0.094855852
0.62950456 -0.14269882 0.089927189
0.63065118 -0.1421493 0.090326212
0.63800782 -0.14365406 0.093423493
0.638264 -0.14282168 0.093436874
0.63852018 -0.14198932 0.093450263
0.63789016 -0.14086069 0.093078241
0.63814664 -0.14002728 0.093091644
0.63840318 -0.13919389 0.093105048
0.63865972 -0.13836049 0.093118444
0.63803124 -0.13722669 0.092746496
0.63828808 -0.13639225 0.092759915
0.63766056 -0.13525534 0.092388019
0.63703364 -0.13411635 0.09201616
0.63552362 -0.13267075 0.091259018
0.6348983 -0.13152659 0.090887241
0.63339061 -0.13007376 0.090130232
0.63100129 -0.12830913 0.088988043
0.62949634 -0.12684697 0.088231184
0.62799275 -0.12538069 0.087474391
0.6256085 -0.12359952 0.086332478
0.62322628 -0.12181216 0.085190669
0.62260824 -0.12064421 0.084819257
0.62111002 -0.11916035 0.084062755
0.61961311 -0.11767237 0.08330632
0.61899763 -0.11649615 0.082935043
0.61750293 -0.11500092 0.082178719
0.61688912 -0.11381955 0.081807531
0.61627591 -0.11263611 0.081436381
0.61566329 -0.11145058 0.081065252
0.61505133 -0.110263 0.080694169
0.61531836 -0.10939548 0.080708124
0.61470741 -0.1082048 0.080337085
0.61409706 -0.10701206 0.079966091
0.61436474 -0.10614247 0.079980075
0.61463237 -0.10527287 0.07999406
0.61490005 -0.10440329 0.080008045
0.61429125 -0.10320535 0.079637103
0.61368316 -0.10200536 0.07926622
0.61395144 -0.10113371 0.079280235
0.61421973 -0.10026205 0.079294257
0.61448807 -0.099390395 0.079308271
0.61475635 -0.098518737 0.079322293
0.61502463 -0.097647078 0.079336308
0.61529297 -0.096775427 0.07935033
0.61556125 -0.095903769 0.079364344
0.61582953 -0.095032111 0.079378366
0.61609781 -0.094160452 0.079392381
0.61636615 -0.093288794 0.079406403
0.61663443 -0.092417143 0.079420418
0.61690271 -0.091545478 0.07943444
0.61717105 -0.090673827 0.079448454
0.61743933 -0.089802168 0.079462476
0.61770761 -0.08893051 0.079476491
0.61797595 -0.088058852 0.079490513
0.61824423 -0.087187193 0.079504527
0.61851251 -0.086315542 0.079518549
0.61878079 -0.085443884 0.079532564
0.61904913 -0.084572226 0.079546586
0.61931741 -0.083700567 0.0795606
0.61958569 -0.082828909 0.079574622
0.61985403 -0.081957251 0.079588637
0.62012231 -0.081085593 0.079602659
0.62039059 -0.080213942 0.079616673
0.62152672 -0.079698533 0.080015153
0.6217947 -0.07882791 0.080029152
0.62292993 -0.078315616 0.080427602
0.62319756 -0.077446029 0.080441587
0.62346524 -0.076576442 0.080455571
0.6245991 -0.07606826 0.080853917
0.62573236 -0.075562157 0.08125224
0.62686497 -0.075058125 0.081650533
0.62799698 -0.074556172 0.082048796
0.62826341 -0.073690712 0.082062714
0.62939441 -0.073191844 0.082460925
0.63052481 -0.072695054 0.082859099
0.63165456 -0.072200321 0.083257236
0.63278365 -0.071707651 0.08365535
0.63391215 -0.071217075 0.084053434
0.63503999 -0.070728555 0.084451474
0.63702995 -0.070614882 0.085233666
0.63815618 -0.070131525 0.085631624
0.63841969 -0.069275379 0.085645393
0.63954502 -0.068795137 0.086043313
0.6406697 -0.068316944 0.086441189
0.64265484 -0.068218797 0.087223135
0.64377797 -0.06774579 0.087620944
0.64490038 -0.067274846 0.0880187
0.64688236 -0.067187019 0.088800475
0.64800316 -0.066721238 0.08919815
0.64998299 -0.066640675 0.08997982
0.65110224 -0.066180065 0.09037742
0.65222085 -0.065721527 0.090774983
0.65333885 -0.065265074 0.091172516
0.65531445 -0.065197937 0.091953963
0.65643084 -0.064746626 0.092351399
0.65754658 -0.064297393 0.092748806
0.65866172 -0.063850246 0.093146205
0.65891922 -0.06301374 0.093159661
0.66003335 -0.062569678 0.093556978
0.66114688 -0.062127676 0.093954273
0.66140372 -0.061293244 0.093967691
0.66166055 -0.060458813 0.09398111
0.66191739 -0.059624381 0.093994528
0.66217422 -0.058789942 0.094007954
0.62971848 -0.14275168 0.089071929
0.6308648 -0.14220208 0.089472003
0.63821936 -0.14370632 0.092577688
0.63847554 -0.14287396 0.092591077
0.63873172 -0.14204158 0.092604466
0.63898796 -0.14120921 0.092617847
0.63924414 -0.14037685 0.092631236
0.63950038 -0.13954449 0.092644624
0.63975656 -0.13871212 0.092658006
0.63912803 -0.13757941 0.092284992
0.63938457 -0.13674602 0.092298396
0.63964105 -0.13591261 0.0923118
0.63901383 -0.13477577 0.091938846
0.63750374 -0.13333237 0.091179602
0.63687801 -0.13219033 0.090806715
0.63537014 -0.1307397 0.090047583
0.632981 -0.12897733 0.088902213
0.63147599 -0.12751739 0.088143222
0.62997222 -0.1260533 0.087384291
0.62758821 -0.1242744 0.086239204
0.62520605 -0.12248928 0.085094199
0.62370682 -0.12101073 0.084335499
0.62220877 -0.11952803 0.083576873
0.61983174 -0.11772638 0.082432143
0.61921656 -0.11655022 0.082059816
0.61772239 -0.11505513 0.081301391
0.61710876 -0.11387382 0.08092916
0.61649585 -0.11269045 0.080556951
0.61588347 -0.11150498 0.080184773
0.61527181 -0.11031747 0.079812638
0.61553884 -0.10944995 0.079826593
0.61492813 -0.10825934 0.079454504
0.61431807 -0.10706665 0.079082452
0.61458576 -0.10619707 0.079096437
0.61485338 -0.10532747 0.079110421
0.61512107 -0.10445789 0.079124413
0.6145125 -0.10326002 0.078752428
0.61390465 -0.10206009 0.078380488
0.614173 -0.10118844 0.07839451
0.61444128 -0.10031678 0.078408524
0.61470956 -0.09944512 0.078422546
0.6149779 -0.098573469 0.078436561
0.61524618 -0.09770181 0.078450583
0.61551446 -0.096830152 0.078464597
0.61578274 -0.095958494 0.078478619
0.61605108 -0.095086835 0.078492634
0.61631936 -0.094215177 0.078506656
0.61658764 -0.093343519 0.078520671
0.61685598 -0.092471868 0.078534693
0.61712426 -0.091600209 0.078548707
0.61739254 -0.090728551 0.078562729
0.61766082 -0.089856893 0.078576744
0.61792916 -0.088985234 0.078590766
0.61819744 -0.088113576 0.07860478
0.61846572 -0.087241925 0.078618802
0.61873406 -0.086370267 0.078632817
0.61900234 -0.085498609 0.078646839
0.61927062 -0.08462695 0.078660853
