# .PCD v0.7 - Point Cloud Data file format
VERSION 0.7
FIELDS x y z
SIZE 4 4 4
TYPE F F F
COUNT 1 1 1
WIDTH 1420
HEIGHT 1
VIEWPOINT 0 0 0 1 0 0 0
POINTS 1420
DATA ascii
0.55841333 0.12381265 0.034667075
0.55802625 0.12331566 0.034659162
0.55763918 0.12281869 0.034651253
0.55725211 0.12232171 0.034643341
0.55686504 0.12182473 0.034635432
0.55647796 0.12132776 0.03462752
0.55609083 0.12083078 0.034619607
0.55570376 0.12033381 0.034611698
0.55531669 0.11983683 0.034603786
0.55492961 0.11933985 0.034595877
0.55454254 0.11884288 0.034587964
0.63882941 0.19034505 0.025060661
0.63842577 0.1898268 0.025052411
0.63802212 0.18930854 0.025044162
0.63761848 0.18879029 0.025035912
0.63721484 0.18827204 0.025027663
0.6368112 0.1877538 0.025019413
0.63640755 0.18723555 0.025011163
0.63515365 0.1871094 0.025412254
0.63475066 0.186592 0.025404017
0.63349873 0.18646842 0.025805149
0.6322481 0.18634659 0.026206329
0.63099885 0.18622641 0.026607515
0.62975091 0.18610795 0.027008729
0.62850428 0.18599118 0.027409969
0.62725896 0.18587612 0.027811237
0.62601495 0.18576278 0.028212551
0.62477231 0.18565112 0.028613873
0.62353104 0.18554117 0.029015221
0.62229103 0.18543291 0.029416597
0.62105232 0.18532638 0.029818021
0.61981499 0.18522152 0.030219451
0.61857897 0.18511838 0.030620907
0.61818463 0.18461204 0.030612847
0.61695057 0.18451144 0.031014346
0.61571789 0.18441254 0.031415869
0.61532485 0.18390791 0.031407837
0.61409408 0.18381159 0.031809423
0.6137017 0.18330781 0.031801403
0.61247295 0.18321402 0.032203011
0.61208129 0.18271108 0.032195002
0.61168957 0.18220815 0.032186996
0.61129785 0.18170522 0.032178991
0.61090612 0.18120228 0.032170985
0.6105144 0.18069935 0.032162979
0.6092903 0.18061152 0.032564681
0.60889924 0.18010943 0.03255669
0.60850823 0.17960735 0.032548696
0.60811716 0.17910527 0.032540705
0.6077261 0.17860319 0.032532711
0.60733503 0.17810111 0.03252472
0.60694402 0.17759903 0.032516725
0.60655296 0.17709695 0.032508735
0.60616189 0.17659487 0.032500744
0.60577083 0.17609277 0.032492749
0.60537976 0.17559069 0.032484759
0.60498875 0.17508861 0.032476764
0.60459769 0.17458653 0.032468773
0.60420662 0.17408445 0.032460783
0.60381556 0.17358236 0.032452788
0.60342455 0.17308028 0.032444797
0.60303348 0.1725782 0.032436803
0.60264242 0.17207612 0.032428812
0.60225135 0.17157404 0.032420821
0.60186028 0.17107195 0.032412827
0.60146928 0.17056987 0.032404836
0.60107821 0.17006779 0.032396842
0.60068715 0.16956571 0.032388851
0.60029608 0.16906363 0.03238086
0.59990507 0.16856153 0.032372866
0.59951401 0.16805945 0.032364875
0.59912294 0.16755737 0.032356881
0.59873188 0.16705529 0.03234889
0.59834081 0.16655321 0.032340899
0.5979498 0.16605112 0.032332905
0.59755874 0.16554904 0.032324914
0.59716767 0.16504696 0.032316919
0.5967766 0.16454488 0.032308929
0.59719604 0.16359961 0.031890783
0.59761417 0.16265264 0.031472608
0.59722179 0.16214886 0.031464592
0.59763795 0.16119932 0.031046355
0.5980528 0.1602481 0.030628115
0.59846622 0.15929517 0.030209847
0.59807187 0.15878883 0.030201787
0.59767753 0.15828249 0.030193727
0.59728312 0.15777616 0.030185668
0.59769332 0.15681899 0.029767333
0.59729826 0.1563118 0.029759258
0.59690326 0.1558046 0.029751185
0.5965082 0.15529741 0.029743111
0.5961132 0.15479022 0.029735038
0.59571815 0.15428303 0.029726965
0.59532315 0.15377586 0.029718891
0.59492809 0.15326867 0.029710818
0.59453309 0.15276147 0.029702744
0.59413803 0.15225428 0.029694671
0.59454089 0.15128775 0.029276187
0.59414524 0.15077971 0.029268099
0.59374952 0.15027167 0.029260011
0.59335381 0.14976363 0.029251926
0.59295815 0.14925559 0.029243838
0.59256244 0.14874755 0.02923575
0.59296072 0.14777502 0.028817149
0.59335762 0.14680083 0.028398544
0.5929606 0.14629108 0.02839043
0.59335554 0.14531434 0.027971782
0.59295785 0.14480375 0.027963655
0.59335077 0.14382443 0.027544966
0.59295243 0.14331299 0.027536824
0.59255409 0.14280155 0.027528683
0.59294438 0.14181881 0.027109921
0.59333336 0.14083439 0.026691152
0.59293371 0.14032125 0.026682984
0.59332067 0.13933429 0.026264174
0.59370631 0.13834563 0.025845338
0.59330529 0.13783078 0.025837142
0.59368896 0.13683957 0.025418267
0.59328729 0.13632387 0.025410056
0.593669 0.13533007 0.024991117
0.59404933 0.13433459 0.024572173
0.59364635 0.13381718 0.024563937
0.59324336 0.13329978 0.0245557
0.59362108 0.13230091 0.024136702
0.59321743 0.13178267 0.024128452
0.59281379 0.1312644 0.024120202
0.59241009 0.13074616 0.024111953
0.59200644 0.13022791 0.024103703
0.5916028 0.12970966 0.024095453
0.59197587 0.12870483 0.02367636
0.59157157 0.12818572 0.023668095
0.59116727 0.12766662 0.023659833
0.59076297 0.12714751 0.02365157
0.59035861 0.12662841 0.023643306
0.56053847 0.12543689 0.033701912
0.56015074 0.12493905 0.033693988
0.55976295 0.12444123 0.033686064
0.55937523 0.1239434 0.03367814
0.5589875 0.12344557 0.033670213
0.55859977 0.12294775 0.033662289
0.55821204 0.12244992 0.033654366
0.55782425 0.12195209 0.033646442
0.55743653 0.12145426 0.033638515
0.5570488 0.12095644 0.033630591
0.55666107 0.12045861 0.033622667
0.55627334 0.11996078 0.033614744
0.55588561 0.11946295 0.03360682
0.55549783 0.11896513 0.033598892
0.55436325 0.11899217 0.034002423
0.63778788 0.19088665 0.024860302
0.63738489 0.19036925 0.024852065
0.6369819 0.18985184 0.024843829
0.6374315 0.18894598 0.024425304
0.63702786 0.18842773 0.024417054
0.63662422 0.18790948 0.024408804
0.63622057 0.18739124 0.024400555
0.63496697 0.18726483 0.024802649
0.63456398 0.18674743 0.024794413
0.63331234 0.1866236 0.025196547
0.63206202 0.1865015 0.025598731
0.63081306 0.18638109 0.026000917
0.62956542 0.18626235 0.026403133
0.62831914 0.18614534 0.026805377
0.62707412 0.18603002 0.027207647
0.62583041 0.18591642 0.027609965
0.62458813 0.1858045 0.028012289
0.6233471 0.18569429 0.028414641
0.62210739 0.18558578 0.028817017
0.62086904 0.185479 0.029219445
0.61963201 0.18537389 0.029621877
0.61923695 0.1848667 0.029613802
0.61800194 0.18476415 0.030016277
0.61676818 0.1846633 0.030418776
0.61637449 0.1841578 0.030410731
0.61514276 0.1840595 0.030813271
0.61474973 0.18355487 0.030805239
0.61351991 0.18345915 0.031207841
0.61312753 0.18295537 0.031199822
0.61273515 0.18245158 0.031191802
0.61234277 0.1819478 0.031183783
0.61111635 0.1818563 0.031586431
0.61072463 0.18135338 0.031578425
0.61033297 0.18085045 0.03157042
0.60994124 0.1803475 0.031562414
0.60954952 0.17984457 0.031554408
0.6091578 0.17934164 0.031546403
0.60876608 0.1788387 0.031538397
0.60837436 0.17833577 0.031530391
0.60798264 0.17783284 0.031522386
0.60676283 0.17774986 0.031925168
0.60637182 0.17724778 0.031917177
0.60598075 0.1767457 0.031909186
0.60558969 0.1762436 0.031901192
0.60519862 0.17574152 0.031893201
0.60480756 0.17523944 0.031885207
0.60441655 0.17473736 0.031877216
0.60402548 0.17423528 0.031869221
0.60363442 0.17373319 0.031861231
0.60324335 0.17323111 0.03185324
0.60285228 0.17272903 0.031845246
0.60246128 0.17222695 0.031837255
0.60207021 0.17172487 0.03182926
0.60167915 0.17122278 0.03182127
0.60128808 0.1707207 0.031813279
0.60089707 0.17021862 0.031805284
0.60050601 0.16971654 0.031797294
0.60011494 0.16921446 0.031789299
0.59972388 0.16871236 0.031781308
0.59933287 0.16821028 0.031773318
0.5989418 0.1677082 0.031765323
0.59855074 0.16720612 0.031757332
0.59815967 0.16670404 0.031749338
0.5977686 0.16620196 0.031741347
0.5973776 0.16569988 0.031733356
0.59698653 0.16519779 0.031725362
0.59740633 0.16425364 0.031306226
0.59782481 0.16330777 0.030887067
0.59824198 0.16236018 0.030467857
0.59784895 0.16185555 0.030459823
0.5982641 0.16090544 0.030040594
0.59867793 0.15995361 0.029621337
0.59909046 0.1590001 0.029202051
0.5986954 0.15849291 0.029193979
0.5983004 0.15798572 0.029185904
0.59790534 0.15747853 0.029177831
0.59751034 0.15697135 0.029169759
0.59711528 0.15646416 0.029161684
0.59752315 0.15550469 0.028742308
0.59712744 0.15499663 0.02873422
0.59673178 0.15448861 0.028726133
0.59633607 0.15398057 0.028718045
0.59594041 0.15347253 0.028709959
0.5955447 0.15296449 0.028701872
0.59514898 0.15245645 0.028693784
0.59475332 0.15194841 0.028685696
0.59435761 0.15144037 0.028677611
0.59396189 0.15093233 0.028669523
0.59356624 0.15042429 0.028661435
0.59317052 0.14991625 0.02865335
0.59277487 0.14940821 0.028645262
0.59317344 0.14843678 0.028225671
0.59277713 0.1479279 0.028217571
0.59317374 0.14695396 0.027797963
0.59277672 0.14644422 0.027789848
0.5931713 0.14546771 0.027370198
0.59277362 0.14495713 0.027362071
0.59316623 0.14397807 0.02694238
0.59276789 0.14346664 0.026934238
0.59236956 0.14295518 0.026926097
0.59275955 0.14197271 0.026506333
0.59314823 0.14098854 0.02608656
0.59274858 0.14047541 0.026078392
0.59313518 0.1394887 0.02565858
0.59352052 0.13850029 0.025238739
0.59311956 0.13798544 0.025230544
0.59350288 0.13699448 0.024810666
0.5931012 0.13647878 0.024802458
0.59348261 0.13548523 0.024382515
0.59386265 0.13449001 0.023962567
0.59345967 0.13397262 0.02395433
0.59305668 0.13345522 0.023946095
0.5934341 0.1324566 0.023526093
0.59303039 0.13193835 0.023517843
0.59262675 0.13142009 0.023509594
0.59222311 0.13090184 0.023501344
0.59181947 0.1303836 0.023493094
0.59141582 0.12986535 0.023484845
0.59178859 0.12886077 0.023064747
0.59138429 0.12834166 0.023056483
0.59097993 0.12782256 0.02304822
0.59057564 0.12730347 0.023039958
0.59017134 0.12678435 0.023031695
0.58976704 0.12626526 0.02302343
0.58936274 0.12574615 0.023015168
0.56111467 0.12507373 0.032703102
0.56072628 0.12457505 0.032695163
0.56033784 0.12407637 0.032687224
0.55994946 0.12357769 0.032679286
0.55956107 0.12307902 0.032671347
0.55917269 0.12258033 0.032663409
0.55878425 0.12208166 0.03265547
0.55839586 0.12158298 0.032647535
0.55800748 0.1210843 0.032639597
0.55761904 0.12058562 0.032631658
0.55723065 0.12008695 0.032623719
0.55684227 0.11958826 0.032615781
0.55645388 0.11908959 0.032607842
0.55606544 0.11859091 0.032599904
0.55567706 0.11809223 0.032591969
0.63845545 0.19065642 0.023839446
0.63805181 0.19013818 0.023831196
0.63679522 0.19000727 0.024234224
0.63724452 0.18910167 0.023814697
0.63684088 0.18858342 0.023806447
0.63643724 0.18806517 0.023798198
0.63603359 0.18754692 0.023789948
0.63562995 0.18702866 0.023781698
0.6343773 0.18690287 0.024184806
0.63312602 0.18677878 0.024587946
0.63272369 0.18626224 0.024579722
0.63147432 0.18614073 0.024982922
0.63022631 0.1860209 0.025386125
0.62897968 0.18590277 0.025789358
0.6277343 0.18578634 0.026192615
0.62649029 0.18567161 0.026595904
0.62524754 0.18555863 0.026999235
0.62400621 0.18544731 0.027402576
0.62276614 0.18533768 0.027805943
0.62152743 0.18522976 0.02820934
0.62029004 0.18512358 0.028612781
0.61905396 0.18501906 0.029016228
0.61781925 0.18491626 0.029419705
0.61742485 0.18440992 0.029411646
0.6161921 0.18430966 0.029815162
0.61579841 0.18380417 0.029807115
0.61456764 0.18370646 0.030210672
0.6141746 0.18320183 0.03020264
0.61378157 0.18269719 0.030194607
0.61255342 0.18260293 0.03059824
0.61216104 0.18209915 0.030590219
0.61176866 0.18159536 0.030582201
0.61137629 0.18109158 0.03057418
0.61098391 0.18058778 0.030566161
0.61059153 0.180084 0.030558143
0.60936803 0.17999566 0.030961847
0.6089763 0.17949273 0.030953841
0.60858464 0.1789898 0.030945836
0.60819292 0.17848685 0.03093783
0.6078012 0.17798392 0.030929824
0.60740948 0.177481 0.030921819
0.60701776 0.17697807 0.030913813
0.60662603 0.17647512 0.030905807
0.60623431 0.17597219 0.030897802
0.60584259 0.17546926 0.030889796
0.60545087 0.17496632 0.03088179
0.60505915 0.17446339 0.030873783
0.60466748 0.17396046 0.030865777
0.60427576 0.17345752 0.030857772
0.60388404 0.17295459 0.030849766
0.60349232 0.17245166 0.03084176
0.6031006 0.17194873 0.030833755
0.60270888 0.17144579 0.030825749
0.60231715 0.17094286 0.030817743
0.60192543 0.17043993 0.030809738
0.60153371 0.16993698 0.030801732
0.60114199 0.16943406 0.030793726
0.60075033 0.16893113 0.030785719
0.60035861 0.16842818 0.030777713
0.59996688 0.16792525 0.030769708
0.59957516 0.16742232 0.030761702
0.59918344 0.1669194 0.030753696
0.59879172 0.16641645 0.030745691
0.5984 0.16591352 0.030737685
0.59800828 0.16541059 0.030729679
0.59761655 0.16490765 0.030721674
0.5980354 0.1639629 0.030301522
0.59845293 0.16301641 0.029881323
0.59886914 0.16206825 0.029461117
0.5984754 0.16156277 0.029453071
0.59888959 0.16061206 0.029032825
0.59930247 0.15965965 0.02861255
0.59971398 0.15870553 0.028192254
0.59931833 0.15819749 0.028184166
0.59892261 0.15768945 0.028176079
0.59852695 0.15718141 0.028167993
0.59813124 0.15667339 0.028159905
0.59773552 0.15616533 0.028151818
0.59733987 0.15565731 0.02814373
0.59694415 0.15514927 0.028135644
0.59654844 0.15464123 0.028127557
0.59615278 0.15413319 0.028119469
0.59575707 0.15362515 0.028111383
0.59536141 0.15311711 0.028103296
0.5949657 0.15260907 0.028095208
0.59456998 0.15210102 0.028087121
0.59417433 0.15159298 0.028079035
0.59377861 0.15108494 0.028070947
0.59338289 0.1505769 0.02806286
0.59298724 0.15006886 0.028054772
0.59338623 0.14909855 0.027634194
0.59298986 0.14858966 0.027626093
0.59259349 0.14808077 0.027617993
0.5929898 0.14710708 0.02719738
0.59259278 0.14659734 0.027189266
0.59298706 0.14562111 0.026768614
0.59258938 0.14511052 0.026760487
0.5929817 0.14413172 0.026339792
0.59258336 0.14362027 0.02633165
0.59218502 0.14310883 0.02632351
0.59257472 0.1421266 0.025902743
0.5929631 0.14114271 0.025481967
0.59256339 0.14062956 0.0254738
0.59294975 0.1396431 0.025052985
0.59333479 0.13865496 0.024632143
0.59293377 0.13814011 0.024623947
0.59331679 0.13714941 0.024203066
0.59291518 0.13663371 0.024194857
0.59329623 0.13564041 0.023773912
0.59289396 0.13512386 0.023765691
0.59327298 0.13412805 0.023344725
0.59287 0.13361065 0.023336489
0.59324706 0.13261229 0.022915484
0.59284341 0.13209404 0.022907235
0.59243977 0.13157578 0.022898985
0.59203613 0.13105753 0.022890735
0.59163249 0.13053928 0.022882486
0.59122884 0.13002104 0.022874238
0.59160131 0.12901671 0.022453137
0.59119695 0.1284976 0.022444874
0.59079266 0.1279785 0.022436609
0.59038836 0.12745941 0.022428347
0.58998406 0.1269403 0.022420084
0.58957976 0.1264212 0.022411821
0.5891754 0.1259021 0.022403557
0.56093472 0.12522353 0.032115553
0.56054634 0.12472486 0.032107614
0.56015795 0.12422618 0.032099679
0.55976957 0.1237275 0.032091741
0.55938113 0.12322882 0.032083802
0.55899274 0.12273014 0.032075863
0.55860436 0.12223147 0.032067925
0.55821592 0.12173279 0.032059986
0.55782753 0.1212341 0.032052048
0.55743915 0.12073543 0.032044113
0.5570507 0.12023675 0.032036174
0.55666232 0.11973807 0.032028235
0.55627394 0.1192394 0.032020297
0.55588555 0.11874072 0.032012358
0.55549711 0.11824203 0.03200442
0.63826847 0.19081211 0.023228837
0.63786483 0.19029386 0.023220588
0.63746119 0.1897756 0.023212338
0.63705754 0.18925735 0.023204088
0.6366539 0.18873911 0.023195839
0.63625026 0.18822086 0.023187589
0.63584661 0.18770261 0.023179339
0.63544297 0.18718435 0.02317109
0.63419062 0.1870583 0.023575202
0.63378763 0.1865409 0.023566965
0.63253731 0.18641742 0.023971118
0.63128823 0.18629566 0.024375321
0.63004059 0.18617557 0.024779527
0.62879419 0.18605718 0.025183761
0.62754917 0.18594049 0.025588023
0.62630546 0.18582551 0.025992313
0.62506306 0.18571226 0.026396647
0.62382197 0.18560068 0.026800992
0.62258226 0.18549082 0.027205363
0.62134385 0.18538263 0.02760976
0.6201067 0.1852762 0.028014205
0.61887097 0.18517143 0.028418655
0.61847591 0.18466425 0.028410582
0.61724216 0.18456203 0.028815074
0.61600971 0.18446152 0.029219594
0.61561602 0.18395603 0.029211547
0.61522233 0.18345053 0.029203501
0.61399251 0.18335342 0.029608073
0.61359948 0.1828488 0.029600041
0.61320645 0.18234415 0.029592007
0.61281341 0.18183953 0.029583974
0.61242038 0.18133488 0.029575942
0.61119449 0.18124291 0.029980619
0.61080211 0.18073912 0.029972598
0.61040974 0.18023534 0.029964579
0.61001736 0.17973156 0.029956561
0.60962498 0.17922777 0.02994854
0.6092326 0.17872399 0.029940521
0.60801142 0.17863794 0.030345269
0.6076197 0.17813501 0.030337263
0.60722798 0.17763208 0.030329257
0.60683632 0.17712915 0.030321252
0.6064446 0.17662621 0.030313246
0.60605288 0.17612328 0.03030524
0.60566115 0.17562035 0.030297235
0.60526943 0.17511742 0.030289229
0.60487771 0.17461447 0.030281221
0.60448599 0.17411155 0.030273216
0.60409427 0.17360862 0.03026521
0.60370255 0.17310567 0.030257205
0.60331082 0.17260274 0.030249199
0.60291916 0.17209981 0.030241193
0.60252744 0.17159688 0.030233188
0.60213572 0.17109394 0.030225182
0.601744 0.17059101 0.030217176
0.60135227 0.17008808 0.030209171
0.60096055 0.16958514 0.030201165
0.60056883 0.16908221 0.030193157
0.60017711 0.16857928 0.030185152
0.59978539 0.16807634 0.030177146
0.59939367 0.16757341 0.030169141
0.599002 0.16707048 0.030161135
0.59861028 0.16656755 0.030153129
0.59821856 0.16606461 0.030145124
0.59782684 0.16556168 0.030137118
0.59824604 0.16461803 0.029715979
0.59866393 0.16367264 0.029294791
0.59908044 0.1627256 0.028873596
0.59868675 0.16222011 0.02886555
0.59910131 0.16127051 0.028444314
0.59951448 0.16031919 0.028023051
0.59992641 0.15936619 0.027601764
0.60033703 0.15841144 0.027180426
0.59994066 0.15790257 0.027172325
0.59954429 0.15739366 0.027164225
0.59914792 0.15688477 0.027156124
0.5987516 0.15637589 0.027148023
0.59835523 0.155867 0.027139923
0.59795886 0.15535811 0.027131822
0.59756249 0.15484922 0.027123721
0.59716618 0.15434033 0.027115621
0.59676981 0.15383144 0.02710752
0.59637344 0.15332255 0.027099419
0.59597707 0.15281366 0.027091319
0.59558076 0.15230477 0.027083218
0.59518439 0.15179588 0.027075117
0.59478801 0.15128699 0.027067017
0.5943917 0.1507781 0.027058916
0.59399533 0.15026921 0.027050816
0.59359896 0.14976032 0.027042715
0.59320259 0.14925142 0.027034614
0.59359992 0.1482797 0.026613027
0.59320289 0.14776996 0.026604913
0.59280586 0.14726022 0.026596799
0.59320056 0.14628509 0.026175158
0.59280288 0.1457745 0.02616703
0.59319556 0.1447968 0.025745345
0.59279716 0.14428537 0.025737206
0.59239882 0.14377391 0.025729064
0.59200048 0.14326248 0.025720922
0.59238988 0.1422805 0.025299154
0.59277791 0.14129686 0.024877375
0.59237826 0.14078371 0.024869207
0.59276432 0.13979752 0.024447389
0.59314901 0.13880962 0.024025545
0.59274805 0.13829477 0.024017349
0.59313077 0.13730432 0.023595465
0.59272909 0.13678862 0.023587257
0.59310991 0.13579559 0.023165308
0.59270757 0.13527904 0.023157086
0.5930863 0.13428348 0.022735119
0.59268332 0.13376608 0.022726884
0.59306008 0.13276798 0.022304876
0.59265643 0.13224973 0.022296626
0.59225279 0.13173147 0.022288376
0.59184915 0.13121322 0.022280127
0.59144551 0.13069497 0.022271877
0.59104186 0.13017672 0.022263627
0.59141397 0.12917265 0.021841526
0.59100968 0.12865356 0.021833263
0.59060538 0.12813444 0.021825001
0.59020108 0.12761535 0.021816736
0.58979678 0.12709625 0.021808473
0.58939242 0.12657714 0.021800211
0.58898813 0.12605804 0.021791948
0.58858383 0.12553895 0.021783683
0.56151003 0.12486115 0.031113733
0.56112099 0.12436162 0.031105781
0.56073195 0.12386209 0.031097829
0.56034285 0.12336256 0.031089878
0.55995381 0.12286303 0.031081926
0.55956471 0.1223635 0.031073974
0.55917567 0.12186397 0.031066023
0.55878657 0.12136444 0.031058071
0.55839753 0.12086491 0.03105012
0.55800849 0.12036538 0.031042168
0.55761939 0.11986586 0.031034216
0.55723035 0.11936633 0.031026265
0.55684125 0.11886679 0.031018313
0.55570561 0.11889052 0.031424809
0.55531722 0.11839184 0.031416871
0.63808149 0.1909678 0.022618229
0.63767785 0.19044955 0.022609979
0.63727421 0.18993129 0.022601729
0.63687056 0.18941304 0.02259348
0.63646692 0.18889479 0.02258523
0.63606328 0.18837655 0.02257698
0.63565964 0.1878583 0.022568731
0.63525593 0.18734004 0.022560481
0.63485235 0.18682179 0.022552231
0.63360095 0.18669634 0.02295736
0.63235092 0.18657258 0.023362517
0.6311022 0.18645057 0.023767723
0.6298548 0.18633023 0.02417293
0.62860876 0.18621159 0.024578167
0.62736404 0.18609464 0.024983432
0.62612063 0.18597941 0.025388723
0.62487853 0.18586591 0.025794063
0.62363774 0.18575408 0.026199408
0.62239832 0.18564394 0.026604779
0.62116021 0.18553551 0.02701018
0.61992341 0.18542881 0.027415629
0.6195277 0.18492079 0.027407544
0.61829293 0.18481661 0.027813008
0.61789793 0.18430942 0.027804933
0.61666512 0.1842078 0.028210443
0.61627072 0.18370146 0.028202383
0.61587638 0.18319513 0.028194323
0.61464626 0.1830969 0.028599886
0.61425251 0.18259142 0.02859184
0.61385882 0.18208593 0.028583793
0.61346513 0.18158044 0.028575746
0.61223829 0.18148649 0.028981375
0.61184525 0.18098184 0.028973343
0.61062038 0.18089047 0.029379036
0.610228 0.18038668 0.029371016
0.60983562 0.1798829 0.029362997
0.60944325 0.17937912 0.029354978
0.60905087 0.17887533 0.029346958
0.60865849 0.17837155 0.029338939
0.60826612 0.17786777 0.02933092
0.60787374 0.17736398 0.0293229
0.6074813 0.1768602 0.029314881
0.60708892 0.17635641 0.029306861
0.60669655 0.17585263 0.029298842
0.60630417 0.17534885 0.029290823
0.60591179 0.17484505 0.029282803
0.60551941 0.17434128 0.029274784
0.60512704 0.17383748 0.029266765
0.60473466 0.1733337 0.029258745
0.60434228 0.17282993 0.029250726
0.6039499 0.17232613 0.029242707
0.60355753 0.17182235 0.029234687
0.60316515 0.17131858 0.029226668
0.60277277 0.17081478 0.029218648
0.60238039 0.17031099 0.029210629
0.60198802 0.16980721 0.02920261
0.60159564 0.16930343 0.02919459
0.60120326 0.16879964 0.029186571
0.60081089 0.16829586 0.029178552
0.60041851 0.16779208 0.029170532
0.60002613 0.16728829 0.029162513
0.59963375 0.16678451 0.029154494
0.59924138 0.16628072 0.029146474
0.598849 0.16577694 0.029138455
0.5992679 0.16483352 0.02871629
0.59887487 0.16432887 0.028708257
0.59929174 0.16338293 0.028286073
0.59889805 0.16287744 0.028278027
0.60012156 0.16148594 0.027441625
0.6005345 0.16053489 0.027019363
0.60094613 0.15958211 0.026597047
0.60054976 0.15907322 0.026588947
0.60095936 0.15811792 0.026166614
0.60056233 0.15760818 0.0261585
0.60016531 0.15709843 0.026150385
0.59976828 0.15658869 0.026142271
0.59937125 0.15607895 0.026134158
0.59897429 0.15556921 0.026126044
0.59857726 0.15505946 0.026117928
0.59818023 0.15454972 0.026109815
0.59778321 0.15403998 0.026101701
0.59738618 0.15353024 0.026093587
0.59698915 0.1530205 0.026085472
0.59659213 0.15251076 0.026077358
0.5961951 0.15200102 0.026069244
0.59579813 0.15149128 0.026061131
0.59540111 0.15098153 0.026053015
0.59500408 0.15047179 0.026044901
0.59460706 0.14996205 0.026036788
0.59421003 0.14945231 0.026028672
0.593813 0.14894257 0.026020559
0.59341598 0.14843282 0.026012445
0.59301901 0.14792308 0.026004331
0.59341401 0.14694907 0.025581701
0.59301633 0.14643846 0.025573574
0.59261864 0.14592788 0.025565445
0.59301102 0.14495045 0.025142761
0.59261268 0.144439 0.025134619
0.59221429 0.14392756 0.025126478
0.59260404 0.14294669 0.024703719
0.59220505 0.1424344 0.024695562
0.59259278 0.14145102 0.024272785
0.59219313 0.14093786 0.024264617
0.59257883 0.13995193 0.023841795
0.59296328 0.1389643 0.023418948
0.59256226 0.13844945 0.023410752
0.59294468 0.13745925 0.022987867
0.59254301 0.13694355 0.022979658
0.59292352 0.13595076 0.022556707
0.59252119 0.13543421 0.022548484
0.59289962 0.13443892 0.022125514
0.59249663 0.13392152 0.022117278
0.5928731 0.13292366 0.021694267
0.59246945 0.13240542 0.021686018
0.59206581 0.13188715 0.021677768
0.59166217 0.13136891 0.021669518
0.59125853 0.13085066 0.021661269
0.59085488 0.13033241 0.021653019
0.5912267 0.12932859 0.021229915
0.5908224 0.1288095 0.021221653
0.5904181 0.12829039 0.02121339
0.59001374 0.12777129 0.021205127
0.58960944 0.12725219 0.021196863
0.58920515 0.12673308 0.0211886
0.58880085 0.12621398 0.021180337
0.58839655 0.12569489 0.021172073
0.58799225 0.12517577 0.02116381
0.56208473 0.12449927 0.03010991
0.56169498 0.12399889 0.030101946
0.56130528 0.12349851 0.030093981
0.56091553 0.12299813 0.030086016
0.56052583 0.12249775 0.03007805
0.56013608 0.12199737 0.030070085
0.55974638 0.12149699 0.03006212
0.55935663 0.12099661 0.030054156
0.55896693 0.12049623 0.030046189
0.55857718 0.11999585 0.030038225
0.55818748 0.11949547 0.03003026
0.55779773 0.11899509 0.030022293
0.55740803 0.1184947 0.030014329
0.55552566 0.11904033 0.030837264
0.63789451 0.19112349 0.022007618
0.63749087 0.19060524 0.02199937
0.63708723 0.19008698 0.021991121
0.63668358 0.18956873 0.021982871
0.63627988 0.18905048 0.021974621
0.63672632 0.18814309 0.021552045
0.63547266 0.18801399 0.021958122
0.63506895 0.18749572 0.021949872
0.63466531 0.18697748 0.021941623
0.63426167 0.18645923 0.021933373
0.63301128 0.18633436 0.022339519
0.63176221 0.18621121 0.022745691
0.63051444 0.1860898 0.023151914
0.62842327 0.18636599 0.023972571
0.62717891 0.18624881 0.02437884
0.62593579 0.18613331 0.024785133
0.62469399 0.18601955 0.025191475
0.62429565 0.18550812 0.025183333
0.62305588 0.18539687 0.025589697
0.62181741 0.18528733 0.025996085
0.62058026 0.1851795 0.0264025
0.61934441 0.18507341 0.026808966
0.6189487 0.18456537 0.026800878
0.61771488 0.18446179 0.027207362
0.61731988 0.1839546 0.027199287
0.61692488 0.18344741 0.027191214
0.61569369 0.18334724 0.027597751
0.61529934 0.1828409 0.027589692
0.61490494 0.18233456 0.027581632
0.61367643 0.18223779 0.027988223
0.61328274 0.1817323 0.027980177
0.6120562 0.18163808 0.028386811
0.61166316 0.18113345 0.028378777
0.61127013 0.18062881 0.028370745
0.6108771 0.18012418 0.028362712
0.61048406 0.17961954 0.028354678
0.61009103 0.17911491 0.028346647
0.60886908 0.17902668 0.028753396
0.6084767 0.17852288 0.028745376
0.60808432 0.17801911 0.028737357
0.60769194 0.17751531 0.028729336
0.60729957 0.17701153 0.028721318
0.60690719 0.17650776 0.028713299
0.60651481 0.17600396 0.028705278
0.60612243 0.17550018 0.02869726
0.60573006 0.17499641 0.028689241
0.60533768 0.17449261 0.02868122
0.6049453 0.17398883 0.028673202
0.60455292 0.17348504 0.028665183
0.60416055 0.17298126 0.028657163
0.60376817 0.17247748 0.028649144
0.60337579 0.17197369 0.028641125
0.60298342 0.17146991 0.028633105
0.60259104 0.17096612 0.028625086
0.60219866 0.17046234 0.028617065
0.60180628 0.16995856 0.028609047
0.60141391 0.16945477 0.028601028
0.60102153 0.16895099 0.028593007
0.60062915 0.1684472 0.028584989
0.60023677 0.16794342 0.02857697
0.5998444 0.16743962 0.02856895
0.59945202 0.16693585 0.028560931
0.59905964 0.16643207 0.028552912
0.5994789 0.16548975 0.028129758
0.59989679 0.16454576 0.027706597
0.5995031 0.16404027 0.02769855
0.59991902 0.16309373 0.027275352
0.60033357 0.1621455 0.026852125
0.60074687 0.16119556 0.026428873
0.60115886 0.16024387 0.02600557
0.60156947 0.15929052 0.025582261
0.60117245 0.15878078 0.025574148
0.60077542 0.15827104 0.025566034
0.60037839 0.15776131 0.025557918
0.59998137 0.15725157 0.025549805
0.5995844 0.15674181 0.025541691
0.59918737 0.15623207 0.025533577
0.59879035 0.15572233 0.025525462
0.59839332 0.1552126 0.025517348
0.59799629 0.15470286 0.025509235
0.59759927 0.15419312 0.025501119
0.59720224 0.15368338 0.025493005
0.59680527 0.15317363 0.025484892
0.59640825 0.15266389 0.025476778
0.59601122 0.15215415 0.025468662
0.59561419 0.15164441 0.025460549
0.59601355 0.15067659 0.025037011
0.59561586 0.150166 0.025028883
0.59521818 0.1496554 0.025020756
0.5948205 0.14914481 0.025012627
0.59442282 0.14863423 0.025004501
0.59402514 0.14812364 0.024996372
0.59362745 0.14761303 0.024988245
0.59322977 0.14710245 0.024980117
0.59283209 0.14659186 0.02497199
0.59243441 0.14608127 0.024963861
0.59282649 0.1451041 0.024540173
0.59242815 0.14459264 0.024532031
0.59202981 0.14408121 0.02452389
0.59241921 0.14310059 0.024100129
0.59202021 0.14258829 0.024091974
0.59240764 0.14160517 0.023668192
0.59200799 0.14109203 0.023660025
0.5923934 0.14010634 0.0232362
0.59277749 0.13911895 0.02281235
0.59237653 0.1386041 0.022804154
0.59275866 0.13761416 0.022380266
0.59235698 0.13709846 0.022372058
0.59273714 0.13610594 0.021948105
0.59233481 0.13558939 0.021939881
0.59271294 0.13459435 0.02151591
0.59230995 0.13407695 0.021507673
0.59268612 0.13307935 0.021083659
0.59228247 0.1325611 0.021075409
0.59187883 0.13204284 0.021067159
0.59147519 0.13152459 0.02105891
0.59107155 0.13100635 0.02105066
0.5906679 0.1304881 0.02104241
0.59103942 0.12948453 0.020618305
0.59063512 0.12896544 0.02061004
0.59023076 0.12844634 0.020601777
0.58982646 0.12792723 0.020593515
0.58942217 0.12740813 0.020585252
0.58901787 0.12688904 0.020576987
0.58861357 0.12636992 0.020568725
0.58820921 0.12585083 0.020560462
0.58780491 0.12533171 0.020552197
0.58740062 0.12481262 0.020543935
0.56304926 0.1246391 0.029112037
0.56265885 0.12413787 0.02910406
0.56226844 0.12363664 0.02909608
0.56187809 0.12313541 0.0290881
0.56148767 0.12263418 0.029080123
0.56109726 0.12213295 0.029072143
0.56070691 0.12163171 0.029064165
0.5603165 0.12113048 0.029056186
0.55992609 0.12062925 0.029048208
0.55953574 0.12012802 0.029040229
0.55914533 0.11962679 0.029032251
0.55875492 0.11912556 0.029024271
0.55836457 0.11862433 0.029016294
0.55722749 0.11864503 0.029424775
0.63730389 0.19076093 0.021388764
0.63690025 0.19024266 0.021380514
0.6364966 0.18972442 0.021372264
0.63694334 0.18881813 0.020948699
0.63653904 0.18829903 0.020940436
0.63613474 0.18777993 0.020932173
0.63573039 0.18726082 0.020923909
0.63447833 0.18713316 0.021331016
0.63407469 0.18661492 0.021322766
0.6328246 0.18648979 0.021729914
0.63157588 0.18636638 0.022137091
0.63032842 0.18624471 0.022544313
0.62823784 0.18652041 0.023366978
0.62699372 0.18640296 0.023774248
0.62575096 0.18628721 0.024181545
0.62450945 0.1861732 0.024588887
0.62411112 0.18566175 0.024580745
0.62287164 0.18555026 0.024988111
0.62163347 0.18544047 0.025395501
0.62039667 0.18533237 0.025802922
0.61916113 0.18522602 0.026210388
0.61876541 0.18471798 0.026202302
0.61836976 0.18420994 0.026194215
0.6171369 0.18410696 0.026601715
0.61674184 0.18359977 0.026593642
0.615511 0.18349934 0.02700118
0.61511666 0.18299301 0.02699312
0.61472225 0.18248667 0.02698506
0.61349404 0.18238963 0.027392656
0.61310035 0.18188415 0.027384609
0.61270666 0.18137866 0.027376562
0.61148107 0.18128504 0.027784212
0.61108804 0.18078041 0.027776178
0.610695 0.18027577 0.027768146
0.61030197 0.17977114 0.027760113
0.60990894 0.1792665 0.027752081
0.60951591 0.17876187 0.027744047
0.60912287 0.17825723 0.027736014
0.60872978 0.1777526 0.027727982
0.60751015 0.17766666 0.028135775
0.60711777 0.17716287 0.028127754
0.60672539 0.17665909 0.028119735
0.60633302 0.17615531 0.028111717
0.60594064 0.17565152 0.028103696
0.60554826 0.17514774 0.028095677
0.60515589 0.17464396 0.028087659
0.60476351 0.17414017 0.028079638
0.60437113 0.17363639 0.02807162
0.60397875 0.1731326 0.028063601
0.60358638 0.17262882 0.02805558
0.603194 0.17212504 0.028047562
0.60280162 0.17162125 0.028039543
0.60240924 0.17111747 0.028031522
0.60201687 0.17061368 0.028023504
0.60162449 0.1701099 0.028015483
0.60123211 0.16960612 0.028007464
0.60083973 0.16910233 0.027999446
0.60044736 0.16859855 0.027991425
0.60005498 0.16809477 0.027983407
0.5996626 0.16759098 0.027975388
0.59927022 0.16708718 0.027967367
0.59968984 0.16614598 0.027543224
0.59929681 0.16564134 0.027535191
0.5997144 0.16469762 0.027111029
0.60013068 0.16375218 0.02668684
0.60054564 0.16280505 0.026262626
0.60095924 0.1618562 0.025838383
0.60137159 0.16090564 0.025414091
0.60178256 0.1599534 0.024989793
0.60219222 0.15899946 0.024565469
0.60179454 0.15848887 0.024557341
0.60139686 0.15797827 0.024549212
0.60099918 0.15746768 0.024541086
0.60060149 0.15695709 0.024532957
0.60020381 0.1564465 0.02452483
0.59980613 0.1559359 0.024516702
0.59940845 0.15542531 0.024508575
0.59901077 0.15491472 0.024500446
0.59861308 0.15440413 0.02449232
0.5982154 0.15389353 0.024484191
0.59781772 0.15338294 0.024476064
0.59742004 0.15287235 0.024467936
0.59702235 0.15236175 0.024459809
0.59662467 0.15185116 0.02445168
0.59622699 0.15134057 0.024443552
0.59582931 0.15082999 0.024435425
0.59543163 0.1503194 0.024427297
0.59503394 0.14980879 0.02441917
0.59463626 0.14929821 0.024411041
0.59423858 0.14878762 0.024402915
0.5938409 0.14827701 0.024394786
0.5942353 0.14730351 0.023970149
0.59383696 0.14679205 0.02396201
0.59343863 0.14628062 0.023953868
0.59304029 0.14576918 0.023945726
0.59264195 0.14525773 0.023937585
0.59224361 0.14474629 0.023929443
0.59184527 0.14423485 0.023921303
0.59223437 0.14325449 0.02349654
0.59183538 0.14274219 0.023488386
0.59222251 0.14175932 0.0230636
0.5918228 0.14124618 0.023055432
0.59220797 0.14026074 0.022630606
0.59259176 0.13927361 0.022205753
0.59219074 0.13875876 0.022197558
0.59257257 0.13776909 0.021772668
0.59217089 0.13725339 0.021764459
0.59255075 0.13626112 0.021339502
0.59214842 0.13574457 0.02133128
0.59252626 0.13474979 0.020906305
0.59212327 0.13423237 0.020898068
0.59249914 0.13323504 0.020473054
0.59209549 0.13271679 0.020464804
0.59169185 0.13219853 0.020456554
0.59128821 0.13168028 0.020448305
0.59088457 0.13116203 0.020440055
0.59048092 0.13064378 0.020431805
0.59085208 0.12964049 0.020006696
0.59044778 0.12912138 0.019998431
0.59004349 0.12860228 0.019990169
0.58963919 0.12808317 0.019981906
0.58923489 0.12756407 0.019973643
0.58883059 0.12704498 0.019965379
0.58842623 0.12652586 0.019957116
0.58802193 0.12600677 0.019948853
0.58761764 0.12548767 0.01994059
0.58721334 0.12496856 0.019932326
0.58680904 0.12444946 0.019924063
0.56477004 0.12427146 0.027694955
0.56362337 0.1242791 0.028104216
0.5632323 0.12377702 0.028096223
0.56284124 0.12327494 0.028088231
0.56245017 0.12277286 0.028080238
0.56205916 0.12227077 0.028072247
0.5616681 0.12176869 0.028064255
0.56127703 0.12126661 0.028056262
0.56088597 0.12076452 0.028048269
0.56049496 0.12026244 0.028040277
0.56010389 0.11976036 0.028032286
0.55971283 0.11925828 0.028024293
0.55932176 0.1187562 0.028016301
0.55818373 0.1187749 0.028425736
0.63671321 0.19039835 0.020769905
0.63716036 0.18949318 0.020345351
0.63590592 0.18936186 0.020753406
0.6363517 0.18845497 0.020328823
0.63594741 0.18793587 0.020320561
0.63554311 0.18741676 0.020312298
0.63513881 0.18689767 0.020304034
0.63388771 0.1867706 0.020712158
0.63263792 0.18664522 0.02112031
0.6313895 0.18652156 0.021528484
0.63014233 0.18639964 0.021936711
0.62889653 0.18627937 0.022344941
0.62765205 0.18616082 0.0227532
0.62640893 0.18604396 0.023161488
0.62516713 0.18592881 0.0235698
0.62392658 0.18581539 0.023978161
0.6226874 0.18570365 0.024386529
0.62228972 0.18519305 0.0243784
0.62105256 0.18508385 0.024786809
0.61981672 0.18497637 0.025195241
0.61942035 0.18446746 0.02518714
0.61818641 0.18436256 0.025595639
0.61779076 0.18385452 0.025587551
0.61655885 0.18375213 0.025996065
0.61616385 0.18324494 0.025987992
0.61493397 0.18314511 0.02639655
0.61453956 0.18263878 0.026388489
0.61331171 0.18254149 0.026797088
0.61291796 0.182036 0.026789041
0.61252427 0.18153052 0.026780995
0.61129904 0.18143664 0.027189648
0.610906 0.180932 0.027181614
0.61051297 0.18042737 0.027173581
0.61011988 0.17992273 0.027165549
0.60972685 0.1794181 0.027157515
0.60933381 0.17891346 0.027149482
0.60894078 0.17840883 0.02714145
0.60854775 0.17790419 0.027133416
0.60815471 0.17739956 0.027125385
0.60776168 0.17689492 0.027117351
0.60736859 0.17639029 0.027109317
0.60697556 0.17588565 0.027101286
0.60658252 0.17538102 0.027093252
0.60618949 0.17487638 0.027085219
0.60579646 0.17437175 0.027077187
0.60540342 0.17386711 0.027069153
0.60501039 0.17336248 0.027061122
0.6046173 0.17285784 0.027053088
0.60422426 0.17235321 0.027045054
0.60383123 0.17184857 0.027037023
0.6034382 0.17134394 0.027028989
0.60304517 0.17083929 0.027020955
0.60265213 0.17033467 0.027012924
0.6022591 0.16983002 0.02700489
0.60186601 0.1693254 0.026996857
0.60147297 0.16882075 0.026988825
0.60107994 0.16831613 0.026980791
0.60068691 0.16781148 0.02697276
0.60029387 0.16730684 0.026964726
0.59990084 0.16680221 0.026956692
0.60031945 0.16586044 0.026531555
0.59992576 0.16535495 0.026523508
0.60034239 0.16441064 0.02609833
0.60075766 0.16346461 0.025673123
0.60117167 0.16251688 0.025247894
0.60158432 0.1615674 0.024822611
0.60199565 0.16061628 0.024397328
0.60240567 0.15966344 0.023972014
0.60281438 0.1587089 0.023546673
0.6016103 0.15864225 0.023955759
0.60201764 0.15768601 0.02353039
0.6016193 0.15717457 0.023522248
0.60122097 0.15666312 0.023514107
0.60082263 0.15615168 0.023505965
0.60042429 0.15564024 0.023497825
0.60002595 0.15512879 0.023489684
0.59962761 0.15461735 0.023481542
0.59922928 0.15410592 0.023473401
0.59883094 0.15359446 0.023465259
0.59843254 0.15308303 0.023457119
0.5980342 0.15257157 0.023448978
0.59763587 0.15206014 0.023440836
0.59723753 0.1515487 0.023432694
0.59683919 0.15103725 0.023424553
0.59644085 0.15052581 0.023416413
0.59604251 0.15001436 0.023408271
0.59564418 0.14950292 0.02340013
0.59524584 0.14899148 0.023391988
0.5948475 0.14848003 0.023383847
0.5944491 0.14796859 0.023375705
0.59405077 0.14745715 0.023367565
0.59365243 0.1469457 0.023359424
0.59325409 0.14643426 0.023351282
0.59285575 0.14592281 0.02334314
0.59245741 0.14541137 0.023334999
0.59205908 0.14489993 0.023326859
0.59166074 0.14438848 0.023318717
0.59204954 0.14340839 0.02289295
0.59165055 0.14289609 0.022884795
0.59203738 0.14191347 0.022459008
0.59163767 0.14140034 0.022450838
0.59202248 0.14041516 0.02202501
0.59240597 0.13942829 0.021599153
0.59200501 0.13891344 0.021590959
0.59238648 0.137924 0.021165065
0.59198481 0.1374083 0.021156857
0.59236437 0.1364163 0.020730896
0.5919621 0.13589975 0.020722674
0.59233958 0.1349052 0.0202967
0.59193659 0.13438781 0.020288464
0.59231216 0.13339072 0.019862445
0.59190851 0.13287248 0.019854195
0.59150487 0.13235421 0.019845946
0.59110123 0.13183597 0.019837696
0.59069759 0.13131772 0.019829446
0.59029394 0.13079947 0.019821197
0.5906648 0.12979643 0.019395083
0.59026051 0.12927732 0.01938682
0.58985621 0.12875822 0.019378556
0.58945191 0.12823913 0.019370293
0.58904755 0.12772001 0.019362031
0.58864325 0.12720092 0.019353768
0.58823895 0.1266818 0.019345503
0.58783466 0.12616271 0.019337241
0.58743036 0.12564361 0.019328978
0.58702606 0.1251245 0.019320715
0.5866217 0.1246054 0.019312451
0.5862174 0.1240863 0.019304188
0.56573629 0.12441686 0.026692158
0.56458861 0.12442254 0.027102396
0.56419688 0.12391961 0.027094388
0.56380516 0.12341668 0.027086383
0.56341344 0.12291374 0.027078377
0.56302172 0.12241081 0.027070371
0.56263 0.12190787 0.027062366
0.56223828 0.12140495 0.02705436
0.56184655 0.12090201 0.027046354
0.56145483 0.12039907 0.027038349
0.56106311 0.11989614 0.027030343
0.56067145 0.11939321 0.027022338
0.56027973 0.11889028 0.027014332
0.55988801 0.11838734 0.027006324
0.63652623 0.19055404 0.020159297
0.63697308 0.18964912 0.019733742
0.63656873 0.18913002 0.019725477
0.63616443 0.18861091 0.019717215
0.63576013 0.18809181 0.019708952
0.63535583 0.18757272 0.019700689
0.63495153 0.18705361 0.019692425
0.63370073 0.18692629 0.020101549
0.63245124 0.18680066 0.020510703
0.63120311 0.18667674 0.020919882
0.62995625 0.18655455 0.021329112
0.62871075 0.18643405 0.021738345
0.62746662 0.18631522 0.022147605
0.6262238 0.18619812 0.022556894
0.62498224 0.18608271 0.022966212
0.62374204 0.18596904 0.023375574
0.62250316 0.18585703 0.023784943
0.62210548 0.18534644 0.023776814
0.62086862 0.18523699 0.024186226
0.61963308 0.18512924 0.024595661
0.61923671 0.18462035 0.02458756
0.61800313 0.18451518 0.024997063
0.61760741 0.18400714 0.024988975
0.61721176 0.18349911 0.024980888
0.61598086 0.18339731 0.025390418
0.6155858 0.18289012 0.025382346
0.61435688 0.18279088 0.025791921
0.61396253 0.18228455 0.025783859
0.61273557 0.18218786 0.026193472
0.61234188 0.18168236 0.026185425
0.61194819 0.18117689 0.026177378
0.61072391 0.1810836 0.026587049
0.61033088 0.18057896 0.026579015
0.60993785 0.18007433 0.026570981
0.60954481 0.17956969 0.02656295
0.60915172 0.17906506 0.026554916
0.60875869 0.17856042 0.026546882
0.60836565 0.17805579 0.026538851
0.60797262 0.17755115 0.026530817
0.60757959 0.17704652 0.026522785
0.60718656 0.17654188 0.026514752
0.60679352 0.17603725 0.026506718
0.60640043 0.17553261 0.026498687
0.6060074 0.17502798 0.026490653
0.60561436 0.17452334 0.026482619
0.60522133 0.17401871 0.026474588
0.6048283 0.17351407 0.026466554
0.60443527 0.17300944 0.026458522
0.60404223 0.1725048 0.026450489
0.60364914 0.17200017 0.026442455
0.60325611 0.17149553 0.026434423
0.60286307 0.1709909 0.02642639
0.60247004 0.17048626 0.026418356
0.60207701 0.16998163 0.026410324
0.60168397 0.16947699 0.026402291
0.60129094 0.16897236 0.026394257
0.60089785 0.16846772 0.026386226
0.60050482 0.16796309 0.026378192
0.60011178 0.16745844 0.02637016
0.59971875 0.1669538 0.026362127
0.60013705 0.16601229 0.025935985
0.60055405 0.16506907 0.025509819
0.60096973 0.16412415 0.025083624
0.60138404 0.16317753 0.024657406
0.6017971 0.16222918 0.024231134
0.60220879 0.16127914 0.02380486
0.60181177 0.1607694 0.023796745
0.60302818 0.15937398 0.022952229
0.60262984 0.15886255 0.022944087
0.6022315 0.15835109 0.022935946
0.60183311 0.15783966 0.022927804
0.60223889 0.15688194 0.022501387
0.6018399 0.15636964 0.022493232
0.60063809 0.15630533 0.022903381
0.60023975 0.15579388 0.022895239
0.59984142 0.15528244 0.022887098
0.59944308 0.154771 0.022878956
0.59904474 0.15425955 0.022870814
0.5986464 0.15374811 0.022862675
0.59824806 0.15323667 0.022854533
0.59784967 0.15272522 0.022846391
0.59745133 0.15221378 0.02283825
0.59705299 0.15170233 0.022830108
0.59665465 0.15119089 0.022821968
0.59625632 0.15067945 0.022813827
0.59585798 0.150168 0.022805685
0.59545964 0.14965656 0.022797544
0.5950613 0.14914511 0.022789402
0.59466296 0.14863367 0.02278126
0.59426463 0.14812224 0.022773121
0.59386623 0.14761078 0.022764979
0.59346789 0.14709935 0.022756837
0.59306955 0.14658791 0.022748696
0.59267122 0.14607646 0.022740554
0.59227288 0.14556502 0.022732414
0.59187454 0.14505357 0.022724273
0.5922637 0.14407457 0.022297516
0.59186471 0.14356229 0.022289362
0.59146571 0.14304999 0.022281207
0.59185219 0.14206763 0.021854416
0.59145254 0.14155449 0.021846246
0.59183705 0.14056957 0.021419413
0.59222025 0.13958295 0.020992558
0.59181923 0.1390681 0.020984363
0.59220046 0.13807893 0.020557467
0.59179878 0.13756323 0.020549256
0.59217805 0.13657147 0.020122295
0.59177572 0.13605492 0.020114072
0.59215289 0.13506064 0.019687094
0.59174991 0.13454324 0.019678857
0.59212518 0.13354641 0.019251836
0.59172153 0.13302816 0.019243587
0.59131789 0.1325099 0.019235337
0.59091425 0.13199165 0.019227087
0.59051055 0.13147341 0.019218838
0.5901069 0.13095516 0.019210588
0.59047753 0.12995237 0.018783474
0.59007323 0.12943326 0.018775212
0.58966893 0.12891416 0.018766949
0.58926457 0.12839507 0.018758684
0.58886027 0.12787595 0.018750422
0.58845598 0.12735686 0.018742159
0.58805168 0.12683776 0.018733894
0.58764738 0.12631865 0.018725632
0.58724302 0.12579955 0.018717369
0.58683872 0.12528045 0.018709106
0.58603013 0.12424225 0.018692579
0.56670326 0.12456444 0.025687363
0.5655545 0.1245682 0.026098594
0.56516212 0.12406442 0.026090575
0.56476974 0.12356063 0.026082557
0.56437737 0.12305684 0.026074536
0.56398499 0.12255307 0.026066517
0.56359261 0.12204927 0.026058499
0.56320024 0.12154549 0.026050478
0.56280786 0.12104171 0.02604246
0.56241548 0.12053792 0.026034439
0.5620231 0.12003414 0.02602642
0.56163073 0.11953036 0.026018402
0.56123835 0.11902657 0.026010381
0.56009823 0.11904136 0.026421769
0.55970651 0.11853843 0.026413763
0.63763595 0.18941864 0.01870382
0.63723093 0.18889868 0.018695543
0.63682598 0.18837874 0.018687267
0.63557285 0.18824776 0.019097339
0.63516855 0.18772866 0.019089077
0.63476419 0.18720955 0.019080814
0.6343599 0.18669045 0.019072549
0.63226455 0.18695609 0.019901099
0.63101673 0.18683192 0.020311279
0.6306144 0.18631537 0.020303058
0.62936854 0.18619378 0.020713301
0.628124 0.18607385 0.021123551
0.62688082 0.18595564 0.02153383
0.62563896 0.18583913 0.021944134
0.62439841 0.18572432 0.022354465
0.62315917 0.18561123 0.022764843
0.6219213 0.18549983 0.023175232
0.62068468 0.18539011 0.023585644
0.6194495 0.18528211 0.023996083
0.61905313 0.18477322 0.023987982
0.61865675 0.18426433 0.023979882
0.61742413 0.18415976 0.024390399
0.61702842 0.18365173 0.024382312
0.61663276 0.18314369 0.024374226
0.61540282 0.18304248 0.024784774
0.61500776 0.18253529 0.024776699
0.61377984 0.18243665 0.025187287
0.61255324 0.18233971 0.025597902
0.61215949 0.18183422 0.025589855
0.6117658 0.18132874 0.025581809
0.61137211 0.18082325 0.025573762
0.61097842 0.18031776 0.025565716
0.61058468 0.17981228 0.025557669
0.60936272 0.1797213 0.025968382
0.60896969 0.17921665 0.02596035
0.60857666 0.17871203 0.025952317
0.60818356 0.17820738 0.025944285
0.60779053 0.17770275 0.025936252
0.6073975 0.17719811 0.025928218
0.60700446 0.17669348 0.025920186
0.60661143 0.17618884 0.025912153
0.6062184 0.17568421 0.025904119
0.60582536 0.17517957 0.025896087
0.60543227 0.17467494 0.025888054
0.60503924 0.1741703 0.02588002
0.60464621 0.17366567 0.025871988
0.60425317 0.17316103 0.025863955
0.60386014 0.1726564 0.025855923
0.60346711 0.17215176 0.025847889
0.60307407 0.17164713 0.025839856
0.60268098 0.17114249 0.025831824
0.60228795 0.17063786 0.025823791
0.60189492 0.17013322 0.025815757
0.60150188 0.16962859 0.025807725
0.60110885 0.16912395 0.025799692
0.60071582 0.16861932 0.02579166
0.60032278 0.16811468 0.025783626
0.59992969 0.16761003 0.025775593
0.59953666 0.16710541 0.025767561
0.59995466 0.16616414 0.025340416
0.60037136 0.16522118 0.024913248
0.60078669 0.16427651 0.024486052
0.60120076 0.16333015 0.024058828
0.60161346 0.16238205 0.023631554
0.60202485 0.16143228 0.023204276
0.60243493 0.1604808 0.022776973
0.60284364 0.15952763 0.022349639
0.6024453 0.15901619 0.022341497
0.60285205 0.15806043 0.021914104
0.60245305 0.15754813 0.021905949
0.60205406 0.15703584 0.021897795
0.60165507 0.15652354 0.02188964
0.60125601 0.15601124 0.021881485
0.60085702 0.15549895 0.021873329
0.60045803 0.15498665 0.021865174
0.60005903 0.15447436 0.02185702
0.59966004 0.15396208 0.021848865
0.59926099 0.15344977 0.02184071
0.59886199 0.15293749 0.021832556
0.598463 0.15242518 0.021824401
0.59806401 0.1519129 0.021816246
0.59766495 0.1514006 0.021808092
0.59726596 0.15088829 0.021799937
0.59686697 0.15037601 0.021791782
0.59646797 0.14986372 0.021783628
0.59606898 0.14935142 0.021775471
0.59566993 0.14883913 0.021767316
0.59527093 0.14832683 0.021759162
0.59487194 0.14781454 0.021751007
0.59447294 0.14730224 0.021742852
0.59407389 0.14678995 0.021734698
0.5936749 0.14627765 0.021726543
0.5932759 0.14576536 0.021718388
0.59287691 0.14525306 0.021710234
0.59247792 0.14474078 0.021702079
0.59207886 0.14422847 0.021693924
0.59167987 0.14371619 0.021685768
0.59128088 0.14320388 0.021677613
0.59166706 0.14222178 0.021249823
0.59126741 0.14170864 0.021241654
0.59165162 0.14072397 0.020813823
0.59203446 0.13973762 0.02038596
0.5916335 0.13922277 0.020377764
0.59201437 0.13823386 0.019949865
0.5916127 0.13771816 0.019941654
0.59199166 0.13672665 0.019513693
0.59158933 0.1362101 0.019505469
0.59196621 0.13521607 0.019077489
0.59156328 0.13469867 0.019069253
0.5919382 0.1337021 0.018641228
0.59153455 0.13318385 0.018632978
0.59113085 0.1326656 0.018624729
0.59072721 0.13214734 0.018616479
0.59032357 0.13162909 0.018608229
0.58991992 0.13111085 0.01859998
0.59029025 0.13010831 0.018171862
0.58988589 0.12958921 0.018163599
0.58948159 0.1290701 0.018155336
0.58907729 0.12855101 0.018147074
0.588673 0.12803191 0.018138809
0.5882687 0.1275128 0.018130546
0.5878644 0.1269937 0.018122284
0.58746004 0.1264746 0.018114019
0.58705574 0.12595549 0.018105756
0.58665144 0.1254364 0.018097494
0.58547986 0.12541008 0.018509233
0.58584285 0.12439819 0.018080967
0.56576514 0.12522332 0.025513051
0.56537277 0.12471954 0.025505032
0.56498039 0.12421576 0.025497012
0.56458801 0.12371197 0.025488993
0.56419563 0.12320819 0.025480974
0.56380326 0.1227044 0.025472954
0.56341088 0.12220062 0.025464935
0.5630185 0.12169684 0.025456915
0.56262612 0.12119305 0.025448896
0.56223369 0.12068927 0.025440877
0.56184131 0.12018548 0.025432857
0.56144893 0.11968169 0.025424838
0.56105655 0.11917792 0.025416819
0.56066418 0.11867413 0.025408799
