# .PCD v0.7 - Point Cloud Data file format
VERSION 0.7
FIELDS x y z
SIZE 4 4 4
TYPE F F F
COUNT 1 1 1
WIDTH 1389
HEIGHT 1
VIEWPOINT 0 0 0 1 0 0 0
POINTS 1389
DATA ascii
0.60433918 0.086847626 0.07959418
0.60380232 0.088300392 0.079251491
0.60326618 0.089755177 0.078908846
0.60190612 0.091730081 0.078208528
0.60054725 0.093709111 0.077508248
0.60001361 0.095172197 0.077165745
0.59865707 0.097158447 0.076465599
0.59812498 0.098626718 0.076123163
0.59677064 0.1006202 0.075423129
0.59624016 0.10209363 0.07508079
0.59571034 0.10356911 0.07473848
0.59518111 0.10504668 0.074396186
0.59547424 0.105999 0.074411504
0.59576738 0.10695131 0.074426815
0.59523946 0.10843299 0.07408461
0.59553289 0.10938633 0.074099943
0.59582633 0.11033966 0.074115276
0.59611976 0.11129302 0.074130602
0.59641325 0.11224636 0.074145935
0.59670669 0.1131997 0.074161269
0.59781921 0.11361747 0.074534021
0.59893119 0.11403313 0.074906766
0.60004246 0.11444676 0.075279459
0.60115314 0.11485831 0.075652115
0.60144532 0.11580752 0.075667381
0.60255498 0.11621596 0.076039992
0.60284686 0.11716413 0.076055244
0.60395557 0.11756949 0.07642781
0.60424709 0.11851662 0.076443039
0.60453862 0.11946376 0.076458275
0.60483015 0.1204109 0.076473504
0.60512173 0.12135804 0.076488741
0.57127619 0.013753777 0.073429629
0.57241935 0.014271908 0.073805049
0.57271087 0.015219047 0.073820285
0.5730024 0.016166186 0.073835514
0.57329392 0.017113326 0.073850751
0.57358551 0.018060466 0.07386598
0.57387704 0.019007605 0.073881216
0.57416856 0.019954745 0.073896445
0.57446009 0.020901885 0.073911682
0.57475162 0.021849025 0.073926911
0.57589167 0.022356778 0.074302182
0.57703102 0.022862487 0.074677408
0.57732189 0.023807546 0.074692607
0.57846028 0.024310175 0.075067788
0.57959801 0.024810709 0.075442918
0.58073515 0.025309179 0.075818032
0.58187169 0.025805579 0.076193124
0.58300751 0.026299901 0.076568164
0.58414274 0.026792172 0.076943167
0.58527732 0.02728238 0.077318147
0.5864113 0.027770488 0.077693097
0.58754462 0.028256547 0.078068003
0.58867729 0.028740555 0.078442886
0.5898093 0.029222483 0.078817725
0.59094065 0.029702332 0.079192527
0.59207147 0.030180125 0.079567328
0.59320158 0.030655842 0.079942062
0.59348804 0.031586442 0.079957031
0.5937745 0.032517023 0.079971999
0.59490335 0.032988612 0.080346666
0.59518945 0.033918168 0.08036162
0.59631735 0.034386676 0.08073625
0.59660316 0.035315197 0.080751181
0.5977301 0.035780568 0.081125773
0.59801561 0.036708061 0.08114069
0.5991416 0.037170324 0.081515208
0.59942675 0.038096793 0.081530109
0.59971189 0.039023247 0.08154501
0.60083663 0.039481409 0.081919469
0.60196072 0.039937481 0.082293905
0.60224521 0.040861867 0.082308769
0.60336834 0.041314859 0.082683139
0.60365254 0.042238221 0.082697995
0.60393679 0.043161567 0.082712844
0.60422099 0.044084929 0.082727693
0.60450518 0.045008291 0.082742542
0.60478938 0.045931637 0.082757391
0.60507363 0.046854999 0.08277224
0.60535783 0.047778361 0.082787089
0.60564202 0.048701707 0.082801938
0.60592628 0.049625069 0.082816787
0.60621047 0.050548431 0.082831644
0.60649467 0.051471777 0.082846493
0.60677886 0.052395139 0.082861342
0.60706311 0.053318501 0.082876191
0.60734731 0.054241847 0.08289104
0.6076315 0.055165209 0.082905889
0.6079157 0.056088571 0.082920738
0.60819995 0.057011917 0.082935587
0.60848415 0.057935279 0.082950436
0.60876834 0.05885864 0.082965292
0.6090526 0.059781987 0.082980141
0.60933679 0.060705349 0.08299499
0.60962099 0.06162871 0.083009839
0.60990518 0.062552057 0.083024688
0.61018944 0.063475423 0.083039537
0.61047363 0.06439878 0.083054386
0.61075783 0.065322146 0.083069235
0.61021203 0.066744812 0.082725026
0.61049658 0.067669213 0.082739897
0.60995173 0.069094993 0.082395732
0.60940754 0.070522845 0.082051598
0.60969275 0.071449302 0.082066499
0.6099779 0.072375767 0.0820814
0.60943496 0.073807769 0.081737347
0.60889268 0.075241849 0.081393301
0.60835099 0.076677978 0.081049301
0.60781002 0.078116171 0.080705345
0.60726964 0.079556443 0.080361418
0.60672987 0.080998793 0.0800175
0.60619074 0.0824432 0.07967364
0.60565227 0.083889671 0.079329818
0.60511446 0.08533819 0.078986019
0.6045773 0.086788811 0.078642257
0.60404068 0.08824151 0.078298517
0.60350478 0.089696236 0.077954821
0.6021452 0.091671005 0.077252403
0.60078692 0.093649909 0.076550022
0.60025352 0.09511292 0.076206468
0.59972078 0.096578002 0.075862937
0.59836566 0.098567247 0.075160727
0.59783453 0.1000375 0.074817285
0.59730399 0.10150982 0.074473865
0.59677416 0.10298421 0.07413049
0.59624493 0.10446066 0.073787145
0.59653771 0.10541193 0.073802441
0.59683055 0.10636321 0.073817745
0.59630251 0.10784383 0.073474444
0.59659564 0.10879613 0.073489763
0.59688878 0.10974844 0.073505074
0.59718186 0.11070075 0.073520392
0.59747499 0.11165306 0.073535703
0.59776813 0.11260537 0.073551022
0.59888017 0.11302213 0.073924832
0.5999915 0.11343686 0.07429859
0.60028398 0.1143871 0.074313879
0.60139436 0.11479872 0.074687585
0.60168654 0.11574793 0.074702851
0.60279596 0.11615643 0.075076513
0.60308784 0.1171046 0.075091764
0.60419631 0.11751003 0.075465374
0.60448784 0.11845715 0.075480603
0.60477936 0.11940429 0.075495839
0.60507089 0.12035143 0.075511068
0.60536242 0.12129857 0.075526305
0.60565394 0.12224571 0.075541534
0.57321995 0.012836326 0.07318864
0.57351118 0.01378244 0.073203854
0.57380241 0.014728539 0.073219076
0.57409358 0.015674638 0.07323429
0.57438481 0.016620751 0.073249504
0.57382619 0.018001001 0.072903551
0.57411772 0.01894814 0.072918788
0.57440925 0.01989528 0.072934017
0.57554966 0.020405166 0.073310368
0.57584089 0.021351265 0.073325582
0.57613212 0.022297379 0.073340796
0.57727116 0.02280315 0.07371708
0.57840961 0.023306871 0.074093319
0.57954741 0.023808496 0.074469522
0.5806846 0.024308069 0.074845701
0.5818212 0.024805561 0.075221866
0.58295709 0.025300989 0.075597972
0.58409238 0.02579435 0.07597404
0.58522701 0.026285661 0.076350085
0.58636105 0.026774874 0.076726109
0.58749437 0.027262025 0.077102087
0.5886271 0.027747137 0.077478029
0.58975917 0.028230157 0.07785394
0.59089065 0.02871111 0.078229807
0.59202147 0.029189995 0.078605667
0.59230828 0.030121634 0.07862065
0.59343809 0.030597415 0.07899645
0.59372455 0.031528015 0.079011418
0.59401101 0.0324586 0.079026379
0.59513956 0.032930247 0.079402104
0.59542567 0.033859808 0.07941705
0.59655333 0.034328379 0.079792731
0.59683913 0.0352569 0.079807661
0.59796584 0.035722334 0.080183305
0.59825134 0.036649827 0.080198221
0.59937704 0.037112158 0.08057379
0.59966218 0.038038626 0.080588691
0.59994739 0.03896508 0.080603592
0.60107183 0.039423309 0.080979109
0.60219562 0.039879445 0.081354581
0.60248017 0.040803831 0.081369452
0.60360301 0.04125689 0.081744879
0.6038872 0.042180248 0.081759728
0.60417145 0.043103598 0.081774577
0.60445565 0.04402696 0.081789427
0.60473984 0.044950318 0.081804276
0.60502404 0.045873668 0.081819125
0.60530829 0.04679703 0.081833974
0.60559249 0.047720388 0.08184883
0.60587668 0.048643738 0.081863679
0.60616094 0.0495671 0.081878528
0.60644513 0.050490458 0.081893377
0.60672933 0.051413808 0.081908226
0.60617906 0.052820921 0.081562713
0.60646355 0.053745307 0.081577584
0.6067481 0.054669697 0.081592448
0.6070326 0.055594083 0.081607312
0.60731715 0.056518484 0.081622183
0.6076017 0.05744287 0.081637047
0.6078862 0.05836726 0.081651911
0.60817075 0.059291646 0.081666782
0.6084553 0.060216047 0.081681646
0.60873979 0.061140433 0.08169651
0.60902435 0.062064823 0.081711382
0.60930884 0.062989205 0.081726246
0.60959339 0.063913614 0.081741109
0.60987794 0.064838 0.081755981
0.61016244 0.065762386 0.081770845
0.61044699 0.066686772 0.081785709
0.61073154 0.067611173 0.08180058
0.61018693 0.069036894 0.081455365
0.60964304 0.070464678 0.081110179
0.60992819 0.071391135 0.081125081
0.61021334 0.0723176 0.081139982
0.6096707 0.073749535 0.080794871
0.60912865 0.075183548 0.080449782
0.60858727 0.07661961 0.080104731
0.60804653 0.078057744 0.079759724
0.60750639 0.079497956 0.07941474
0.60696685 0.080940232 0.079069778
0.60642803 0.082384579 0.078724876
0.60588986 0.083830982 0.078379996
0.60617757 0.08476571 0.078395024
0.60564029 0.086215213 0.078050196
0.60427904 0.088182636 0.077345543
0.60374337 0.089637287 0.077000789
0.60238433 0.091611929 0.07629627
0.60185021 0.093071789 0.075951591
0.60049343 0.09505365 0.075247183
0.59996098 0.096518666 0.074902602
0.59942913 0.097985744 0.074558049
0.59889787 0.099454924 0.074213527
0.59836733 0.10092613 0.07386905
0.59783739 0.10239942 0.073524602
0.59730816 0.1038748 0.073180191
0.59760064 0.10482503 0.07319548
0.59789312 0.10577527 0.073210761
0.59736508 0.10725477 0.072866403
0.59765792 0.10820603 0.072881699
0.5979507 0.10915731 0.072897002
0.59824347 0.11010858 0.072912298
0.59853631 0.11105987 0.072927602
0.59882909 0.11201113 0.072942898
0.59912193 0.1129624 0.072958194
0.60023302 0.1133772 0.073333018
0.6005255 0.11432744 0.073348299
0.60163558 0.11473913 0.073723055
0.60192776 0.11568833 0.073738322
0.60303694 0.1160969 0.074113034
0.60332876 0.11704507 0.074128278
0.60443699 0.11745057 0.074502945
0.60472852 0.11839769 0.074518174
0.60502005 0.11934482 0.07453341
0.60531157 0.12029196 0.074548639
0.6056031 0.1212391 0.074563868
0.60589463 0.12218624 0.074579105
0.60537171 0.12368229 0.074235022
0.5734604 0.012776925 0.072227262
0.57460243 0.013293105 0.072604761
0.5748933 0.014238179 0.07261996
0.57518417 0.015183238 0.072635159
0.57462525 0.016561352 0.072288126
0.57491648 0.017507453 0.072303347
0.5743584 0.018888675 0.071956351
0.57549888 0.019399665 0.072333775
0.57579011 0.020345764 0.07234899
0.57608134 0.021291865 0.072364204
0.57722044 0.021798741 0.072741553
0.57751137 0.022743816 0.072756752
0.57864952 0.0232476 0.073134042
0.57978708 0.02374929 0.073511295
0.58092397 0.024248928 0.073888525
0.58206034 0.024746485 0.074265741
0.58319598 0.025241977 0.074642897
0.58433098 0.025735404 0.075020015
0.58546531 0.026226779 0.075397111
0.58659911 0.026716059 0.075774193
0.5877322 0.027203273 0.076151207
0.58886468 0.027688451 0.076528206
0.58999646 0.028171536 0.076905169
0.59112763 0.028652553 0.077282086
0.59225827 0.029131504 0.077658996
0.59338814 0.029608389 0.078035861
0.5936746 0.030538989 0.078050829
0.59396106 0.031469587 0.078065798
0.59508967 0.031942327 0.078442588
0.59537578 0.032871887 0.078457534
0.59566194 0.033801444 0.078472488
0.5967893 0.034270082 0.078849211
0.5970751 0.035198603 0.078864142
0.59820157 0.0356641 0.079240836
0.59848702 0.036591593 0.079255752
0.59961247 0.037053991 0.079632379
0.59989768 0.03798046 0.07964728
0.60018283 0.038906913 0.079662174
0.60130703 0.039365206 0.080038741
0.60243052 0.039821405 0.080415264
0.60271508 0.040745795 0.080430135
0.60383767 0.041198917 0.080806613
0.60412186 0.042122278 0.080821462
0.60440612 0.043045625 0.080836311
0.60469031 0.043968987 0.080851167
0.60497451 0.044892348 0.080866016
0.6052587 0.045815695 0.080880865
0.60554296 0.046739057 0.080895714
0.60582715 0.047662418 0.080910563
0.60611135 0.048585765 0.080925412
0.60639554 0.049509127 0.080940261
0.60584491 0.050914094 0.08059366
0.60612941 0.051838484 0.080608532
0.60641396 0.052762885 0.080623396
0.60669851 0.053687271 0.08063826
0.60698301 0.054611657 0.080653131
0.60726756 0.055536047 0.080667995
0.60755211 0.056460448 0.080682859
0.6078366 0.057384834 0.08069773
0.60812116 0.05830922 0.080712594
0.60840565 0.05923361 0.080727458
0.6086902 0.060158011 0.080742329
0.60897475 0.061082397 0.080757193
0.60925925 0.062006783 0.080772065
0.6095438 0.062931173 0.080786929
0.60982829 0.063855574 0.080801792
0.61011285 0.06477996 0.080816664
0.6103974 0.065704346 0.080831528
0.61068189 0.066628732 0.080846392
0.61013728 0.068053365 0.080500118
0.61042213 0.068978794 0.080514997
0.60987848 0.070406511 0.080168769
0.61016363 0.071332969 0.08018367
0.61044878 0.072259434 0.080198564
0.60990644 0.073691301 0.07985241
0.60936463 0.075125255 0.079506256
0.60882348 0.07656125 0.079160169
0.60828298 0.077999316 0.078814104
0.60774314 0.079439461 0.078468069
0.6072039 0.080881678 0.078122057
0.60666531 0.08232595 0.077776104
0.60612738 0.083772294 0.077430174
0.60641509 0.084707029 0.077445202
0.60587811 0.086156458 0.077099316
0.60451734 0.088123754 0.076392569
0.60398197 0.089578345 0.076046765
0.60262346 0.091552854 0.075340144
0.60208964 0.093012646 0.074994415
0.60155648 0.094474494 0.07464873
0.60102391 0.095938414 0.074303083
0.60049206 0.097404391 0.073957473
0.5999608 0.09887246 0.073611893
0.59943014 0.10034259 0.073266335
0.59890014 0.10181478 0.072920814
0.59837079 0.10328905 0.072575338
0.59866297 0.10423826 0.072590604
0.59895515 0.10518746 0.072605863
0.59842706 0.10666586 0.072260454
0.5987196 0.10761609 0.072275735
0.59901208 0.10856634 0.072291017
0.59930456 0.10951658 0.072306305
0.59959704 0.11046682 0.072321586
0.59988952 0.11141706 0.072336867
0.600182 0.1123673 0.072352149
0.60047448 0.11331753 0.07236743
0.60076696 0.11426778 0.072382711
0.60187685 0.11467953 0.072758526
0.60216898 0.11562873 0.072773784
0.60327792 0.11603736 0.073149547
0.60356975 0.11698554 0.073164798
0.60467768 0.11739109 0.073540516
0.6049692 0.11833822 0.073555745
0.60526079 0.11928536 0.073570974
0.60555232 0.1202325 0.073586211
0.60502899 0.1217264 0.07324104
0.60532087 0.12267456 0.073256291
0.6056127 0.12362276 0.073271535
0.60590458 0.12457092 0.073286787
0.57484257 0.01323377 0.071644433
0.5751335 0.014178843 0.071659632
0.57542437 0.015123903 0.071674831
0.5748657 0.016501952 0.071326748
0.57515693 0.017448051 0.071341962
0.5754481 0.01839415 0.071357176
0.57573932 0.019340264 0.07137239
0.57603055 0.020286364 0.071387611
0.57716972 0.020794332 0.071766026
0.57746065 0.021739405 0.071781226
0.57775152 0.022684479 0.071796425
0.57888943 0.023188328 0.072174765
0.58002675 0.023690084 0.072553068
0.58116341 0.024189787 0.072931349
0.58229947 0.024687409 0.073309615
0.58343482 0.025182966 0.073687822
0.58456957 0.025676459 0.074065991
0.58570367 0.026167899 0.074444138
0.58683717 0.026657242 0.074822269
0.58797002 0.027144521 0.075200342
0.58910221 0.027629765 0.075578384
0.59023374 0.028112914 0.075956397
0.59136468 0.028593997 0.076334372
0.59249502 0.029073011 0.076712333
0.59362465 0.029549962 0.077090241
0.59391111 0.030480562 0.077105209
0.59503978 0.030954406 0.077483058
0.59532595 0.031883966 0.077498011
0.59645367 0.032354735 0.07787583
0.59673947 0.033283252 0.077890761
0.59702528 0.034211785 0.077905692
0.5981518 0.034678377 0.078283451
0.59843725 0.03560587 0.078298375
0.59872276 0.036533363 0.078313291
0.59984791 0.036995824 0.078690961
0.60013312 0.037922293 0.078705862
0.60041827 0.038848747 0.078720756
0.60154217 0.039307103 0.079098374
0.60266548 0.039763369 0.079475954
0.60294998 0.040687755 0.079490826
0.60407233 0.041140944 0.079868354
0.60435653 0.042064305 0.079883203
0.60464072 0.042987652 0.079898052
0.60492498 0.043911014 0.079912901
0.60520917 0.044834375 0.07992775
0.60549337 0.045757722 0.079942599
0.60577762 0.046681084 0.079957448
0.60606182 0.047604445 0.079972297
0.60634601 0.048527792 0.079987146
0.60579532 0.049931671 0.079639487
0.60607982 0.050856058 0.079654351
0.60636437 0.051780444 0.079669222
0.60664886 0.052704848 0.079684086
0.60693341 0.053629234 0.07969895
0.60721797 0.054553621 0.079713821
0.60750246 0.055478007 0.079728685
0.60778701 0.056402411 0.079743549
0.60807151 0.057326797 0.079758421
0.60835606 0.058251183 0.079773284
0.60864061 0.05917557 0.079788148
0.6089251 0.060099974 0.07980302
0.60920966 0.06102436 0.079817884
0.60949421 0.061948746 0.079832748
0.6097787 0.062873133 0.079847619
0.61006325 0.063797534 0.079862483
0.61034775 0.06472192 0.079877347
0.6106323 0.065646313 0.079892218
0.61091685 0.066570699 0.079907082
0.61037248 0.067995265 0.079559743
0.61065733 0.068920687 0.07957463
0.61011392 0.070348345 0.079227351
0.61039907 0.071274802 0.079242244
0.61068428 0.072201267 0.079257146
0.61014211 0.073633067 0.078909941
0.6096006 0.075066954 0.078562744
0.60905975 0.076502889 0.078215592
0.60851949 0.077940889 0.077868484
0.60797995 0.079380974 0.077521406
0.60744095 0.080823123 0.077174343
0.6069026 0.082267329 0.076827325
0.60636497 0.083713613 0.076480344
0.60665268 0.084648341 0.076495379
0.60611594 0.08609771 0.07614845
0.6047557 0.088064872 0.075439587
0.60422057 0.089519396 0.07509274
0.60368609 0.090976015 0.074745931
0.60315222 0.092434704 0.074399151
0.60261893 0.093895473 0.074052386
0.60208637 0.09535829 0.073705666
0.60155445 0.096823193 0.07335899
0.60102314 0.09829013 0.073012345
0.60049248 0.099759154 0.072665721
0.59996235 0.10123027 0.072319135
0.59943295 0.10270342 0.071972586
0.59972483 0.1036516 0.071987838
0.60001665 0.10459977 0.072003081
0.59948856 0.10607708 0.0716566
0.59978074 0.10702628 0.071671866
0.60007286 0.10797548 0.071687132
0.60036504 0.10892469 0.071702398
0.5998385 0.11040715 0.071355999
0.60013103 0.1113574 0.07137128
0.60042351 0.11230765 0.071386561
0.60071599 0.11325788 0.071401842
0.60100847 0.11420812 0.071417131
0.60211807 0.11461993 0.071793988
0.60241026 0.11556914 0.071809255
0.60351884 0.11597783 0.072186068
0.60381073 0.11692601 0.072201319
0.60491842 0.11733163 0.07257808
0.60520995 0.11827876 0.072593316
0.60550147 0.1192259 0.072608545
0.605793 0.12017304 0.072623782
0.60526997 0.12166687 0.072277561
0.60556179 0.12261503 0.072292812
0.60585368 0.12356323 0.072308064
0.6061455 0.12451139 0.072323307
0.60643739 0.12545957 0.072338559
0.60672921 0.12640776 0.07235381
0.57423252 0.013604238 0.07031972
0.57537365 0.014119508 0.070699304
0.57566452 0.015064567 0.070714504
0.57595545 0.016009642 0.070729703
0.57539737 0.017388651 0.070380583
0.57568854 0.01833475 0.070395797
0.57597977 0.019280864 0.070411019
0.576271 0.020226963 0.070426233
0.57740992 0.020734996 0.070805699
0.57770079 0.02168007 0.070820898
0.57799172 0.022625143 0.070836097
0.5791294 0.023129057 0.071215488
0.58026642 0.023630878 0.071594842
0.58140278 0.024130646 0.071974173
0.5825386 0.024628332 0.072353482
0.58367372 0.025123956 0.072732739
0.58480817 0.025617512 0.073111966
0.58594203 0.026109017 0.073491164
0.58707529 0.026598426 0.073870346
0.58820784 0.02708577 0.074249461
0.58933979 0.027571078 0.074628562
0.59047103 0.028054293 0.075007625
0.59160173 0.028535441 0.075386651
0.59273177 0.02901452 0.075765662
0.59386116 0.029491536 0.076144621
0.59414762 0.030422134 0.076159589
0.59527606 0.030896045 0.076538496
0.59556216 0.031825602 0.076553442
0.59668964 0.032296438 0.076932311
0.59697545 0.033224955 0.076947242
0.59726125 0.034153488 0.076962173
0.59838748 0.034620143 0.07734099
0.59867299 0.035547636 0.077355906
0.59895849 0.036475129 0.077370822
0.60008341 0.036937658 0.077749543
0.60036856 0.037864126 0.077764437
0.60065371 0.038790576 0.077779338
0.60177737 0.039249003 0.078158006
0.60290039 0.039705332 0.078536637
0.60318494 0.040629718 0.078551501
0.60346943 0.041554105 0.078566372
0.60375398 0.042478506 0.078581236
0.60403854 0.043402895 0.0785961
0.60432303 0.044327281 0.078610972
0.60460758 0.045251682 0.078625835
0.60489208 0.046176072 0.078640699
0.60517663 0.047100458 0.078655571
0.60546118 0.048024844 0.078670435
0.60574567 0.048949245 0.078685306
0.60603023 0.049873635 0.07870017
0.60631478 0.050798021 0.078715034
0.60659927 0.051722407 0.078729905
0.60688382 0.052646808 0.078744769
0.60716832 0.053571198 0.078759633
0.60745287 0.054495584 0.078774504
0.60773742 0.05541997 0.078789368
0.60802191 0.056344371 0.078804232
0.60830647 0.057268761 0.078819104
0.60859096 0.058193147 0.078833967
0.60887551 0.059117533 0.078848831
0.60916007 0.060041934 0.078863703
0.60944456 0.060966324 0.078878567
0.60972911 0.06189071 0.078893431
0.61001366 0.0628151 0.078908302
0.61029816 0.063739501 0.078923166
0.61058271 0.064663887 0.07893803
0.6108672 0.065588273 0.078952901
0.61115175 0.066512659 0.078967765
0.61143631 0.06743706 0.078982629
0.61089253 0.068862587 0.078634262
0.61034936 0.070290178 0.078285933
0.61063457 0.071216635 0.078300826
0.61091971 0.0721431 0.078315727
0.61037785 0.073574841 0.077967472
0.60983658 0.075008661 0.077619225
0.60929596 0.076444529 0.077271022
0.60875601 0.077882461 0.076922864
0.6082167 0.07932248 0.076574735
0.60767794 0.080764562 0.076226622
0.60713989 0.082208708 0.075878561
0.60660249 0.083654925 0.075530522
0.6068902 0.084589653 0.075545557
0.60635376 0.086038955 0.07519757
0.60499406 0.08800599 0.074486621
0.60445917 0.089460447 0.074138716
0.60392493 0.090917006 0.073790856
0.60339135 0.092375629 0.073443025
0.60368097 0.09331657 0.073458157
0.60314828 0.094778299 0.073110357
0.60261631 0.096242093 0.072762609
0.60208493 0.097707957 0.072414897
0.60155421 0.099175863 0.072067216
0.60102409 0.10064586 0.071719564
0.60049462 0.10211795 0.071371935
0.60078615 0.10306509 0.071387172
0.60107768 0.10401223 0.071402401
0.60054952 0.10548841 0.071054846
0.60084134 0.10643658 0.071070097
0.60113317 0.10738476 0.071085349
0.60142505 0.10833292 0.071100593
0.60089844 0.1098143 0.070753127
0.60119063 0.11076351 0.070768394
0.60148281 0.11171271 0.07078366
0.60177493 0.11266191 0.070798919
0.60206711 0.11361112 0.070814185
0.60235929 0.11456034 0.070829451
0.603468 0.11497014 0.071207337
0.60375983 0.1159183 0.071222588
0.60405171 0.11686648 0.071237832
0.6051591 0.11727217 0.071615651
0.60545063 0.11821929 0.071630888
0.60574216 0.11916643 0.071646117
0.60603368 0.12011357 0.071661353
0.60551095 0.12160734 0.071314082
0.60580277 0.1225555 0.071329325
0.60609466 0.1235037 0.071344577
0.60638648 0.12445186 0.071359828
0.60667831 0.12540004 0.071375072
0.60697019 0.12634823 0.071390323
0.57561386 0.014060171 0.069738969
0.57590473 0.015005231 0.069754168
0.5761956 0.015950305 0.069769368
0.57648653 0.016895378 0.069784567
0.5767774 0.017840452 0.069799766
0.57706833 0.018785527 0.069814965
0.5773592 0.019730587 0.069830164
0.57765007 0.020675659 0.069845363
0.577941 0.021620734 0.069860563
0.57823187 0.022565808 0.069875754
0.57936931 0.023069788 0.070256211
0.58050603 0.023571672 0.070636615
0.58164215 0.024071505 0.07101699
0.58277774 0.024569256 0.071397357
0.58391255 0.025064945 0.071777672
0.58504677 0.025558567 0.072157942
0.58618033 0.026050137 0.07253819
0.58731335 0.026539609 0.072918423
0.58844566 0.02702702 0.073298588
0.58957732 0.027512392 0.073678739
0.59070832 0.027995672 0.074058853
0.59183872 0.028476885 0.07443893
0.59296852 0.028956028 0.074818984
0.59409767 0.029433109 0.075199008
0.59438413 0.030363709 0.075213976
0.59551227 0.030837683 0.075593926
0.59579837 0.031767242 0.075608879
0.59692562 0.032238141 0.075988792
0.59721142 0.033166658 0.076003723
0.59749722 0.03409519 0.076018654
0.59862322 0.034561913 0.076398514
0.59890872 0.035489406 0.07641343
0.6000337 0.035953037 0.076793231
0.60031885 0.036879491 0.076808125
0.600604 0.03780596 0.076823026
0.60088915 0.038732409 0.076837927
0.60201257 0.0391909 0.077217638
0.60229743 0.040116325 0.077232525
0.60258228 0.041041739 0.077247404
0.60370439 0.041496068 0.077627055
0.60398889 0.042420469 0.077641919
0.60427344 0.043344855 0.077656783
0.60455799 0.044269245 0.077671655
0.60484248 0.045193646 0.077686518
0.60512704 0.046118032 0.077701382
0.60541153 0.047042422 0.077716254
0.60569608 0.047966808 0.077731118
0.60598063 0.048891209 0.077745982
0.60626513 0.049815595 0.077760853
0.60654968 0.050739985 0.077775717
0.60683423 0.051664371 0.077790581
0.60711873 0.052588772 0.077805452
0.60740328 0.053513158 0.077820316
0.60852063 0.053951986 0.078199722
0.60880482 0.054875348 0.078214571
0.60908902 0.055798709 0.07822942
0.60937327 0.056722056 0.078244269
0.60965747 0.057645418 0.078259118
0.60994166 0.058568779 0.078273967
0.61022586 0.059492126 0.078288823
0.61051011 0.060415488 0.078303672
0.61079431 0.061338849 0.078318521
0.6110785 0.062262196 0.07833337
0.6113627 0.063185558 0.078348219
0.61081761 0.064605847 0.077998713
0.61110216 0.065530233 0.078013584
0.61138666 0.066454619 0.078028448
0.61167121 0.06737902 0.078043312
0.61112767 0.068804488 0.077693902
0.6105848 0.070232011 0.077344514
0.61087 0.071158469 0.077359416
0.61115515 0.072084934 0.077374317
0.61061352 0.073516607 0.077025004
0.61007255 0.07495036 0.076675706
0.60953218 0.076386169 0.07632646
0.60899252 0.077824034 0.075977251
0.60845345 0.079263985 0.075628065
0.60791498 0.080706008 0.075278901
0.60737717 0.082150087 0.074929789
0.60684007 0.083596237 0.074580699
0.60712779 0.084530964 0.074595734
0.60659158 0.085980207 0.074246705
0.60605603 0.087431528 0.073897712
0.60552102 0.088884927 0.073548727
0.60498679 0.090340383 0.073199786
0.60445315 0.091797896 0.072850898
0.6039201 0.093257494 0.072502032
0.60338765 0.094719164 0.072153181
0.60367763 0.095661126 0.072168328
0.6031462 0.09712588 0.071819544
0.60261542 0.098592721 0.071470805
0.60208529 0.1000616 0.07112208
0.60155576 0.10153257 0.070773393
0.60184699 0.10247867 0.070788614
0.60213822 0.10342478 0.070803829
0.60160989 0.1048999 0.070455201
0.60190141 0.10584704 0.070470437
0.602193 0.10679418 0.070485666
0.60248452 0.10774132 0.070500903
0.60195786 0.10922157 0.070152365
0.60224968 0.11016974 0.070167616
0.60172403 0.11165311 0.069819123
0.60201621 0.11260232 0.069834389
0.60230833 0.11355153 0.069849655
0.60260051 0.11450075 0.069864921
0.60370898 0.11491061 0.070243858
0.60400081 0.11585877 0.070259109
0.60429263 0.11680695 0.07027436
0.60539985 0.1172127 0.070653223
0.60569137 0.11815982 0.070668451
0.6059829 0.11910696 0.070683688
0.60627443 0.1200541 0.070698917
0.60575193 0.12154781 0.070350602
0.60604376 0.12249597 0.070365854
0.60633558 0.12344417 0.070381097
0.60662746 0.12439233 0.070396349
0.60691929 0.12534051 0.0704116
0.60721117 0.1262887 0.070426844
0.607503 0.12723686 0.070442095
0.575854 0.014000836 0.068778642
0.57614493 0.014945895 0.068793833
0.5764358 0.015890969 0.068809032
0.57672668 0.016836043 0.068824232
0.57701761 0.017781118 0.068839431
0.57730848 0.018726191 0.06885463
0.57759941 0.01967125 0.068869829
0.57789028 0.020616325 0.068885028
0.57818115 0.021561397 0.068900228
0.57847208 0.022506472 0.068915427
0.57960922 0.023010517 0.069296926
0.5807457 0.023512466 0.069678389
0.58188158 0.024012364 0.070059821
0.58301681 0.024510181 0.070441231
0.58415145 0.025005933 0.070822597
0.58528537 0.02549962 0.071203917
0.58641869 0.025991255 0.071585216
0.58755141 0.026480794 0.071966492
0.58868349 0.026968269 0.072347723
0.58981484 0.027453706 0.072728917
0.59094566 0.027937049 0.073110081
0.59207577 0.028418327 0.073491201
0.59320533 0.028897537 0.07387232
0.59433419 0.029374683 0.074253388
0.59462059 0.030305281 0.074268349
0.59574854 0.030779321 0.074649356
0.59603465 0.031708881 0.074664302
0.59716159 0.032179844 0.075045273
0.5974474 0.033108361 0.075060204
0.5977332 0.034036893 0.075075135
0.59885889 0.03450368 0.075456053
0.5991444 0.035431173 0.075470969
0.60026914 0.035894871 0.075851813
0.60055429 0.036821324 0.075866707
0.60083944 0.037747789 0.075881608
0.60112464 0.038674243 0.075896509
0.60140979 0.039600711 0.07591141
0.60253263 0.040058225 0.076292157
0.60281748 0.040983636 0.076307043
0.60393929 0.041438032 0.076687746
0.60422385 0.042362433 0.07670261
0.60450834 0.043286819 0.076717474
0.60479289 0.044211209 0.076732345
0.60507745 0.04513561 0.076747209
0.60536194 0.046059996 0.076762073
0.60564649 0.046984382 0.076776944
0.60593098 0.047908772 0.076791808
0.60621554 0.048833173 0.076806672
0.60650009 0.049757559 0.076821543
0.60678458 0.050681945 0.076836407
0.60706913 0.051606335 0.076851271
0.60735369 0.052530736 0.076866142
0.60763818 0.053455122 0.076881006
0.60875529 0.053894013 0.077261448
0.60903949 0.054817375 0.077276297
0.60932368 0.055740736 0.077291146
0.60960793 0.056664083 0.077306002
0.60989213 0.057587445 0.077320851
0.61017632 0.058510806 0.0773357
0.61046052 0.059434153 0.077350549
0.61074477 0.060357515 0.077365398
0.61102897 0.061280876 0.077380247
0.61131316 0.062204223 0.077395096
0.61159736 0.063127585 0.077409945
0.61105257 0.064547814 0.077059403
0.61133707 0.065472201 0.077074267
0.61162162 0.066396587 0.077089138
0.61190611 0.067320988 0.077104002
0.61136287 0.068746381 0.076753534
0.61082029 0.070173845 0.076403096
0.61110544 0.071100295 0.076417997
0.61139059 0.072026767 0.076432899
0.61084926 0.073458374 0.076082535
0.61030853 0.074892066 0.075732186
0.60976845 0.076327801 0.075381882
0.60922903 0.077765614 0.075031631
0.6086902 0.079205498 0.074681394
0.60815203 0.080647454 0.074331172
0.60761452 0.082091466 0.073981017
0.6070776 0.083537549 0.073630884
0.60736531 0.084472284 0.07364592
0.6068294 0.085921459 0.073295832
0.6062941 0.087372713 0.072945789
0.60575938 0.088826045 0.072595753
0.60522538 0.090281434 0.072245762
0.60551435 0.091220297 0.072260864
0.6049813 0.092678793 0.07191094
0.60444885 0.094139345 0.071561038
0.603917 0.095601991 0.071211152
0.60338587 0.097066678 0.070861317
0.60285532 0.098533444 0.07051152
0.60232544 0.10000227 0.070161752
0.60179621 0.10147317 0.069812022
0.60208744 0.10241927 0.069827236
0.60237867 0.10336538 0.06984245
0.60185063 0.10484044 0.069492772
0.60214216 0.10578758 0.069508009
0.60243368 0.10673472 0.069523238
0.60272521 0.10768186 0.069538474
0.60219884 0.10916204 0.069188885
0.60249066 0.11011021 0.069204129
0.60278255 0.11105838 0.069219381
0.60307437 0.11200655 0.069234632
0.6033662 0.11295474 0.069249876
0.60365808 0.1139029 0.069265127
0.6039499 0.11485108 0.069280379
0.60424179 0.11579924 0.069295622
0.60453361 0.11674742 0.069310874
0.60564053 0.11715323 0.069690794
0.60593206 0.11810036 0.069706023
0.60622358 0.1190475 0.069721259
0.60570103 0.12054011 0.069371872
0.60599285 0.12148828 0.069387116
0.60628474 0.12243644 0.069402367
0.60657656 0.12338464 0.069417618
0.60686845 0.1243328 0.069432862
0.60716027 0.12528096 0.069448113
0.60745215 0.12622917 0.069463365
0.60774398 0.12717733 0.069478616
0.57723391 0.014454913 0.068201013
0.57752448 0.015398948 0.068216197
0.57696688 0.016776707 0.067863904
0.57725775 0.017721782 0.067879103
0.57754868 0.018666856 0.067894302
0.57783955 0.019611916 0.067909501
0.57813048 0.020556988 0.067924701
0.57842135 0.021502063 0.0679399
0.57871222 0.022447137 0.067955099
0.57984912 0.022951245 0.068337657
0.58098537 0.02345326 0.068720162
0.58212095 0.023953224 0.069102637
0.58325595 0.024451105 0.069485106
0.58439028 0.024946922 0.069867522
0.58552396 0.025440674 0.070249893
0.58665705 0.025932373 0.070632242
0.58778948 0.026421977 0.071014568
0.58892125 0.026909517 0.071396843
0.59005243 0.027395019 0.071779095
0.59118295 0.027878428 0.072161309
0.59231281 0.028359771 0.07254348
0.59344208 0.028839044 0.07292565
0.5945707 0.029316256 0.073307768
0.5948571 0.030246854 0.073322728
0.59598476 0.030720958 0.073704787
0.59627086 0.031650517 0.073719732
0.59739757 0.032121547 0.074101754
0.59768337 0.033050064 0.074116692
0.59796917 0.0339786 0.074131623
0.59909463 0.03444545 0.074513584
0.59938014 0.035372943 0.0745285
0.60050458 0.035836704 0.074910387
0.60078973 0.036763158 0.074925289
0.60107493 0.037689622 0.07494019
0.60136008 0.038616076 0.074955091
0.60164523 0.039542545 0.074969992
0.60276777 0.040000122 0.075351797
0.60305262 0.040925536 0.075366676
0.6041742 0.041379996 0.075748421
0.60445875 0.042304397 0.075763293
0.6047433 0.043228783 0.075778157
0.60502779 0.044153169 0.07579302
0.60531235 0.04507757 0.075807892
0.6055969 0.04600196 0.075822756
0.60588139 0.046926346 0.07583762
0.60616595 0.047850732 0.075852491
0.60645044 0.048775133 0.075867355
0.60673499 0.049699523 0.075882219
0.60701954 0.050623909 0.07589709
0.60730404 0.051548295 0.075911954
0.60758859 0.052472696 0.075926825
0.60787314 0.053397086 0.075941689
0.60898995 0.053836044 0.076323189
0.60927415 0.054759406 0.076338038
0.60955834 0.055682763 0.076352887
0.6098426 0.056606114 0.076367736
0.61012679 0.057529476 0.076382585
0.61041099 0.058452833 0.076397434
0.61069518 0.059376184 0.076412283
0.61097944 0.060299546 0.076427132
0.61126363 0.061222903 0.076441988
0.61154783 0.062146254 0.076456837
0.61183202 0.063069612 0.076471686
0.61128747 0.064489774 0.076120086
0.61157203 0.06541416 0.07613495
0.61185652 0.066338547 0.076149821
0.61214107 0.067262948 0.076164685
0.61159807 0.068688281 0.075813167
0.61105573 0.070115678 0.075461678
0.61134088 0.071042128 0.075476579
0.61162603 0.0719686 0.075491481
0.611085 0.07340014 0.075140074
0.6105445 0.074833766 0.074788675
0.61000466 0.07626944 0.074437313
0.60946554 0.077707186 0.07408601
0.60892701 0.079147004 0.073734723
0.60838902 0.080588892 0.073383451
0.6078518 0.082032844 0.073032245
0.60813916 0.082966536 0.073047258
0.60760289 0.084413595 0.072696097
0.60706723 0.085862704 0.072344951
0.60653216 0.087313898 0.071993858
0.60599774 0.088767171 0.071642779
0.60546398 0.090222485 0.071291737
0.60575294 0.091161348 0.07130684
0.60522014 0.092619777 0.070955865
0.60468799 0.094080269 0.070604913
0.60415643 0.095542848 0.070253976
0.60362554 0.097007468 0.069903091
0.60309523 0.098474175 0.069552243
0.60338581 0.099418208 0.069567427
0.60285652 0.10088801 0.069216624
0.60314745 0.10183307 0.069231816
0.60343832 0.10277814 0.069247015
0.60291028 0.10425209 0.068896286
0.60320151 0.10519818 0.0689115
0.60349274 0.10614429 0.068926714
0.60378397 0.1070904 0.068941928
0.60325748 0.10856953 0.068591274
0.603549 0.10951667 0.068606503
0.60384053 0.11046381 0.06862174
0.60413206 0.11141093 0.068636969
0.60442358 0.11235807 0.068652205
0.60389906 0.11384337 0.06830164
0.60500664 0.11425235 0.068682663
0.60529816 0.11519949 0.0686979
0.60558969 0.11614663 0.068713129
0.60588121 0.11709377 0.068728365
0.60617274 0.1180409 0.068743594
0.60646427 0.11898804 0.06875883
0.60594201 0.12048058 0.068408385
0.60623384 0.12142875 0.068423636
0.60652566 0.12237691 0.06843888
0.60681754 0.12332511 0.068454131
0.60710937 0.12427327 0.068469383
0.60740125 0.12522143 0.068484627
0.60769308 0.12616964 0.068499878
0.60798496 0.1271178 0.068515129
0.57747388 0.014395643 0.067241728
0.57776445 0.015339676 0.067256913
0.57720709 0.016717372 0.066903576
0.57749796 0.017662445 0.066918775
0.57778883 0.01860752 0.066933975
0.57807976 0.019552579 0.066949174
0.57837063 0.020497654 0.066964373
0.57866156 0.021442726 0.066979572
0.57895243 0.022387801 0.066994771
0.58008903 0.022891976 0.067378372
0.58122504 0.023394056 0.067761928
0.58236033 0.023894083 0.068145461
0.58349508 0.024392029 0.06852898
0.58462918 0.024887912 0.068912446
0.58576256 0.025381727 0.069295861
0.58689535 0.025873493 0.069679268
0.5880276 0.02636316 0.070062645
0.58915907 0.026850766 0.07044597
0.59028995 0.027336333 0.070829272
0.59142023 0.027819807 0.071212538
0.5925498 0.028301213 0.071595758
0.59367883 0.028780553 0.071978979
0.59480715 0.029257828 0.07236214
0.59509361 0.030188428 0.072377108
0.59622097 0.030662598 0.072760217
0.59650713 0.031592157 0.07277517
0.59763354 0.032063249 0.073158234
0.59791934 0.032991767 0.073173173
0.59820515 0.033920303 0.073188104
0.59933037 0.034387216 0.073571116
0.59961581 0.035314709 0.073586032
0.59990132 0.036242202 0.073600948
0.60018682 0.037169695 0.073615864
0.60131037 0.037631456 0.073998779
0.60159552 0.038557909 0.07401368
0.60188067 0.039484378 0.074028574
0.60216588 0.040410832 0.074043475
0.60328782 0.040867433 0.074426308
0.60357267 0.041792862 0.074441187
0.60385752 0.042718288 0.074456073
0.60414237 0.043643713 0.074470952
0.60442722 0.044569142 0.074485838
0.60471207 0.045494568 0.074500717
0.60499692 0.046419982 0.074515603
0.60611635 0.046868309 0.074898303
0.60640085 0.047792695 0.074913174
0.6066854 0.048717096 0.074928038
0.60696989 0.049641483 0.074942902
0.60725445 0.050565872 0.074957773
0.607539 0.051490258 0.074972637
0.60782349 0.052414659 0.074987501
0.60810804 0.053339045 0.075002372
0.60922462 0.053778071 0.075384922
0.60950881 0.054701433 0.075399771
0.60979301 0.055624794 0.07541462
0.6100772 0.056548141 0.075429469
0.61036146 0.057471503 0.075444318
0.61064565 0.058394864 0.075459175
0.61092985 0.059318211 0.075474024
0.6112141 0.060241573 0.075488873
0.6114983 0.061164934 0.075503722
0.61178249 0.062088281 0.075518571
0.61206669 0.063011639 0.07553342
0.61152238 0.064431734 0.075180769
0.61180693 0.06535612 0.075195633
0.61209148 0.066280514 0.075210497
0.61237597 0.067204915 0.075225368
0.61183327 0.068630181 0.074872799
0.61129117 0.070057511 0.074520268
0.61157632 0.070983961 0.074535169
0.61186153 0.071910433 0.07455007
0.61132067 0.073341914 0.074197605
0.61078048 0.074775472 0.073845156
0.61024094 0.07621108 0.073492751
0.60970199 0.077648759 0.073140383
0.60916376 0.079088509 0.072788052
0.60862607 0.080530338 0.072435729
0.60808909 0.081974223 0.072083473
0.60837644 0.082907915 0.072098494
0.60784042 0.084354907 0.071746267
0.60730499 0.085803956 0.071394086
0.60677028 0.087255076 0.071041934
0.60623604 0.088708289 0.070689797
0.60570258 0.090163544 0.070337713
0.60599154 0.091102406 0.070352815
0.60545903 0.092560768 0.07000079
0.60492712 0.094021194 0.069648787
0.60521674 0.094962135 0.06966392
0.60468572 0.096425675 0.069311947
0.60415542 0.097891271 0.068960026
0.6044457 0.098834284 0.068975195
0.60473597 0.099777274 0.068990357
0.60420692 0.10124702 0.068638511
0.60449749 0.10219105 0.068653695
0.60478806 0.10313509 0.06866888
0.60426027 0.10460895 0.068317086
0.6045512 0.10555401 0.068332285
0.60484207 0.10649908 0.068347484
0.60431558 0.10797709 0.067995764
0.60460681 0.10892321 0.068010978
0.60489804 0.10986931 0.068026192
0.6051892 0.11081541 0.068041414
0.60548043 0.11176152 0.068056628
0.60495579 0.11324575 0.067705005
0.60524732 0.11419289 0.067720234
0.60553885 0.11514003 0.067735471
0.60583043 0.11608716 0.0677507
0.60612196 0.1170343 0.067765936
0.60641348 0.11798143 0.067781165
0.60670501 0.11892857 0.067796394
0.60618293 0.12042105 0.067444906
0.60647482 0.12136922 0.067460157
0.60676664 0.12231738 0.067475408
0.60705853 0.12326558 0.06749066
0.60735035 0.12421374 0.067505904
0.60764223 0.1251619 0.067521155
0.60793406 0.12611011 0.067536406
0.60822588 0.12705827 0.06755165
0.57686543 0.014767889 0.06591285
0.57715636 0.015712963 0.065928049
0.57659954 0.017091649 0.065573685
0.57689077 0.018037748 0.065588899
0.57718199 0.018983861 0.065604113
0.57747322 0.01992996 0.065619335
0.57776439 0.020876061 0.065634549
0.57890171 0.021383392 0.066019244
0.57919264 0.022328464 0.066034444
0.58032894 0.022832705 0.066419095
0.58146465 0.02333485 0.066803701
0.58259976 0.023834942 0.067188285
0.58373421 0.024332954 0.067572854
0.58486801 0.0248289 0.067957364
0.58600116 0.025322782 0.068341836
0.58713371 0.025814611 0.068726294
0.58826566 0.026304344 0.069110721
0.58939689 0.026792014 0.069495104
0.59052753 0.027277647 0.06987945
0.59165752 0.027761186 0.070263766
0.59278685 0.028242657 0.070648044
0.59391558 0.028722061 0.071032308
0.59504366 0.029199403 0.07141652
0.59533012 0.030130001 0.071431488
0.59645724 0.030604236 0.071815655
0.59674335 0.031533796 0.071830601
0.59786952 0.032004952 0.072214715
0.59815532 0.03293347 0.072229646
0.59844112 0.033862006 0.072244585
0.59956604 0.034328986 0.072628655
0.59985155 0.035256479 0.072643571
0.60013705 0.036183972 0.072658487
0.6004225 0.037111465 0.072673403
0.60154581 0.037573289 0.073057361
0.60183096 0.038499743 0.073072262
0.60211617 0.039426211 0.073087156
0.60240132 0.040352661 0.073102057
0.60352302 0.04080933 0.073485941
0.60380787 0.041734759 0.073500827
0.60409272 0.042660184 0.073515706
0.60437757 0.043585613 0.073530592
0.60466242 0.044511039 0.073545471
0.60494727 0.045436468 0.073560357
0.60523212 0.046361879 0.073575236
0.60551697 0.047287308 0.073590122
0.60580182 0.048212733 0.073605008
0.60608667 0.049138162 0.073619887
0.60637152 0.050063588 0.073634773
0.60665631 0.050989017 0.073649652
0.6077739 0.051432222 0.074033327
0.60805845 0.052356623 0.074048191
0.60834295 0.053281009 0.074063063
0.60945928 0.053720098 0.074446656
0.60974348 0.05464346 0.074461512
0.61002767 0.055566821 0.074476361
0.61031187 0.056490168 0.07449121
0.61059612 0.05741353 0.074506059
0.61088032 0.058336891 0.074520908
0.61116451 0.059260238 0.074535757
0.61144876 0.0601836 0.074550606
0.61173296 0.061106961 0.074565455
0.61201715 0.062030308 0.074580304
0.61230135 0.062953666 0.074595153
0.61175734 0.064373702 0.074241459
0.61204183 0.065298088 0.074256323
0.61232638 0.066222474 0.074271187
0.61261094 0.067146875 0.074286059
0.61206847 0.068572074 0.073932432
0.61152661 0.069999345 0.073578849
0.61181182 0.070925795 0.073593751
0.61209697 0.071852267 0.073608652
0.61155641 0.07328368 0.073255137
0.61101645 0.074717171 0.072901636
0.61047715 0.07615272 0.072548181
0.6099385 0.077590331 0.072194763
0.60940051 0.079030022 0.071841381
0.60886312 0.080471784 0.071488015
0.60832638 0.081915602 0.071134701
0.60861373 0.082849294 0.071149714
0.608078 0.084296219 0.070796445
0.60754281 0.085745201 0.070443213
0.60700834 0.087196261 0.070090011
0.6064744 0.088649407 0.069736831
0.60594118 0.090104595 0.069383688
0.60623014 0.091043457 0.069398791
0.60569787 0.09250176 0.069045708
0.60598719 0.093441658 0.069060825
0.60627651 0.094381563 0.069075942
0.60574549 0.095843993 0.068722926
0.60521507 0.097308502 0.068369918
0.60550499 0.098250471 0.068385065
0.60579497 0.099192441 0.068400212
0.60526586 0.10066108 0.0680473
0.60555613 0.10160407 0.068062462
0.60584635 0.10254708 0.068077631
0.60531855 0.10401985 0.067724787
0.60560912 0.10496388 0.067739964
0.60589969 0.10590793 0.067755148
0.60537314 0.10738482 0.067402355
0.60566407 0.1083299 0.067417555
0.60513848 0.10980991 0.067064822
0.60542965 0.11075601 0.067080036
0.60572088 0.11170212 0.06709525
0.60601211 0.11264822 0.067110464
0.60630333 0.11359432 0.067125686
0.6065945 0.11454044 0.0671409
0.60607111 0.1160277 0.066788271
0.60636264 0.11697484 0.0668035
0.60665417 0.11792196 0.066818736
0.60694569 0.1188691 0.066833965
0.60642391 0.12036152 0.066481426
0.6067158 0.12130969 0.06649667
0.60700762 0.12225785 0.066511922
0.60729951 0.12320605 0.066527173
0.60759133 0.12415421 0.066542424
0.60788316 0.12510237 0.066557668
0.60817504 0.12605058 0.066572919
0.60846686 0.12699874 0.066588171
0.60986102 0.1283405 0.066986293
0.61015254 0.12928765 0.067001522
0.57596636 0.014193934 0.064566657
0.57880175 0.013845621 0.065693818
0.57909197 0.014788629 0.06570898
0.57599252 0.017465811 0.064241678
0.57628405 0.018412951 0.064256907
0.57742244 0.01892446 0.064642735
0.57771367 0.019870561 0.064657949
0.57800484 0.02081666 0.064673163
0.57914191 0.021324055 0.065058917
0.57943279 0.02226913 0.065074116
0.58056885 0.022773433 0.065459818
0.58170432 0.023275644 0.065845475
0.58283913 0.023775801 0.066231109
0.58397335 0.024273876 0.066616729
0.58510691 0.024769889 0.067002296
0.58623981 0.025263835 0.067387812
0.58737206 0.02575573 0.067773312
0.58850372 0.026245529 0.068158798
0.58963472 0.026733262 0.068544224
0.59076506 0.02721896 0.068929628
0.59189481 0.027702564 0.069314994
0.5930239 0.028184101 0.069700323
0.59415239 0.02866357 0.070085637
0.59528017 0.029140975 0.070470907
0.59556663 0.030071575 0.070485875
0.59669346 0.030545874 0.070871077
0.59697956 0.031475432 0.070886031
0.59810549 0.031946655 0.071271196
0.59839129 0.032875173 0.071286127
0.5986771 0.033803709 0.071301065
0.59980178 0.034270752 0.071686178
0.60008729 0.035198245 0.071701095
0.60037273 0.036125738 0.071716011
0.60065824 0.037053231 0.071730927
0.60178125 0.037515122 0.072115943
0.6020664 0.038441576 0.072130837
0.60235161 0.039368041 0.072145738
0.60263675 0.040294494 0.072160639
0.60375822 0.04075123 0.072545573
0.60404307 0.041676655 0.072560459
0.60432792 0.042602085 0.072575338
0.60461277 0.04352751 0.072590224
0.60489762 0.044452939 0.072605111
0.60518247 0.045378365 0.07261999
0.60546726 0.046303779 0.072634876
0.60575211 0.047229204 0.072649755
0.60603696 0.048154633 0.072664641
0.60632181 0.049080059 0.07267952
0.60660666 0.050005488 0.072694406
0.60689151 0.050930914 0.072709292
0.6080088 0.051374186 0.07309401
0.60829335 0.052298587 0.073108874
0.60857791 0.053222973 0.073123738
0.60969394 0.053662125 0.073508397
0.60997814 0.054585487 0.073523246
0.61026233 0.055508848 0.073538095
0.61054653 0.056432195 0.073552944
0.61083078 0.057355557 0.073567793
0.61111498 0.058278918 0.073582642
0.61139917 0.059202265 0.073597491
0.61168343 0.060125627 0.073612347
0.61196762 0.061048988 0.073627196
0.61225182 0.061972335 0.073642045
0.61253601 0.0628957 0.073656894
0.61199224 0.064315662 0.073302142
0.61227679 0.065240048 0.073317006
0.61256129 0.066164434 0.07333187
0.61284584 0.067088835 0.073346741
0.61230361 0.068513975 0.072992064
0.61176205 0.069941178 0.072637431
0.61122113 0.07137046 0.072282836
0.61068082 0.072801828 0.071928248
0.61096662 0.073730357 0.071943179
0.61042726 0.075164795 0.071588658
0.61071342 0.076094359 0.071603611
0.61017501 0.077531904 0.07124915
0.60963726 0.078971528 0.070894711
0.6091001 0.080413222 0.070540294
0.60856366 0.081856981 0.07018593
0.60885102 0.082790673 0.070200942
0.60831553 0.084237538 0.069846623
0.60778064 0.085686453 0.069492333
0.6072464 0.087137446 0.069138087
0.60671276 0.088590525 0.068783849
0.60617977 0.090045653 0.068429664
0.60646874 0.090984508 0.068444759
0.60675776 0.091923371 0.068459861
0.60622603 0.093382649 0.06810575
0.60651535 0.094322547 0.068120867
0.60680467 0.095262453 0.068135984
0.60627425 0.096725859 0.067781933
0.60656387 0.097666785 0.067797065
0.60685349 0.098607726 0.067812197
0.60632426 0.10007527 0.06745819
0.60661423 0.10101723 0.067473337
0.60690415 0.1019592 0.067488492
0.60637629 0.10343088 0.067134567
0.60666656 0.10437387 0.067149729
0.60695678 0.10531688 0.067164898
0.60643023 0.1067927 0.066811047
0.60672081 0.10773673 0.066826232
0.60619515 0.10921563 0.066472426
0.60648602 0.11016069 0.066487625
0.60677689 0.11110577 0.066502824
0.60706782 0.11205085 0.066518024
0.60654378 0.11353492 0.0661643
0.60683495 0.11448103 0.066179514
0.6063118 0.11596823 0.065825835
0.60660332 0.11691537 0.065841064
0.60689485 0.1178625 0.0658563
0.60718644 0.11880964 0.065871529
0.6066649 0.12030199 0.065517947
0.60695672 0.12125016 0.065533198
0.6072486 0.12219832 0.065548442
0.60754043 0.12314652 0.065563694
0.60783231 0.12409468 0.065578945
0.60812414 0.12504284 0.065594196
0.60841602 0.12599105 0.06560944
0.60870785 0.12693921 0.065624692
0.60899967 0.12788737 0.065639943
0.61091197 0.12772648 0.066392533
0.61201304 0.12811704 0.066776402
0.61230391 0.12906213 0.066791601
0.5762068 0.014134534 0.063605279
0.57904136 0.013786415 0.064735591
0.57933164 0.014729423 0.064750753
0.57623327 0.017406346 0.063279249
0.57652479 0.018353486 0.063294478
0.57766289 0.01886506 0.063681357
0.57795411 0.019811161 0.063696571
0.57824528 0.02075726 0.063711792
0.57938206 0.021264721 0.064098589
0.57967299 0.022209793 0.064113788
0.58080882 0.022714164 0.06450054
0.58194399 0.023216438 0.064887248
0.5830785 0.02371666 0.065273926
0.58421248 0.0242148 0.065660596
0.58534575 0.024710879 0.066047214
0.58647841 0.025204889 0.066433795
0.58761036 0.025696849 0.066820346
0.58874184 0.026186712 0.067206874
0.58987254 0.026674511 0.067593358
0.59100264 0.027160274 0.067979805
0.59213209 0.027643943 0.06836623
0.59326088 0.028125545 0.068752602
0.59438914 0.028605077 0.069138967
0.59551668 0.029082548 0.069525287
0.59580314 0.030013148 0.069540255
0.59692973 0.030487511 0.069926508
0.59721583 0.031417072 0.069941461
0.59834146 0.031888358 0.070327684
0.59862727 0.032816876 0.070342615
0.59891307 0.033745412 0.070357546
0.60003746 0.034212522 0.070743717
0.60032296 0.035140015 0.070758633
0.60060847 0.036067508 0.070773549
0.60089391 0.036995001 0.070788465
0.60201669 0.037456956 0.071174525
0.6023019 0.038383409 0.071189418
0.60258704 0.039309874 0.07120432
0.60287219 0.040236328 0.071219221
0.60315734 0.041162781 0.071234122
0.60344255 0.04208925 0.071249023
0.6037277 0.0430157 0.071263917
0.60401285 0.043942168 0.071278818
0.60429806 0.044868622 0.071293719
0.6045832 0.045795076 0.07130862
0.60486835 0.04672154 0.071323521
0.60515356 0.047647994 0.071338415
0.60543871 0.048574463 0.071353316
0.60572386 0.049500916 0.071368217
0.60684186 0.049947385 0.071754038
0.60712671 0.050872814 0.071768925
0.60824376 0.051316146 0.072154693
