# .PCD v0.7 - Point Cloud Data file format
VERSION 0.7
FIELDS x y z
SIZE 4 4 4
TYPE F F F
COUNT 1 1 1
WIDTH 1376
HEIGHT 1
VIEWPOINT 0 0 0 1 0 0 0
POINTS 1376
DATA ascii
0.56723964 -0.12793419 0.040784974
0.56663859 -0.12673149 0.040391043
0.56603819 -0.12552673 0.039997131
0.56543839 -0.1243199 0.039603263
0.56483924 -0.123111 0.039209448
0.56424069 -0.12190002 0.038815621
0.5636428 -0.12068699 0.038421854
0.56304556 -0.11947189 0.038028125
0.56244898 -0.11825471 0.037634425
0.56185299 -0.11703548 0.037240744
0.5612576 -0.11581416 0.036847111
0.56066293 -0.11459078 0.036453512
0.56006891 -0.11336534 0.036059935
0.55947548 -0.11213783 0.035666402
0.55888265 -0.11090824 0.035272885
0.55916971 -0.10997558 0.035287887
0.5585779 -0.1087429 0.034894437
0.55798668 -0.10750815 0.034501009
0.55827439 -0.10657342 0.03451604
0.5585621 -0.10563869 0.034531072
0.55972749 -0.10500811 0.034954503
0.56089216 -0.1043796 0.035377882
0.56293327 -0.10405939 0.036209594
0.56409639 -0.10343605 0.036632907
0.56438249 -0.10250649 0.036647856
0.57342911 -0.10467019 0.040745843
0.57546353 -0.1043717 0.041577205
0.578372 -0.10438871 0.042816751
0.58040357 -0.10409953 0.043647964
0.58243382 -0.10381446 0.044479113
0.58358836 -0.10321904 0.04490196
0.58474231 -0.1026257 0.045324791
0.58589554 -0.10203441 0.045747574
0.58704811 -0.10144519 0.046170324
0.58820009 -0.10085805 0.04659304
0.58935148 -0.10027298 0.047015753
0.58962965 -0.099369265 0.047030289
0.58990782 -0.098465554 0.047044821
0.590186 -0.097561844 0.047059353
0.59046417 -0.096658133 0.04707389
0.59161359 -0.096079253 0.047496472
0.59189141 -0.095176578 0.047510989
0.59216928 -0.094273902 0.047525506
0.52532965 -0.1860451 0.028560121
0.52562022 -0.18510105 0.028575303
0.52591085 -0.18415701 0.028590485
0.52620143 -0.18321298 0.028605668
0.526492 -0.18226895 0.02862085
0.52768666 -0.18154214 0.029046865
0.52888072 -0.1808174 0.029472848
0.53007418 -0.18009475 0.029898798
0.5303638 -0.17915381 0.02991393
0.53155625 -0.17843425 0.03033983
0.53274804 -0.17771675 0.030765695
0.53393918 -0.17700133 0.031191528
0.53422785 -0.17606349 0.03120661
0.53541815 -0.17535117 0.031632408
0.53660774 -0.17464091 0.032058157
0.53779668 -0.17393272 0.032483861
0.53898501 -0.17322659 0.032909542
0.54017264 -0.17252254 0.03333519
0.54045975 -0.17158988 0.033350192
0.54254615 -0.17112064 0.034186419
0.54373193 -0.17042279 0.03461197
0.54581612 -0.1699608 0.035448056
0.54700029 -0.16926812 0.035873521
0.5481838 -0.16857751 0.036298957
0.54936671 -0.16788895 0.036724355
0.55054897 -0.16720247 0.037149724
0.55173063 -0.16651808 0.03757507
0.55291164 -0.16583574 0.038000356
0.55409199 -0.16515547 0.038425624
0.55527174 -0.16447726 0.038850859
0.55645078 -0.16380112 0.03927606
0.55673343 -0.16288292 0.039290827
0.55701602 -0.16196474 0.039305594
0.55819392 -0.16129276 0.039730743
0.55847621 -0.16037561 0.039745491
0.55965304 -0.1597067 0.040170576
0.55993503 -0.15879059 0.04018531
0.56021702 -0.15787446 0.040200043
0.56049901 -0.15695834 0.040214777
0.560781 -0.15604223 0.040229511
0.56106299 -0.15512611 0.040244244
0.56134498 -0.15420999 0.040258978
0.56162691 -0.15329386 0.040273711
0.5619089 -0.15237775 0.040288445
0.56219089 -0.15146163 0.040303178
0.56247288 -0.15054551 0.040317912
0.56275487 -0.1496294 0.040332645
0.56303686 -0.14871328 0.040347375
0.56331885 -0.14779715 0.040362108
0.56360084 -0.14688104 0.040376842
0.56388283 -0.14596492 0.040391576
0.56416482 -0.1450488 0.040406309
0.56444675 -0.14413267 0.040421043
0.56472874 -0.14321657 0.040435776
0.56412226 -0.14203255 0.040040493
0.56440455 -0.1411154 0.040055241
0.56468683 -0.14019825 0.040069994
0.56496912 -0.13928109 0.040084742
0.56525147 -0.13836393 0.040099494
0.56553376 -0.13744678 0.040114243
0.56581604 -0.13652962 0.040128991
0.56609833 -0.13561247 0.040143743
0.56638068 -0.13469532 0.040158492
0.56666297 -0.13377817 0.040173244
0.56694525 -0.13286102 0.040187992
0.56722754 -0.13194387 0.040202744
0.56662512 -0.13074639 0.039807659
0.56602335 -0.12954687 0.039412625
0.56630629 -0.12862764 0.039427407
0.56658924 -0.12770842 0.039442189
0.56598878 -0.12650476 0.039047223
0.56538892 -0.12529904 0.038652286
0.56478971 -0.12409123 0.038257398
0.5641911 -0.12288135 0.037862513
0.56359321 -0.12166941 0.037467677
0.56299591 -0.12045541 0.037072875
0.56328076 -0.11952998 0.037087757
0.56268442 -0.11831288 0.036693007
0.56208873 -0.11709371 0.036298286
0.56149358 -0.11587245 0.035903599
0.5608992 -0.11464915 0.035508946
0.56030536 -0.11342376 0.035114326
0.55971223 -0.11219633 0.034719739
0.55911964 -0.11096679 0.034325156
0.55852777 -0.10973521 0.033930637
0.55793655 -0.10850157 0.033536151
0.55734593 -0.10726585 0.033141714
0.55763394 -0.10633009 0.03315676
0.55792201 -0.10539433 0.03317181
0.5590874 -0.10476264 0.033596281
0.56112921 -0.10443816 0.034430154
0.56229305 -0.10381167 0.034854587
0.56345624 -0.10318723 0.035278954
0.56374264 -0.10225663 0.035293922
0.57278693 -0.10441864 0.039402422
0.57569659 -0.10442927 0.040645245
0.57772917 -0.10413478 0.041478634
0.57976055 -0.10384443 0.042311959
0.58179057 -0.1035582 0.043145213
0.58294517 -0.10296167 0.043569136
0.58409905 -0.10236722 0.043993022
0.58525246 -0.10177486 0.044416875
0.5864051 -0.10118454 0.044840697
0.58755714 -0.10059629 0.045264497
0.58870852 -0.1000101 0.045688253
0.58898699 -0.099105358 0.045702804
0.58926547 -0.098200612 0.045717355
0.58954394 -0.097295865 0.045731902
0.59069383 -0.096714869 0.046155591
0.59097201 -0.095811158 0.046170123
0.59125012 -0.094907448 0.046184659
0.5915283 -0.094003737 0.046199191
0.52256173 -0.18641549 0.026349695
0.52466416 -0.18589237 0.027188867
0.52495503 -0.1849473 0.027204067
0.52524596 -0.18400222 0.027219266
0.52553684 -0.18305716 0.027234465
0.52673191 -0.18232821 0.027661568
0.52702248 -0.18138418 0.02767675
0.52821654 -0.18065834 0.028103804
0.52941 -0.17993458 0.028530823
0.52969998 -0.17899261 0.028545972
0.53089255 -0.17827195 0.028972942
0.53208441 -0.17755336 0.029399864
0.5332756 -0.17683683 0.029826768
0.53446621 -0.17612237 0.030253639
0.53565621 -0.17540999 0.030680491
0.53684556 -0.17469966 0.031107293
0.53803426 -0.17399141 0.031534035
0.5392223 -0.17328522 0.031960774
0.54040968 -0.17258109 0.032387476
0.54069674 -0.17164843 0.032402474
0.54188329 -0.17094743 0.032829147
0.54396814 -0.17048116 0.033667404
0.54515302 -0.16978531 0.034093961
0.54633731 -0.16909154 0.034520499
0.54752088 -0.16839983 0.034947004
0.54870385 -0.16771019 0.035373472
0.54988617 -0.1670226 0.035799898
0.55106783 -0.16633709 0.036226302
0.55224895 -0.16565366 0.036652688
0.55342937 -0.16497229 0.03707901
0.55460912 -0.16429299 0.037505317
0.55578828 -0.16361575 0.037931573
0.55696678 -0.16294058 0.038357809
0.55724937 -0.16202238 0.038372576
0.55842698 -0.16135034 0.038798779
0.55870926 -0.16043319 0.038813531
0.55899161 -0.15951604 0.03882828
0.5592739 -0.15859888 0.038843032
0.55955619 -0.15768173 0.03885778
0.55983847 -0.15676458 0.038872533
0.56012082 -0.15584742 0.038887281
0.56040311 -0.15493026 0.038902033
0.5606854 -0.15401311 0.038916782
0.56096768 -0.15309596 0.03893153
0.56125003 -0.15217881 0.038946282
0.56153232 -0.15126166 0.038961031
0.56181461 -0.15034451 0.038975783
0.56209689 -0.14942735 0.038990531
0.56237918 -0.1485102 0.039005283
0.56266153 -0.14759305 0.039020032
0.56294382 -0.1466759 0.03903478
0.5632261 -0.14575873 0.039049532
0.56350839 -0.14484158 0.039064281
0.56379074 -0.14392443 0.039079033
0.56407303 -0.14300728 0.039093781
0.56346703 -0.14182228 0.038697444
0.56374967 -0.1409041 0.038712211
0.56403226 -0.1399859 0.038726978
0.5643149 -0.13906772 0.038741745
0.56459749 -0.13814953 0.038756512
0.56488013 -0.13723135 0.038771279
0.56516278 -0.13631316 0.038786046
0.56544536 -0.13539498 0.03880081
0.56572801 -0.13447678 0.038815577
0.56601059 -0.1335586 0.038830344
0.56629324 -0.13264041 0.038845111
0.56657583 -0.13172223 0.038859878
0.56685847 -0.13080403 0.038874645
0.566257 -0.12960458 0.038478553
0.56653994 -0.12868536 0.038493339
0.56593937 -0.12748279 0.038097315
0.56622267 -0.12656254 0.038112111
0.5656231 -0.12535687 0.037716124
0.56502414 -0.12414914 0.037320182
0.56442577 -0.12293932 0.036924243
0.56382811 -0.12172745 0.036528353
0.56323111 -0.12051351 0.036132511
0.56263471 -0.11929751 0.035736687
0.56203896 -0.11807944 0.035340898
0.56144375 -0.11685928 0.034945138
0.56172955 -0.11593075 0.034960072
0.56113541 -0.11470751 0.03456438
0.56054187 -0.11348219 0.034168705
0.55994898 -0.11225481 0.033773065
0.55935669 -0.11102536 0.033377443
0.55788636 -0.10949498 0.032571293
0.55729574 -0.10826037 0.032175798
0.55670571 -0.10702369 0.03178031
0.55699402 -0.10608688 0.031795375
0.55728239 -0.10515009 0.03181044
0.55844784 -0.10451731 0.032235999
0.56048942 -0.10419165 0.033071965
0.5625298 -0.10387016 0.033907909
0.56456888 -0.10355277 0.034743775
0.56485498 -0.10262322 0.034758724
0.56864321 -0.10293044 0.03641529
0.57505447 -0.10417662 0.039302878
0.57708687 -0.10388096 0.040138409
0.57911795 -0.10358944 0.040973827
0.58114785 -0.10330206 0.041809224
0.58230245 -0.10270444 0.042234216
0.58345646 -0.10210889 0.042659171
0.58460981 -0.1015154 0.043084096
0.58576262 -0.10092401 0.043508973
0.58691466 -0.10033466 0.043933831
0.5880661 -0.099747375 0.044358656
0.58834493 -0.0988416 0.044373225
0.5886237 -0.097935818 0.044387791
0.58890253 -0.097030036 0.044402357
0.59005237 -0.09644793 0.0448271
0.59033084 -0.095543183 0.044841651
0.59147984 -0.094964191 0.045266341
0.59175801 -0.094060481 0.045280878
0.52280241 -0.18647496 0.025387265
0.52309394 -0.18552782 0.025402498
0.52429038 -0.18479367 0.025830738
0.52458161 -0.18384756 0.025845954
0.52487284 -0.18290146 0.025861168
0.52606791 -0.18217142 0.026289342
0.52635884 -0.18122634 0.026304541
0.52755296 -0.18049942 0.026732666
0.52874649 -0.17977455 0.027160741
0.52903676 -0.17883155 0.027175907
0.53022927 -0.17810978 0.027603948
0.5314213 -0.1773901 0.028031942
0.53261256 -0.17667247 0.028459916
0.53380322 -0.1759569 0.028887842
0.53499323 -0.17524342 0.029315749
0.53618264 -0.17453201 0.029743625
0.5373714 -0.17382266 0.030171467
0.5385595 -0.17311536 0.030599246
0.53974694 -0.17241015 0.031027019
0.54093379 -0.17170699 0.031454761
0.54212004 -0.17100592 0.031882469
0.54330558 -0.17030691 0.032310143
0.545389 -0.1698436 0.033150446
0.54657304 -0.16914977 0.033578023
0.54775637 -0.168458 0.034005582
0.54893905 -0.16776828 0.034433108
0.55012107 -0.16708064 0.034860585
0.55130249 -0.16639507 0.035288043
0.55248332 -0.16571157 0.035715472
0.55276722 -0.16478924 0.035730302
0.55394709 -0.16410884 0.036157664
0.55512625 -0.16343051 0.036584992
0.55630481 -0.16275424 0.037012301
0.55658776 -0.16183501 0.037027083
0.55776536 -0.16116185 0.037454344
0.55804795 -0.16024366 0.037469111
0.55922467 -0.15957361 0.03789632
0.55950695 -0.15865646 0.037911072
0.5597893 -0.15773931 0.037925821
0.56007159 -0.15682216 0.037940569
0.56035388 -0.15590501 0.037955321
0.56063616 -0.15498786 0.03797007
0.56091851 -0.15407071 0.037984822
0.5612008 -0.15315355 0.03799957
0.56148309 -0.15223639 0.038014323
0.56176537 -0.15131924 0.038029071
0.56204772 -0.15040208 0.038043819
0.56233001 -0.14948493 0.038058572
0.5626123 -0.14856778 0.03807332
0.56289458 -0.14765063 0.038088072
0.56317687 -0.14673348 0.038102821
0.56256992 -0.14555268 0.037705377
0.5628525 -0.14463449 0.037720144
0.56313515 -0.14371631 0.037734911
0.56341773 -0.14279811 0.037749678
0.56281239 -0.14161216 0.037352316
0.56309533 -0.14069293 0.037367102
0.56337827 -0.13977371 0.037381884
0.56366122 -0.1388545 0.037396669
0.56394416 -0.13793528 0.037411451
0.5642271 -0.13701606 0.037426233
0.56451005 -0.13609684 0.037441019
0.56479299 -0.13517761 0.037455801
0.56507587 -0.13425839 0.037470583
0.56535882 -0.13333917 0.037485369
0.56564176 -0.13241994 0.037500151
0.5659247 -0.13150074 0.037514932
0.56620765 -0.13058151 0.037529718
0.56649059 -0.12966229 0.0375445
0.56589001 -0.12846082 0.037147392
0.56617326 -0.12754057 0.037162188
0.56557363 -0.12633601 0.036765143
0.56497467 -0.12512937 0.036368132
0.56437624 -0.12392065 0.035971135
0.56466043 -0.12299729 0.035985988
0.56406307 -0.12178548 0.035589043
0.56346625 -0.12057161 0.035192147
0.56287014 -0.11935568 0.034795269
0.56227463 -0.11813767 0.034398422
0.56167972 -0.11691757 0.034001626
0.56108552 -0.11569543 0.033604849
0.56049198 -0.11447122 0.033208117
0.55989903 -0.11324494 0.032811407
0.55930662 -0.11201657 0.032414727
0.55871499 -0.11078615 0.032018084
0.55812395 -0.10955367 0.031621471
0.55753356 -0.10831912 0.031224921
0.55694377 -0.1070825 0.030828377
0.55635458 -0.1058438 0.030431865
0.55752045 -0.1052089 0.030858509
0.55868566 -0.10457606 0.031285118
0.55985022 -0.10394529 0.031711668
0.56276655 -0.10392865 0.032961234
0.56480509 -0.10361114 0.033799194
0.56509125 -0.10268158 0.033814143
0.56887841 -0.10298854 0.035474923
0.57441288 -0.1039241 0.037958432
0.5764451 -0.10362729 0.038796075
0.57847595 -0.1033346 0.039633632
0.58050567 -0.10304606 0.040471125
0.58166033 -0.10244734 0.040897187
0.5828144 -0.10185069 0.0413232
0.5839678 -0.1012561 0.041749198
0.58512056 -0.10066359 0.042175159
0.58627278 -0.10007316 0.042601071
0.58742428 -0.099484779 0.043026969
0.58770335 -0.098577969 0.043041553
0.58798248 -0.097671151 0.043056138
0.5882616 -0.096764341 0.043070719
0.5894115 -0.096181124 0.043496519
0.58969033 -0.09527535 0.043511085
0.5899691 -0.094369568 0.043525651
0.59024793 -0.093463786 0.043540221
0.52032745 -0.18590192 0.023182591
0.52242976 -0.18537542 0.024025988
0.52362621 -0.18464014 0.0244553
0.52391773 -0.18369301 0.024470532
0.52511328 -0.18296085 0.024899794
0.52540445 -0.18201475 0.02491501
0.52659899 -0.18128568 0.025344206
0.52779287 -0.18055868 0.025773384
0.52808344 -0.17961465 0.025788566
0.52927637 -0.17889075 0.02621768
0.5304687 -0.17816892 0.026646761
0.53166038 -0.17744917 0.027075822
0.53285146 -0.17673148 0.027504837
0.53404182 -0.17601585 0.027933817
0.53523159 -0.1753023 0.028362779
0.5364207 -0.17459083 0.028791707
0.53760922 -0.17388141 0.029220589
0.53879702 -0.17317405 0.029649436
0.53998423 -0.17246877 0.030078251
0.54117084 -0.17176555 0.030507032
0.54145789 -0.17083289 0.030522032
0.54264355 -0.17013279 0.030950792
0.54472673 -0.16966832 0.031793203
0.54591078 -0.16897337 0.032221869
0.54709423 -0.16828051 0.032650482
0.54827696 -0.16758969 0.033079065
0.5494591 -0.16690096 0.033507612
0.55064052 -0.16621429 0.033936143
0.55182141 -0.16552968 0.034364622
0.55300164 -0.16484715 0.034793101
0.55418122 -0.16416669 0.035221502
0.55536014 -0.16348828 0.035649884
0.55564338 -0.16256803 0.035664685
0.55682135 -0.16189273 0.036093015
0.55799872 -0.16121949 0.03652133
0.5582813 -0.16030131 0.036536098
0.55856395 -0.15938312 0.036550865
0.55884653 -0.15846494 0.036565628
0.55912918 -0.15754676 0.036580395
0.55941182 -0.15662856 0.036595162
0.55969441 -0.15571038 0.036609929
0.55997705 -0.15479219 0.036624696
0.56025964 -0.15387401 0.036639463
0.56054229 -0.15295582 0.03665423
0.56082487 -0.15203764 0.036668997
0.56110752 -0.15111944 0.036683764
0.56139016 -0.15020126 0.036698531
0.56167275 -0.14928307 0.036713295
0.56195539 -0.14836489 0.036728062
0.56223798 -0.14744669 0.036742829
0.56163132 -0.14626598 0.036344331
0.56191427 -0.14534676 0.036359116
0.56219721 -0.14442754 0.036373898
0.56248015 -0.14350832 0.036388684
0.56276309 -0.14258909 0.036403466
0.56215829 -0.14140217 0.036005083
0.56244153 -0.14048192 0.036019884
0.56272483 -0.13956165 0.036034681
0.56300807 -0.1386414 0.036049481
0.56329131 -0.13772115 0.036064282
0.56357455 -0.1368009 0.036079083
0.56385785 -0.13588063 0.036093883
0.56414109 -0.13496038 0.036108684
0.56442434 -0.13404013 0.036123481
0.56470758 -0.13311988 0.036138281
0.56499088 -0.13219962 0.036153082
0.56527412 -0.13127936 0.036167882
0.56555736 -0.13035911 0.036182683
0.5658406 -0.12943886 0.036197484
0.5661239 -0.1285186 0.03621228
0.56552422 -0.12731513 0.035814166
0.56492513 -0.1261096 0.035416096
0.56520903 -0.12518728 0.035430931
0.5646109 -0.12397862 0.035032865
0.56401342 -0.12276792 0.034634866
0.5634166 -0.12155514 0.034236882
0.56282043 -0.1203403 0.03383895
0.56222486 -0.11912339 0.033441048
0.56251037 -0.1181959 0.033455964
0.5619157 -0.11697587 0.033058114
0.56132179 -0.11575379 0.032660283
0.56072843 -0.11452965 0.032262497
0.56013578 -0.11330343 0.031864747
0.55954367 -0.11207513 0.031466998
0.55895227 -0.11084478 0.031069314
0.55836147 -0.10961236 0.030671662
0.55777133 -0.10837787 0.030274045
0.55718184 -0.10714132 0.029876459
0.55659294 -0.10590267 0.029478893
0.55775857 -0.10526772 0.029906591
0.55892348 -0.10463481 0.030334242
0.56096405 -0.1043089 0.031174427
0.56300336 -0.10398714 0.032014575
0.56591696 -0.1039765 0.033267174
0.56620276 -0.10304797 0.033282109
0.56911355 -0.10304665 0.034534544
0.57377183 -0.10367172 0.036611881
0.57667816 -0.10368487 0.037864111
0.57870853 -0.10339205 0.038703781
0.58073765 -0.10310338 0.039543368
0.58101869 -0.10219036 0.039558049
0.58217281 -0.10159262 0.03998515
0.58332628 -0.10099693 0.040412202
0.58447909 -0.10040332 0.040839221
0.58563131 -0.099811763 0.041266218
0.58678293 -0.09922231 0.04169317
0.58706236 -0.098314457 0.041707773
0.58734179 -0.097406611 0.041722372
0.58762121 -0.096498765 0.041736972
0.58877116 -0.095914461 0.042163841
0.58905029 -0.095007643 0.042178426
0.58932942 -0.094100833 0.04219301
0.58960855 -0.093194023 0.042207591
0.52056897 -0.18596159 0.022217015
0.52176607 -0.18522315 0.022647414
0.52296257 -0.18448678 0.023077767
0.52325445 -0.1835386 0.023093017
0.52444994 -0.18280533 0.023523334
0.5256449 -0.18207414 0.023953633
0.5268392 -0.18134502 0.024383884
0.52803278 -0.18061796 0.024814103
0.52832335 -0.17967393 0.024829285
0.52951604 -0.17894995 0.025259452
0.53070807 -0.17822807 0.025689587
0.53189951 -0.17750825 0.026119689
0.53309029 -0.17679049 0.026549757
0.53428042 -0.1760748 0.026979791
0.53546989 -0.17536119 0.027409794
0.53665882 -0.17464964 0.027839791
0.53784704 -0.17394015 0.028269725
0.53903461 -0.17323273 0.028699612
0.54022151 -0.17252739 0.029129481
0.54140782 -0.1718241 0.029559316
0.54169494 -0.17089143 0.029574316
0.5428803 -0.17019127 0.030004116
0.54406506 -0.16949317 0.030433869
0.5452491 -0.16879712 0.030863587
0.54643255 -0.16810314 0.031293273
0.54761541 -0.16741125 0.031722926
0.54879761 -0.1667214 0.032152545
0.54997909 -0.16603364 0.03258213
0.55115998 -0.16534793 0.033011682
0.55234027 -0.1646643 0.033441216
0.5535199 -0.16398273 0.033870719
0.55469894 -0.16330324 0.034300156
0.55587727 -0.1626258 0.034729578
0.557055 -0.16195044 0.035158962
0.55733794 -0.16103122 0.035173744
0.55762082 -0.16011201 0.03518853
0.55790377 -0.15919279 0.035203312
0.55818671 -0.15827356 0.035218094
0.55846965 -0.15735434 0.035232879
0.5587526 -0.15643512 0.035247661
0.55903554 -0.15551589 0.035262447
0.55931848 -0.15459667 0.035277229
0.55960143 -0.15367746 0.035292011
0.55988437 -0.15275824 0.035306796
0.56016731 -0.15183902 0.035321578
0.56045026 -0.1509198 0.03533636
0.5607332 -0.15000057 0.035351146
0.56101608 -0.14908135 0.035365928
0.56129903 -0.14816213 0.03538071
0.56158197 -0.1472429 0.035395496
0.56097591 -0.14606123 0.034995973
0.56125915 -0.14514096 0.035010774
0.56154239 -0.14422071 0.035025574
0.56182563 -0.14330046 0.035040375
0.56210893 -0.14238021 0.035055175
0.56150472 -0.14119232 0.034655754
0.56178826 -0.14027102 0.034670569
0.56207186 -0.13934973 0.034685388
0.56235546 -0.13842845 0.034700204
0.562639 -0.13750716 0.034715019
0.5629226 -0.13658586 0.034729838
0.56320614 -0.13566458 0.034744654
0.56348974 -0.13474329 0.034759469
0.56377333 -0.13382199 0.034774285
0.56405687 -0.13290071 0.034789104
0.56434047 -0.13197942 0.034803919
0.56462401 -0.13105813 0.034818735
0.56490761 -0.13013685 0.034833554
0.56519121 -0.12921555 0.03484837
0.56547475 -0.12829426 0.034863185
0.56575835 -0.12737298 0.034878001
0.56515956 -0.12616751 0.03447888
0.56456137 -0.12495995 0.03407976
0.56396383 -0.12375034 0.033680674
0.56424838 -0.12282595 0.033695541
0.5636518 -0.12161324 0.033296518
0.56305587 -0.12039847 0.032897532
0.5624606 -0.11918163 0.032498576
0.56274611 -0.11825413 0.032513492
0.56215173 -0.11703417 0.032114588
0.56155801 -0.11581215 0.031715713
0.56096494 -0.11458807 0.031316876
0.56037253 -0.11336192 0.030918071
0.55978072 -0.11213368 0.030519284
0.55918956 -0.1109034 0.030120544
0.55859905 -0.10967104 0.029721839
0.55800915 -0.10843662 0.029323181
0.5574199 -0.10720013 0.028924543
0.5568313 -0.10596155 0.028525908
0.55799663 -0.10532653 0.028954675
0.55916131 -0.10469356 0.029383378
0.56120133 -0.10436752 0.030225657
0.56324011 -0.10404564 0.031067898
0.56615293 -0.1040348 0.032323647
0.56643873 -0.10310627 0.032338582
0.56934875 -0.10310475 0.03359418
0.57400566 -0.10372949 0.03567677
0.57603711 -0.10343137 0.036518615
0.5780673 -0.1031374 0.037360407
0.58009619 -0.10284755 0.038202103
0.58125073 -0.10224769 0.038630292
0.58240455 -0.10164987 0.039058432
0.58355778 -0.10105412 0.03948655
0.58471036 -0.10046045 0.039914623
0.58499044 -0.09955053 0.039929256
0.586142 -0.098959953 0.040357281
0.58642179 -0.098051064 0.040371899
0.58670157 -0.09714219 0.040386513
0.5869813 -0.096233308 0.040401131
0.58813137 -0.095647916 0.04082907
0.58841079 -0.09474007 0.040843673
0.58869028 -0.093832225 0.040858272
0.58896971 -0.092924379 0.040872872
0.51990575 -0.18581054 0.020835232
0.52110296 -0.18507101 0.021266704
0.52229947 -0.18433353 0.021698141
0.52349538 -0.18359813 0.022129532
0.52378726 -0.18264996 0.022144781
0.52588534 -0.18213356 0.022992257
0.52617657 -0.18118745 0.023007473
0.52737027 -0.18045929 0.023438748
0.52856332 -0.17973319 0.023870002
0.52885389 -0.17878915 0.023885185
0.53004599 -0.17806616 0.024316391
0.53123742 -0.17734523 0.024747562
0.53242826 -0.17662638 0.025178703
0.53361845 -0.17590959 0.025609808
0.53480798 -0.17519489 0.026040865
0.53599691 -0.17448223 0.026471904
0.53718525 -0.17377166 0.026902925
0.53837287 -0.17306314 0.027333897
0.53955984 -0.17235669 0.027764823
0.54164487 -0.17188266 0.028611587
0.54193193 -0.17095 0.028626587
0.54311711 -0.17024976 0.029057441
0.54430151 -0.1695516 0.029488247
0.54548538 -0.16885547 0.029919021
0.54666853 -0.16816144 0.030349759
0.54785115 -0.16746949 0.030780466
0.54903305 -0.16677958 0.031211127
0.55021429 -0.16609174 0.031641766
0.55139494 -0.16540597 0.032072373
0.55257493 -0.16472226 0.032502946
0.55375433 -0.16404065 0.0329335
0.55493307 -0.16336109 0.033363994
0.55611116 -0.16268359 0.033794452
0.5563944 -0.16176333 0.033809252
0.55757153 -0.16108893 0.034239676
0.55785447 -0.16016972 0.034254462
0.55813742 -0.1592505 0.034269243
0.55842036 -0.15833127 0.034284025
0.5587033 -0.15741205 0.034298811
0.55898619 -0.15649283 0.034313593
0.55926913 -0.15557361 0.034328375
0.55955207 -0.1546544 0.034343161
0.55983502 -0.15373518 0.034357943
0.56011796 -0.15281595 0.034372725
0.5604009 -0.15189673 0.03438751
0.56068385 -0.15097751 0.034402292
0.56007671 -0.14980002 0.034001652
0.56036001 -0.14887977 0.034016453
0.56064326 -0.14795952 0.034031253
0.5609265 -0.14703925 0.03404605
0.56032097 -0.14585659 0.033645507
0.56060457 -0.14493531 0.033660326
0.56088811 -0.14401402 0.033675142
0.56117171 -0.14309272 0.033689957
0.56145525 -0.14217144 0.033704776
0.56173885 -0.14125015 0.033719592
0.56202245 -0.14032887 0.033734407
0.56230599 -0.13940758 0.033749223
0.56258959 -0.13848628 0.033764042
0.56287313 -0.137565 0.033778857
0.56315672 -0.13664371 0.033793673
0.56344032 -0.13572241 0.033808492
0.56372386 -0.13480113 0.033823308
0.56400746 -0.13387984 0.033838123
0.564291 -0.13295855 0.033852939
0.5645746 -0.13203727 0.033867758
0.5648582 -0.13111597 0.033882573
0.56514174 -0.13019468 0.033897389
0.56542534 -0.1292734 0.033912208
0.56570888 -0.12835211 0.033927023
0.56599247 -0.12743083 0.033941839
0.56539392 -0.12622541 0.033541661
0.56479603 -0.12501793 0.03314149
0.56419873 -0.12380838 0.032741364
0.56448328 -0.12288399 0.032756228
0.563887 -0.12167135 0.032356154
0.56329131 -0.12045664 0.03195611
0.56269634 -0.11923986 0.031556118
0.56298178 -0.11831237 0.031571034
0.5623877 -0.11709246 0.031171074
0.56179422 -0.11587051 0.030771147
0.56120145 -0.11464649 0.030371254
0.56060928 -0.11342041 0.029971395
0.5600177 -0.11219224 0.029571554
0.55942684 -0.11096202 0.029171776
0.55883658 -0.10972973 0.028772015
0.55824697 -0.10849537 0.028372305
0.55765802 -0.10725895 0.027972611
0.5570696 -0.10602044 0.027572935
0.55823469 -0.10538535 0.028002743
0.56027514 -0.10505608 0.02884718
0.56231433 -0.10473094 0.029691551
0.56435227 -0.10440996 0.030535882
0.56726408 -0.10439997 0.031794779
0.56754953 -0.10347248 0.031809695
0.57045841 -0.10347178 0.033068426
0.57336539 -0.10347731 0.034327071
0.57627046 -0.10348903 0.035585601
0.57830012 -0.10319492 0.036429502
0.58032852 -0.10290494 0.037273291
0.58148277 -0.10230501 0.037702534
0.58263636 -0.10170713 0.038131725
0.58378929 -0.10111132 0.038560886
0.58406967 -0.10020036 0.038575538
0.58522165 -0.099607661 0.039004646
0.58550173 -0.098697744 0.039019279
0.58578181 -0.097787827 0.039033916
0.58606189 -0.096877918 0.039048549
0.58721226 -0.096290372 0.039477576
0.58749205 -0.095381491 0.039492194
0.58777177 -0.094472609 0.039506808
0.58805156 -0.093563728 0.039521426
0.58833128 -0.092654847 0.039536044
0.51833862 -0.18544897 0.019034114
0.51953614 -0.1847073 0.019466672
0.52073312 -0.18396771 0.019899199
0.52192944 -0.18323018 0.02033169
0.52312505 -0.18249471 0.02076415
0.5252229 -0.18197712 0.021613706
0.52641702 -0.18124685 0.022046084
0.52761042 -0.18051863 0.022478426
0.52880323 -0.17979246 0.022910722
0.5290938 -0.17884843 0.022925904
0.5302856 -0.17812537 0.023358162
0.5314768 -0.17740437 0.023790389
0.5326674 -0.17668547 0.024222568
0.53385735 -0.17596862 0.024654727
0.53504664 -0.17525382 0.025086841
0.53623527 -0.17454112 0.025518933
0.53742331 -0.17383048 0.025951007
0.5386107 -0.1731219 0.02638302
0.53979743 -0.17241538 0.026814999
0.5409835 -0.17171094 0.027246945
0.54216897 -0.17100856 0.027678872
0.54245603 -0.17007589 0.027693871
0.54364061 -0.16937663 0.028125763
0.54482448 -0.16867943 0.028557593
0.54600769 -0.16798428 0.028989403
0.54719031 -0.16729121 0.029421166
0.54837233 -0.16660021 0.02985291
0.54955363 -0.16591129 0.030284621
0.55073434 -0.16522442 0.030716285
0.55191439 -0.16453962 0.031147929
0.55309379 -0.16385688 0.031579524
0.55427259 -0.16317624 0.032011118
0.55545074 -0.16249764 0.032442648
0.55573434 -0.16157635 0.032457463
0.55691153 -0.16090085 0.032888945
0.55719477 -0.1599806 0.032903746
0.55747801 -0.15906034 0.032918543
0.55776131 -0.15814009 0.032933343
0.55804455 -0.15721983 0.032948144
0.55832779 -0.15629958 0.032962944
0.55861109 -0.15537933 0.032977745
0.55889434 -0.15445907 0.032992546
0.55917758 -0.15353881 0.033007342
0.55946082 -0.15261856 0.033022143
0.55974412 -0.15169831 0.033036944
0.56002736 -0.15077806 0.033051744
0.55942082 -0.1495996 0.03265008
0.55970436 -0.1486783 0.032664895
0.55998796 -0.14775701 0.032679714
0.56027156 -0.14683573 0.03269453
0.55966657 -0.1456521 0.032292947
0.55995047 -0.14472978 0.032307781
0.56023437 -0.14380746 0.032322615
0.56051826 -0.14288513 0.032337449
0.56080216 -0.14196281 0.03235228
0.56108606 -0.14104049 0.032367114
0.56136996 -0.14011817 0.032381948
0.56165385 -0.13919584 0.032396782
0.56193775 -0.13827352 0.032411613
0.56222165 -0.1373512 0.032426447
0.56250554 -0.13642888 0.032441281
0.56278944 -0.13550656 0.032456115
0.56307334 -0.13458423 0.032470945
0.56335717 -0.1336619 0.032485779
0.56364107 -0.13273957 0.032500613
0.56392497 -0.13181725 0.032515448
0.56420887 -0.13089493 0.032530278
0.56449276 -0.12997261 0.032545112
0.56477666 -0.12905028 0.032559946
0.56506056 -0.12812796 0.03257478
0.56534445 -0.12720564 0.032589611
0.56562835 -0.12628332 0.032604445
0.56503069 -0.12507589 0.032203216
0.56443369 -0.12386642 0.031802051
0.56471819 -0.12294203 0.031816918
0.5641222 -0.12172945 0.03141579
0.56352681 -0.1205148 0.031014707
0.56293201 -0.11929809 0.030613644
0.56321752 -0.11837059 0.03062856
0.56262368 -0.11715076 0.030227546
0.56203049 -0.11592887 0.02982658
0.56143796 -0.11470492 0.029425634
0.56084603 -0.11347891 0.029024735
0.56025475 -0.1122508 0.02862384
0.55966413 -0.11102064 0.028222993
0.55907416 -0.10978842 0.027822193
0.55848479 -0.10855412 0.027421426
0.55789608 -0.10731777 0.027020693
0.55818444 -0.10638096 0.02703576
0.55934888 -0.10574683 0.027466575
0.56138849 -0.10541846 0.028313089
0.56342685 -0.10509425 0.029159579
0.56546396 -0.10477415 0.030005975
0.56749976 -0.10445821 0.030852305
0.56778526 -0.10353071 0.030867221
0.57156754 -0.10383869 0.032544762
0.57359958 -0.10353515 0.033390909
0.57650381 -0.10354667 0.034652587
0.57853299 -0.10325244 0.035498597
0.5805608 -0.10296233 0.036344495
0.58171481 -0.10236233 0.036774777
0.5828681 -0.10176439 0.037205022
0.58402079 -0.10116851 0.037635237
0.58430117 -0.10025756 0.037649889
0.58545291 -0.099664785 0.038080037
0.585733 -0.098754868 0.03809467
0.58601308 -0.097844958 0.038109303
0.58629316 -0.096935041 0.038123939
0.58657318 -0.096025124 0.038138572
0.58685327 -0.095115215 0.038153205
0.58713335 -0.094205298 0.038167838
0.58741343 -0.09329538 0.038182471
0.58769351 -0.092385471 0.038197108
0.51376498 -0.18541445 0.015958527
0.51767671 -0.18529826 0.017647089
0.51887435 -0.18455549 0.018080706
0.52007133 -0.18381479 0.018514302
0.52126771 -0.18307617 0.018947866
0.52336627 -0.18255432 0.019799611
0.52456105 -0.18182085 0.020233063
0.52575517 -0.18108946 0.02066651
0.52694869 -0.18036014 0.021099923
0.5281415 -0.17963289 0.021533288
0.52933371 -0.17890769 0.021966636
0.53052527 -0.17818457 0.022399936
0.53171623 -0.17746352 0.0228332
0.53290653 -0.17674454 0.023266448
0.53409618 -0.17602763 0.023699649
0.53528523 -0.17531277 0.024132814
0.53647357 -0.17459999 0.024565961
0.53766137 -0.17388929 0.024999077
0.53884852 -0.17318064 0.025432156
0.54003495 -0.17247406 0.025865177
0.54122078 -0.17176956 0.026298176
0.54240602 -0.1710671 0.026731158
0.54269308 -0.17013444 0.026746156
0.54387736 -0.16943513 0.027179088
0.54506099 -0.16873784 0.027611971
0.54624397 -0.16804264 0.028044837
0.54742628 -0.1673495 0.028477654
0.54860806 -0.16665845 0.028910438
0.54978907 -0.16596945 0.029343203
0.55096954 -0.16528252 0.029775919
0.5521493 -0.16459765 0.030208603
0.55332845 -0.16391486 0.030641269
0.55450702 -0.16323414 0.0310739
0.55479091 -0.16231182 0.031088734
0.55596846 -0.16163419 0.031521287
0.55714542 -0.16095863 0.031953838
0.55742866 -0.16003838 0.031968635
0.5577119 -0.15911812 0.031983435
0.55799514 -0.15819786 0.031998236
0.55827844 -0.15727761 0.032013036
0.55856168 -0.15635736 0.032027837
0.55884492 -0.1554371 0.032042634
0.55912817 -0.15451685 0.032057434
0.55941147 -0.15359659 0.032072235
0.55969471 -0.15267634 0.032087035
0.55997795 -0.15175608 0.032101836
0.55937135 -0.15057872 0.031699087
0.55876541 -0.1493993 0.031296398
0.55904931 -0.14847697 0.031311233
0.55933321 -0.14755465 0.031326067
0.5596171 -0.14663233 0.031340897
0.55901265 -0.14544772 0.030938266
0.55929691 -0.14452437 0.030953115
0.5595811 -0.143601 0.030967964
0.5598653 -0.14267765 0.030982815
0.56014955 -0.14175428 0.030997664
0.56043375 -0.14083093 0.031012515
0.56071794 -0.13990757 0.031027364
0.56100214 -0.13898422 0.031042214
0.56128639 -0.13806087 0.031057063
0.56157058 -0.1371375 0.031071912
0.56273991 -0.13648678 0.031504065
0.56302381 -0.13556446 0.031518895
0.5633077 -0.13464214 0.031533729
0.5635916 -0.13371982 0.031548563
0.5638755 -0.13279749 0.031563397
0.56415939 -0.13187517 0.031578228
0.56444329 -0.13095284 0.031593062
0.56472719 -0.13003051 0.031607896
0.56501108 -0.12910819 0.03162273
0.56529498 -0.12818587 0.031637561
0.56557888 -0.12726355 0.031652395
0.5649811 -0.12605722 0.031250112
0.56526536 -0.12513387 0.031264961
0.5646686 -0.12392446 0.030862726
0.56495315 -0.12300006 0.030877594
0.5643574 -0.12178755 0.030475425
0.56376225 -0.12057297 0.030073287
0.56316775 -0.11935632 0.02967117
0.56345326 -0.11842883 0.029686086
0.56285965 -0.11720905 0.029284034
0.56226671 -0.11598724 0.028882014
0.56167448 -0.11476335 0.028480012
0.56108284 -0.11353739 0.028078059
0.5604918 -0.11230935 0.027676124
0.55990142 -0.11107926 0.027274223
0.55931169 -0.10984711 0.026872369
0.55872262 -0.10861287 0.026470564
0.55813414 -0.10737658 0.026068762
0.55929869 -0.10674135 0.026500663
0.56046253 -0.10610818 0.0269325
0.56250131 -0.10578071 0.027781121
0.56453884 -0.1054574 0.028629676
0.56657505 -0.10513821 0.029478163
0.56773549 -0.10451644 0.029909832
0.5697695 -0.10420448 0.030758202
0.57267618 -0.10420548 0.032023225
0.5738337 -0.10359299 0.032454729
0.57673717 -0.10360432 0.033719588
0.57876581 -0.10330996 0.034567676
0.58079308 -0.10301971 0.035415683
0.58194685 -0.10241965 0.035847016
0.5830999 -0.10182165 0.036278319
0.58338058 -0.10090967 0.036292985
0.58453268 -0.10031475 0.036724225
0.58481312 -0.099403806 0.036738873
0.5859642 -0.098811999 0.037170075
0.58624429 -0.097902082 0.037184708
0.58652437 -0.096992172 0.037199341
0.58680445 -0.096082255 0.037213977
0.58708453 -0.095172338 0.03722861
0.58736461 -0.094262421 0.037243243
0.5876447 -0.093352512 0.037257876
0.58792472 -0.092442594 0.037272509
0.51190442 -0.18601626 0.014130374
0.51400858 -0.18547463 0.01498453
0.51611137 -0.18493713 0.015838634
0.51821303 -0.18440381 0.016692659
0.51941007 -0.183662 0.017127311
0.52060646 -0.18292227 0.017561931
0.5227049 -0.18239927 0.018415803
0.52389967 -0.18166471 0.01885034
0.52599585 -0.18114892 0.019704079
0.52718914 -0.18041955 0.020138547
0.52838171 -0.17969222 0.020572968
0.52957362 -0.17896697 0.021007353
0.53076494 -0.17824377 0.021441707
0.5319556 -0.17752266 0.021876028
0.53314567 -0.17680362 0.022310315
0.53433508 -0.17608663 0.022744568
0.53552383 -0.17537172 0.023178788
0.53671193 -0.17465886 0.023612991
0.53789949 -0.17394811 0.024047159
0.53908628 -0.1732394 0.02448128
0.54027253 -0.17253275 0.024915352
0.54145807 -0.17182818 0.025349407
0.54264301 -0.17112567 0.025783427
0.54293013 -0.170193 0.025798427
0.54411411 -0.16949362 0.026232412
0.5452975 -0.16879627 0.026666351
0.54648018 -0.168101 0.027100269
0.54766226 -0.16740781 0.02753414
0.54884374 -0.16671668 0.027967978
0.55002457 -0.16602762 0.028401783
0.55120468 -0.16534062 0.028835556
0.55238426 -0.16465569 0.029269293
0.55356312 -0.16397282 0.029702997
0.55474144 -0.16329205 0.030136684
0.55502534 -0.16236973 0.030151518
0.55620259 -0.16169204 0.030585125
0.55648619 -0.16077074 0.030599941
0.55676979 -0.15984945 0.030614758
0.55705333 -0.15892817 0.030629573
0.55733693 -0.15800688 0.030644391
0.55762047 -0.15708558 0.030659208
0.55790406 -0.1561643 0.030674024
0.55818766 -0.15524301 0.030688841
0.5584712 -0.15432173 0.030703656
0.5587548 -0.15340044 0.030718474
0.55903834 -0.15247914 0.030733291
0.55932194 -0.15155786 0.030748107
0.55871594 -0.15037952 0.030344348
0.55811048 -0.14919911 0.029940594
0.55839473 -0.14827576 0.029955445
0.55867893 -0.1473524 0.029970294
0.55896312 -0.14642905 0.029985145
0.55924731 -0.14550568 0.029999994
0.55953157 -0.14458233 0.030014845
0.55981576 -0.14365898 0.030029694
0.56009996 -0.14273562 0.030044543
0.56038421 -0.14181226 0.030059393
0.56066841 -0.1408889 0.030074243
0.5609526 -0.13996555 0.030089093
0.56035107 -0.13877274 0.029685553
0.56152105 -0.13811883 0.030118793
0.56180525 -0.13719548 0.030133642
0.56208944 -0.13627212 0.030148493
0.56325823 -0.13562237 0.030581679
0.56354213 -0.13470004 0.030596513
0.56382602 -0.13377772 0.030611346
0.56410992 -0.1328554 0.03062618
0.56439376 -0.13193308 0.030641012
0.56467766 -0.13101076 0.030655846
0.56496155 -0.13008843 0.030670678
0.56524545 -0.12916611 0.030685512
0.56552935 -0.12824377 0.030700345
0.56581324 -0.12732145 0.030715179
0.56521577 -0.1261152 0.03031184
0.56550002 -0.12519184 0.030326691
0.56490356 -0.1239825 0.029923417
0.56430769 -0.12277108 0.029520176
0.56459254 -0.12184566 0.029535059
0.56399769 -0.12063114 0.029131869
0.56428283 -0.11970468 0.029146768
0.56368893 -0.11848706 0.028743628
0.56309563 -0.11726736 0.02834052
0.56250298 -0.1160456 0.027937446
0.56191099 -0.11482178 0.027534392
0.56131959 -0.11359589 0.027131384
0.56072879 -0.11236791 0.026728395
0.5601387 -0.11113788 0.026325453
0.55954927 -0.10990579 0.025922546
0.55896044 -0.10867163 0.025519686
0.55924845 -0.10773586 0.025534736
0.56041241 -0.1071016 0.025967645
0.56157565 -0.1064694 0.026400534
0.56361365 -0.10614286 0.027251247
0.56565028 -0.10582043 0.028101891
0.56768572 -0.10550216 0.028952457
0.56797123 -0.10457467 0.028967373
0.57087868 -0.10457028 0.030235613
0.57291061 -0.10426339 0.031086009
0.57494116 -0.10396061 0.031936325
0.57697052 -0.10366197 0.03278657
0.57899863 -0.10336748 0.033636767
0.58102542 -0.10307711 0.034486871
0.58217889 -0.10247698 0.034919258
0.58333164 -0.1018789 0.035351615
0.58361238 -0.10096692 0.035366282
0.58476418 -0.10037194 0.035798572
0.58504462 -0.099460997 0.035813224
0.58619547 -0.09886913 0.036245465
0.58647555 -0.097959213 0.036260098
0.58675563 -0.097049296 0.036274731
0.58703572 -0.096139386 0.036289364
0.5873158 -0.095229469 0.036304001
0.58759582 -0.094319552 0.036318634
0.5878759 -0.093409643 0.036333267
0.58815598 -0.092499726 0.0363479
0.50913906 -0.18641512 0.011877511
0.51214856 -0.18607658 0.013154284
0.51244426 -0.18511601 0.013169732
0.51454717 -0.1845763 0.014025964
0.51664889 -0.18404074 0.014882129
0.51874936 -0.18350935 0.015738213
0.5199458 -0.18276851 0.016173903
0.522044 -0.18224435 0.0170299
0.5232389 -0.18150869 0.017465508
0.52533484 -0.18099174 0.018321358
0.52652812 -0.18026125 0.018756866
0.52862185 -0.17975156 0.019612631
0.52981353 -0.17902623 0.020048073
0.53100461 -0.17830297 0.020483479
0.53219497 -0.1775818 0.020918854
0.5333848 -0.17686269 0.021354195
0.53457391 -0.17614564 0.021789502
0.53576243 -0.17543067 0.022224778
0.53695029 -0.17471775 0.022660004
0.53813756 -0.17400692 0.023095228
0.5393241 -0.17329815 0.023530401
0.54051006 -0.17259143 0.02396553
0.54169536 -0.1718868 0.024400637
0.54288006 -0.17118423 0.024835713
0.54316711 -0.17025156 0.024850711
0.54435092 -0.1695521 0.025285752
0.54553396 -0.1688547 0.025720743
0.54671645 -0.16815937 0.026155688
0.54789823 -0.1674661 0.026590614
0.54907948 -0.16677491 0.027025506
0.55026001 -0.16608578 0.027460365
0.55143988 -0.16539872 0.02789519
0.55261916 -0.16471373 0.028329981
0.55379778 -0.16403081 0.028764741
0.55497581 -0.16334996 0.029199481
0.5552597 -0.16242763 0.029214315
0.55643678 -0.16174987 0.029648961
0.55672032 -0.16082859 0.029663779
0.55700392 -0.1599073 0.029678594
0.55728745 -0.15898602 0.029693412
0.55757105 -0.15806472 0.029708229
0.55785465 -0.15714343 0.029723044
0.55813819 -0.15622215 0.029737862
0.55842179 -0.15530086 0.029752677
0.55781478 -0.15412673 0.029347815
0.55809861 -0.15320441 0.029362647
0.55838251 -0.15228209 0.029377481
0.55866641 -0.15135977 0.029392313
0.55806094 -0.15018044 0.028987488
0.55834514 -0.14925709 0.029002339
0.55774069 -0.14807469 0.028597578
0.55802524 -0.14715031 0.028612444
0.55830973 -0.14622591 0.028627312
0.55859429 -0.14530152 0.028642178
0.55887878 -0.14437713 0.028657043
0.55916333 -0.14345273 0.028671911
0.55944788 -0.14252834 0.028686777
0.55973238 -0.14160396 0.028701643
0.56001693 -0.14067957 0.02871651
0.56030142 -0.13975517 0.028731376
0.56058598 -0.13883078 0.028746244
0.56087053 -0.13790639 0.028761109
0.56115502 -0.13698201 0.028775975
0.56232411 -0.1363301 0.029210236
0.5626083 -0.13540673 0.029225085
0.56289256 -0.13448338 0.029239936
0.56317675 -0.13356002 0.029254785
0.56346095 -0.13263667 0.029269636
0.5637452 -0.13171332 0.029284485
0.5640294 -0.13078995 0.029299336
0.56431359 -0.1298666 0.029314185
0.56459779 -0.12894323 0.029329034
0.56488204 -0.12801988 0.029343884
0.56516623 -0.12709652 0.029358733
0.56545043 -0.12617317 0.029373584
0.56485391 -0.12496492 0.028969239
0.56513846 -0.12404053 0.028984105
0.56454289 -0.12282918 0.028579811
0.56482774 -0.12190375 0.028594695
0.56511259 -0.12097833 0.028609578
0.56451833 -0.11976285 0.02820535
0.56392467 -0.11854529 0.027801154
0.5633316 -0.11732565 0.027396994
0.56273919 -0.11610396 0.026992865
0.5630253 -0.1151744 0.027007814
0.5624339 -0.11394961 0.026603751
0.5618431 -0.11272275 0.026199706
0.56125289 -0.1114938 0.02579568
0.5606634 -0.11026281 0.025391702
0.56007451 -0.10902975 0.024987755
0.56036222 -0.10809501 0.025002789
0.56152558 -0.10746172 0.02543675
0.56268829 -0.10683049 0.025870677
0.5647254 -0.10650485 0.02672348
0.5667612 -0.10618334 0.027576189
0.5687958 -0.10586596 0.028428845
0.56908095 -0.10493951 0.028443744
0.57198733 -0.10493596 0.02971513
0.57401842 -0.10462997 0.030567588
0.57604814 -0.1043281 0.031419996
0.57807666 -0.10403037 0.03227235
0.58010387 -0.10373677 0.033124626
0.5812577 -0.10313449 0.033558071
0.58241093 -0.1025343 0.033991501
0.58356345 -0.10193616 0.034424897
0.58384413 -0.10102418 0.034439564
0.58499569 -0.10042914 0.034872908
0.58527613 -0.099518187 0.03488756
0.58642673 -0.098926254 0.035320856
0.58670682 -0.098016344 0.035335489
0.5869869 -0.097106427 0.035350122
0.58726692 -0.09619651 0.035364754
0.587547 -0.095286593 0.035379387
0.58782709 -0.094376683 0.035394024
0.58810717 -0.093466766 0.035408657
0.58838725 -0.092556849 0.03542329
0.50938398 -0.18647562 0.010898273
0.51058459 -0.18572025 0.011335249
0.51088089 -0.18475761 0.011350731
0.51388741 -0.1844261 0.012630535
0.51598889 -0.18388939 0.013488811
0.51718634 -0.18314436 0.013925622
0.51928562 -0.18261489 0.014783781
0.52138358 -0.18208954 0.015641874
0.5225786 -0.18135279 0.016078567
0.5246743 -0.18083468 0.016936542
0.5267688 -0.18032071 0.017794438
0.52796119 -0.17959224 0.018230997
0.52915293 -0.17886582 0.018667508
0.53124422 -0.17836219 0.019525252
0.53243434 -0.17764093 0.019961681
0.53362393 -0.17692177 0.020398062
0.53481281 -0.17620465 0.020834424
0.53600103 -0.17548962 0.021270752
0.53718859 -0.17477663 0.021707034
0.53837562 -0.17406574 0.02214331
0.53956193 -0.17335691 0.02257954
0.54074764 -0.17265013 0.023015706
0.54193264 -0.17194542 0.023451868
0.54311711 -0.17124277 0.023887983
0.54340416 -0.17031011 0.023902982
0.54458767 -0.16961059 0.024339076
0.54577047 -0.16891313 0.024775123
0.54695266 -0.16821773 0.02521112
0.54813421 -0.1675244 0.0256471
0.54931515 -0.16683315 0.026083047
0.55049545 -0.16614395 0.026518945
0.55167508 -0.16545683 0.026954826
0.55285406 -0.16477177 0.027390657
0.55403244 -0.16408877 0.027826469
0.55521023 -0.16340786 0.028262265
0.55549413 -0.16248554 0.028277099
0.55577803 -0.16156322 0.028291931
0.55606192 -0.1606409 0.028306765
0.55634576 -0.15971857 0.028321598
0.55662966 -0.15879625 0.028336432
0.55691355 -0.15787393 0.028351264
0.55719745 -0.15695161 0.028366098
0.55748135 -0.15602928 0.02838093
0.55776525 -0.15510696 0.028395765
0.55804914 -0.15418464 0.028410597
0.55833304 -0.15326232 0.028425431
0.55772716 -0.15208514 0.028019518
0.55801141 -0.15116177 0.028034369
0.55740654 -0.14998151 0.027628521
0.5576911 -0.14905712 0.027643386
0.55708718 -0.14787376 0.027237603
0.55737203 -0.14694832 0.027252486
0.55765688 -0.1460229 0.02726737
0.55794173 -0.14509748 0.027282253
0.55822659 -0.14417206 0.027297135
0.55851144 -0.14324662 0.02731202
0.55879629 -0.1423212 0.027326902
0.55908114 -0.14139578 0.027341785
0.55936599 -0.14047036 0.027356667
0.55965084 -0.13954493 0.027371552
0.55993569 -0.1386195 0.027386434
0.56110543 -0.13796443 0.027821785
0.56138998 -0.13704003 0.027836651
0.56255877 -0.13638806 0.028271966
0.56284297 -0.13546471 0.028286815
0.56312722 -0.13454135 0.028301664
0.56341141 -0.133618 0.028316515
0.56369561 -0.13269463 0.028331364
0.56397986 -0.13177128 0.028346214
0.56426406 -0.13084793 0.028361063
0.56454825 -0.12992457 0.028375914
0.56483245 -0.12900122 0.028390763
0.5651167 -0.12807785 0.028405612
0.5654009 -0.1271545 0.028420463
0.56568509 -0.12623113 0.028435312
0.56508887 -0.12502296 0.028029915
0.56537336 -0.12409857 0.028044781
0.56477809 -0.12288728 0.027639447
0.56506294 -0.12196185 0.027654329
0.56534779 -0.12103643 0.027669214
0.56475377 -0.11982101 0.02726393
0.56416035 -0.11860352 0.026858697
0.56444585 -0.11767603 0.026873613
0.56385338 -0.11645542 0.026468413
0.56326157 -0.11523277 0.026063249
0.56267041 -0.11400804 0.025658131
0.56207985 -0.11278124 0.025253031
0.56148994 -0.11155237 0.024847949
0.56090069 -0.11032143 0.024442932
0.5611881 -0.10938773 0.024457948
0.56147546 -0.10845403 0.024472963
0.56263822 -0.10782171 0.024907948
0.56467545 -0.10749387 0.025762893
0.56671137 -0.10717016 0.026617743
0.56874609 -0.10685059 0.027472526
0.56903124 -0.10592413 0.027487427
0.571064 -0.10561075 0.028342109
0.5730955 -0.10530152 0.029196756
0.57512569 -0.10499642 0.030051293
0.57715458 -0.10469545 0.030905776
0.57918227 -0.10439863 0.031760223
0.58120865 -0.10410593 0.032614559
0.58236194 -0.10350464 0.033049058
0.58264291 -0.10259163 0.033063743
0.58379519 -0.10199342 0.03349819
0.58407593 -0.10108144 0.033512861
0.58522725 -0.10048633 0.033947259
0.58550763 -0.099575385 0.033961911
0.58665794 -0.098983385 0.034396246
0.58693802 -0.098073468 0.034410879
0.58721811 -0.097163558 0.034425512
0.58749819 -0.096253641 0.034440145
0.58777827 -0.095343724 0.034454778
0.58805835 -0.094433807 0.034469411
0.58833843 -0.093523897 0.034484047
0.58861852 -0.09261398 0.03449868
0.50691658 -0.18591447 0.0086513991
0.50992548 -0.18557245 0.0099345315
0.51112556 -0.18481804 0.010372533
0.51322812 -0.18427604 0.011232999
0.51532942 -0.18373814 0.0120934
0.51652694 -0.18299203 0.012531267
0.51862603 -0.1824614 0.013391566
0.52072376 -0.18193488 0.014251769
0.52191877 -0.18119702 0.014689503
0.52401435 -0.18067776 0.015549619
0.52610862 -0.18016262 0.016409639
0.52820164 -0.17965163 0.017269621
0.52939314 -0.17892516 0.017707173
0.53148389 -0.17842139 0.018567024
0.53267378 -0.17770007 0.019004492
0.53386307 -0.17698084 0.019441942
0.53505164 -0.17626368 0.019879345
0.53623962 -0.17554855 0.020316727
0.53742695 -0.17483552 0.020754062
0.53861368 -0.17412455 0.021191379
0.53979975 -0.17341565 0.021628661
0.54098517 -0.17270881 0.022065884
0.54216999 -0.17200404 0.022503098
0.54335409 -0.17130134 0.022940269
0.54364121 -0.17036867 0.022955267
0.54482442 -0.16966909 0.023392402
0.54600698 -0.16897155 0.023829501
0.54718888 -0.16827609 0.024266554
0.54837018 -0.16758269 0.024703588
0.54955089 -0.16689138 0.025140574
0.55073088 -0.16620211 0.025577527
0.55191028 -0.16551493 0.02601446
0.55308902 -0.16482981 0.026451347
0.55426711 -0.16414675 0.026888214
0.5545513 -0.16322339 0.026903063
0.5557285 -0.16254345 0.027339881
0.55601239 -0.16162112 0.027354715
0.55629629 -0.1606988 0.027369548
0.55658019 -0.15977648 0.027384382
0.55686408 -0.15885416 0.027399214
0.55714798 -0.15793183 0.027414048
0.55743188 -0.15700951 0.02742888
0.55771577 -0.15608719 0.027443714
0.55799967 -0.15516487 0.027458547
0.55828357 -0.15424255 0.027473381
0.55856746 -0.15332022 0.027488213
0.55796182 -0.15214311 0.027081262
0.55824608 -0.15121976 0.027096111
0.55764151 -0.15003955 0.026689209
0.55703753 -0.14885728 0.026282355
0.55732238 -0.14793186 0.02629724
0.55760723 -0.14700642 0.026312122
0.55789208 -0.146081 0.026327005
0.55817693 -0.14515558 0.026341887
0.55846179 -0.14423016 0.026356772
0.55874664 -0.14330474 0.026371654
0.55903149 -0.1423793 0.026386537
0.55931634 -0.14145388 0.026401421
0.55960119 -0.14052846 0.026416304
0.55988598 -0.13960303 0.026431186
0.56017083 -0.13867761 0.026446071
0.56045568 -0.13775218 0.026460953
0.56162488 -0.13709807 0.026897339
0.56190944 -0.13617368 0.026912207
0.56219393 -0.1352493 0.026927073
0.56247848 -0.13432491 0.02694194
0.56276304 -0.13340051 0.026956806
0.56304753 -0.13247612 0.026971672
0.56333208 -0.13155173 0.026986539
0.56361657 -0.13062733 0.027001405
0.56390113 -0.12970296 0.027016271
0.56418568 -0.12877856 0.027031139
0.56447017 -0.12785417 0.027046004
0.56475472 -0.12692977 0.02706087
0.56503928 -0.12600538 0.027075738
0.56532377 -0.125081 0.027090603
0.56472844 -0.12387081 0.026684199
0.56501329 -0.12294538 0.026699081
0.56529814 -0.12201996 0.026713965
0.56558299 -0.12109453 0.026728848
0.56498921 -0.11987918 0.026322512
0.56527436 -0.11895272 0.026337411
