# .PCD v0.7 - Point Cloud Data file format
VERSION 0.7
FIELDS x y z
SIZE 4 4 4
TYPE F F F
COUNT 1 1 1
WIDTH 1350
HEIGHT 1
VIEWPOINT 0 0 0 1 0 0 0
POINTS 1350
DATA ascii
0.66405046 0.076754071 0.031777244
0.66436583 0.075678065 0.031351205
0.66467988 0.074600331 0.030925075
0.66421914 0.074016161 0.030901682
0.66453117 0.072935924 0.030475473
0.66406977 0.072350912 0.030452047
0.66437978 0.071268126 0.030025737
0.66468847 0.070183657 0.029599363
0.66499579 0.069097489 0.029172916
0.66453236 0.068509936 0.029149387
0.66483778 0.067421198 0.028722817
0.6643737 0.066832796 0.028699253
0.66390955 0.066244394 0.02867569
0.66421229 0.065152302 0.028249009
0.66374749 0.064563058 0.028225411
0.66328275 0.063973807 0.028201815
0.66281801 0.063384563 0.028178219
0.66235322 0.062795311 0.028154621
0.6626519 0.061698139 0.027727736
0.6621865 0.061108045 0.027704107
0.66172105 0.060517952 0.027680475
0.66201705 0.059417393 0.027253453
0.661551 0.058826454 0.02722979
0.66184503 0.057723321 0.026802642
0.66137826 0.057131536 0.026778944
0.66167021 0.056025896 0.02635172
0.6619609 0.054918569 0.025924426
0.66225022 0.053809538 0.02549707
0.66253817 0.052698821 0.025069639
0.66206878 0.05210365 0.025045807
0.66159934 0.051508475 0.025021972
0.66188467 0.050394338 0.024594381
0.66141456 0.049798317 0.024570514
0.66169786 0.048681673 0.02414285
0.66197985 0.047563333 0.023715116
0.66150844 0.046965621 0.023691179
0.66103703 0.046367906 0.023667244
0.66056556 0.045770194 0.023643309
0.66009414 0.045172479 0.023619372
0.65962273 0.044574764 0.023595437
0.65915126 0.043977052 0.023571501
0.65942788 0.042851944 0.023143498
0.65895581 0.042253383 0.023119528
0.65848368 0.041654821 0.023095559
0.65875769 0.040526323 0.022667419
0.6582849 0.039926916 0.022643415
0.65781212 0.03932751 0.022619413
0.65733939 0.038728103 0.022595409
0.65686661 0.038128696 0.022571405
0.65713662 0.036995087 0.022143036
0.65666318 0.036394831 0.022118999
0.65618974 0.035794578 0.022094961
0.6557163 0.035194326 0.022070924
0.65524286 0.03459407 0.022046886
0.65476942 0.033993818 0.022022849
0.65429598 0.033393566 0.021998812
0.65382254 0.032793313 0.021974774
0.6533491 0.032193057 0.021950737
0.65287566 0.031592805 0.021926699
0.65240228 0.030992551 0.021902662
0.65192884 0.030392297 0.021878624
0.65219009 0.029247714 0.02144984
0.65171599 0.028646614 0.021425767
0.65197527 0.027499491 0.020996884
0.65150046 0.026897544 0.020972779
0.65102571 0.026295597 0.020948675
0.65128231 0.025145089 0.020519651
0.6508069 0.024542294 0.020495512
0.65033144 0.023939501 0.020471374
0.64985597 0.023336709 0.020447234
0.64938056 0.022733914 0.020423096
0.6489051 0.022131121 0.020398956
0.64842969 0.021528328 0.020374816
0.64795423 0.020925535 0.020350678
0.64747882 0.02032274 0.020326538
0.64700335 0.019719947 0.0203024
0.64652795 0.019117154 0.02027826
0.64605248 0.018514361 0.02025412
0.64557707 0.017911566 0.020229982
0.64510161 0.017308773 0.020205842
0.64390415 0.017266395 0.020587094
0.6434294 0.016664447 0.02056299
0.64295465 0.016062502 0.020538885
0.64247984 0.015460555 0.020514779
0.64128572 0.015422409 0.020896198
0.64081162 0.01482131 0.020872127
0.64033753 0.01422021 0.020848054
0.63986343 0.013619109 0.020823983
0.63867265 0.013585197 0.021205576
0.63819921 0.012984944 0.021181539
0.6370104 0.012953604 0.021563256
0.63653761 0.012354197 0.021539252
0.63535088 0.012325364 0.021921046
0.63487875 0.011726803 0.021897076
0.63440669 0.011128243 0.021873107
0.63322258 0.011102797 0.022255035
0.63275111 0.010505084 0.0222311
0.63227969 0.0099073704 0.022207165
0.63180828 0.0093096569 0.022183228
0.63062751 0.0092884433 0.022565328
0.62944806 0.0092689246 0.022947494
0.62897801 0.0086729033 0.022923626
0.62780052 0.008655956 0.023305921
0.62662441 0.0086406693 0.023688259
0.62615567 0.008046343 0.02366446
0.62498158 0.008033595 0.024046894
0.62380886 0.0080225421 0.024429401
0.62334144 0.007429909 0.024405669
0.62170392 0.0068296082 0.024764577
0.62006903 0.0062327269 0.025123646
0.61843687 0.0056391992 0.02548283
0.61727214 0.0056383037 0.025865741
0.6168074 0.005049055 0.025842143
0.6163426 0.0044598081 0.025818547
0.61587787 0.0038705596 0.025794951
0.61541313 0.0032813139 0.025771353
0.61494839 0.0026920654 0.025747757
0.61378831 0.0026970983 0.026130909
0.61332422 0.0021086971 0.026107345
0.61286014 0.0015202959 0.026083782
0.61170268 0.0015287485 0.026467092
0.61123925 0.00094119471 0.026443563
0.61077589 0.00035364091 0.026420036
0.60962117 0.00036544396 0.026803458
0.6091584 -0.00022126248 0.026779963
0.6080057 -0.0002069168 0.027163485
0.60754359 -0.0007927788 0.027140023
0.60639286 -0.00077589101 0.027523648
0.60593146 -0.0013609056 0.027500222
0.60478276 -0.0013414822 0.027883949
0.60363531 -0.0013203305 0.028267767
0.60202986 -0.0018799959 0.028628305
0.60157049 -0.0024624714 0.028604979
0.60042709 -0.0024362742 0.028988976
0.59928507 -0.0024083822 0.02937304
0.59814435 -0.0023787962 0.029757176
0.59768695 -0.0029587324 0.02973395
0.5965482 -0.0029265739 0.03011821
0.59541088 -0.0028927568 0.030502515
0.59427482 -0.0028572446 0.030886885
0.59314018 -0.0028200403 0.031271324
0.59200674 -0.002781112 0.031655855
0.59087473 -0.0027405214 0.032040428
0.58974409 -0.0026982364 0.032425072
0.5886147 -0.0026542621 0.032809779
0.58748668 -0.0026085936 0.033194557
0.58635998 -0.0025611969 0.033579428
0.58523464 -0.0025121383 0.03396434
0.58411068 -0.0024613878 0.034349322
0.58298796 -0.0024089462 0.034734372
0.58186662 -0.0023547772 0.035119515
0.58074659 -0.0022989453 0.035504699
0.57962793 -0.002241422 0.03588995
0.57851064 -0.0021822071 0.036275268
0.5773946 -0.0021212969 0.036660656
0.57627994 -0.0020586653 0.037046134
0.574498 -0.0013662247 0.037839763
0.57338667 -0.0012993894 0.03822539
0.57294399 -0.0018606982 0.038202912
0.57183468 -0.0017913232 0.038588636
0.57072663 -0.0017202179 0.038974456
0.56895477 -0.0010150813 0.039768592
0.56785011 -0.00093977817 0.040154558
0.56674677 -0.00086274708 0.040540613
0.5656448 -0.00078405981 0.040926713
0.56454414 -0.00070368417 0.041312881
0.56278294 1.5004442e-05 0.042107556
0.56168562 9.9650169e-05 0.042493921
0.56058967 0.00018595738 0.042880327
0.55949503 0.00027395989 0.043266796
0.542642 0.012851272 0.052578397
0.54287988 0.011677053 0.052148428
0.53918093 0.014366558 0.054170895
0.53810966 0.014484194 0.054558557
0.53834891 0.013311671 0.054128654
0.53793293 0.012784228 0.054107532
0.53751689 0.012256784 0.05408641
0.53775346 0.011080878 0.053656369
0.53733677 0.010552587 0.053635214
0.53757137 0.009374138 0.053205077
0.53715402 0.0088450005 0.053183887
0.53673667 0.0083158622 0.053162698
0.53696859 0.0071339966 0.052732397
0.53655058 0.0066040112 0.052711174
0.53613257 0.0060740262 0.052689951
0.53571457 0.0055440408 0.052668724
0.53529656 0.0050140554 0.052647501
0.53487855 0.0044840761 0.052626278
0.53446054 0.0039540906 0.052605055
0.53404254 0.0034241052 0.052583832
0.53362453 0.0028941198 0.052562609
0.53320652 0.0023641346 0.052541386
0.53214592 0.0024953505 0.05292961
0.53108668 0.0026282226 0.053317878
0.53002876 0.0027627889 0.053706218
0.52897221 0.0028990447 0.054094624
0.52855688 0.0023724488 0.054073535
0.5281415 0.0018458529 0.054052446
0.52772617 0.0013192513 0.054031361
0.52667296 0.0014597434 0.054419935
0.52625829 0.00093399483 0.054398879
0.52584362 0.00040824051 0.054377828
0.52542895 -0.00011750797 0.054356772
0.52501428 -0.00064326229 0.054335717
0.52459961 -0.0011690108 0.054314665
0.52418494 -0.0016947592 0.05429361
0.52377027 -0.0022205135 0.054272559
0.5233556 -0.0027462621 0.054251503
0.52294087 -0.0032720165 0.054230448
0.5225262 -0.0037977649 0.054209396
0.52211154 -0.0043235193 0.054188341
0.52169687 -0.0048492677 0.054167286
0.52065295 -0.0046968907 0.054556362
0.520239 -0.005221792 0.054535341
0.51982498 -0.0057466989 0.054514322
0.51941097 -0.0062716058 0.054493301
0.51837045 -0.0061150249 0.054882519
0.51795709 -0.0066390848 0.054861534
0.51754373 -0.0071631386 0.054840546
0.51713043 -0.007687198 0.054819562
0.51671708 -0.0082112579 0.054798573
0.51630372 -0.0087353168 0.054777589
0.51589042 -0.0092593711 0.054756604
0.51547706 -0.009783431 0.054735616
0.5150637 -0.01030749 0.054714631
0.5146504 -0.010831544 0.054693643
0.51423705 -0.011355603 0.054672658
0.51382369 -0.011879663 0.05465167
0.51341039 -0.012403717 0.054630686
0.51299703 -0.012927776 0.054609701
0.51258367 -0.013451836 0.054588713
0.51217037 -0.013975889 0.054567728
0.51175702 -0.014499949 0.05454674
0.51134372 -0.015024009 0.054525755
0.51093036 -0.015548068 0.054504767
0.51113087 -0.016769692 0.054072902
0.51071686 -0.017294593 0.05405188
0.51030284 -0.017819501 0.054030862
0.50988883 -0.018344402 0.05400984
0.50947481 -0.018869309 0.053988818
0.50906086 -0.019394215 0.0539678
0.50864685 -0.019919116 0.053946778
0.50823283 -0.020444024 0.05392576
0.50721031 -0.020264586 0.054315895
0.50679702 -0.020788642 0.054294907
0.50638366 -0.021312701 0.054273922
0.5059703 -0.02183676 0.054252934
0.505557 -0.022360815 0.054231949
0.50514364 -0.022884874 0.054210961
0.50473028 -0.023408933 0.054189976
0.50431699 -0.023932993 0.054168992
0.50390363 -0.024457047 0.054148003
0.50349027 -0.024981106 0.054127019
0.50247514 -0.024792355 0.054517526
0.50206244 -0.025315568 0.054496571
0.64322078 0.12018928 0.050882772
0.64359188 0.1191847 0.05045861
0.64433014 0.11717043 0.049610052
0.6439001 0.1166252 0.049588218
0.64347005 0.11607999 0.049566384
0.65365696 0.10686896 0.043438416
0.65401 0.10584152 0.043013338
0.65436178 0.10481238 0.042588189
0.65550399 0.10331032 0.041760143
0.65585238 0.10227695 0.041334826
0.65619946 0.10124189 0.040909443
0.65654522 0.10020515 0.040483989
0.65688962 0.099166669 0.040058441
0.6572327 0.098126538 0.039632857
0.65836221 0.096608415 0.038804188
0.6587019 0.095564045 0.038378432
0.65904033 0.094517946 0.03795258
0.6593774 0.093470193 0.037526686
0.65971309 0.092420734 0.037100725
0.66004747 0.091369592 0.036674697
0.6603806 0.090316728 0.036248576
0.6607123 0.089262195 0.03582241
0.66104269 0.088205971 0.035396177
0.66137171 0.087148055 0.034969877
0.66169941 0.086088449 0.034543511
0.66280627 0.084541507 0.033713665
0.66313064 0.083477668 0.03328713
0.66345364 0.082412131 0.032860521
0.66377538 0.081344865 0.032433826
0.66409576 0.080275945 0.032007083
0.66441476 0.079205327 0.031580277
0.66473246 0.078133017 0.031153396
0.66427302 0.077550545 0.031130072
0.66381359 0.076968066 0.031106746
0.66412866 0.075892374 0.030679734
0.66444236 0.074814953 0.03025263
0.66475469 0.07373587 0.029825481
0.66429329 0.073150858 0.029802052
0.66460365 0.072069235 0.029374804
0.66491264 0.070985921 0.028947486
0.66522032 0.069900908 0.028520102
0.66475689 0.069313355 0.028496573
0.66506261 0.068225771 0.02806906
0.66459852 0.067637376 0.028045496
0.66413444 0.067048974 0.028021934
0.66443741 0.065958038 0.027594311
0.66397268 0.065368794 0.027570715
0.66350788 0.064779542 0.027547117
0.66304314 0.064190291 0.027523521
0.6625784 0.063601047 0.027499925
0.66211367 0.063011803 0.027476327
0.66241199 0.061914939 0.027048469
0.66194654 0.061324842 0.027024837
0.66224289 0.060225446 0.026596876
0.66177678 0.059634503 0.026573211
0.66207111 0.058532532 0.026145123
0.6616044 0.057940744 0.026121425
0.66189671 0.056836262 0.02569326
0.66218764 0.05573009 0.025265027
0.66247731 0.054622222 0.024836726
0.66200852 0.054027896 0.024812926
0.66229618 0.052917488 0.024384523
0.66258252 0.051805355 0.023956029
0.66211241 0.051209334 0.023932161
0.66239673 0.050094694 0.023503589
0.66192597 0.049497824 0.023479687
0.66220826 0.048380647 0.023051012
0.66173685 0.047782931 0.023027077
0.66201711 0.046663214 0.022598302
0.66154504 0.046064653 0.022574332
0.66107291 0.045466091 0.022550363
0.66060084 0.044867534 0.022526393
0.66012871 0.044268973 0.022502424
0.65965664 0.043670412 0.022478454
0.65993226 0.042544764 0.022049442
0.65945947 0.041945357 0.022025438
0.65898669 0.04134595 0.022001434
0.65925968 0.040216886 0.02157226
0.65878624 0.039616633 0.021548223
0.65831286 0.039016381 0.021524185
0.65783942 0.038416125 0.021500148
0.65736598 0.037815873 0.02147611
0.65689254 0.037215617 0.021452073
0.6564191 0.036615364 0.021428036
0.65594566 0.036015112 0.021403998
0.65547222 0.035414856 0.021379961
0.65499878 0.034814604 0.021355923
0.65526438 0.033676259 0.020926403
0.65479028 0.033075158 0.02090233
0.65431619 0.032474056 0.020878259
0.65384209 0.031872958 0.020854188
0.653368 0.031271856 0.020830117
0.6528939 0.030670756 0.020806046
0.65241981 0.030069657 0.020781973
0.65194565 0.029468557 0.020757902
0.65147156 0.028867457 0.020733831
0.65173048 0.027720645 0.020303972
0.65125573 0.027118698 0.020279866
0.65078098 0.02651675 0.020255761
0.65103722 0.025366554 0.019825766
0.65056175 0.024763759 0.019801626
0.65008634 0.024160966 0.019777486
0.64961088 0.023558173 0.019753348
0.64913547 0.02295538 0.019729208
0.64866 0.022352586 0.019705068
0.6481846 0.021749793 0.01968093
0.64770913 0.021147 0.01965679
0.64723372 0.020544207 0.019632652
0.64675826 0.019941412 0.019608513
0.64628285 0.019338619 0.019584373
0.64580739 0.018735826 0.019560235
0.64533198 0.018133033 0.019536095
0.64485651 0.017530238 0.019511957
0.64365941 0.017487548 0.019894183
0.64318466 0.016885603 0.019870076
0.64270985 0.016283656 0.019845972
0.6422351 0.015681708 0.019821865
0.64104134 0.015643252 0.020204261
0.64056724 0.015042152 0.02018019
0.64009315 0.014441052 0.020156119
0.63961899 0.013839952 0.020132048
0.63842857 0.013805729 0.020514613
0.63795513 0.013205475 0.020490576
0.63676667 0.013173825 0.020873267
0.63629389 0.012574418 0.020849263
0.63582116 0.011975011 0.020825259
0.63463539 0.011946714 0.021208063
0.63416326 0.011348153 0.021184092
0.63369119 0.010749593 0.021160124
0.6325081 0.010724682 0.021543061
0.63203669 0.010126969 0.021519126
0.63156521 0.0095292553 0.02149519
0.6303848 0.0095077306 0.021878263
0.62991405 0.0089108637 0.021854362
0.62873566 0.0088918796 0.022237537
0.62826556 0.0082958592 0.022213669
0.62708908 0.0082794493 0.022596972
0.62661964 0.0076842746 0.022573138
0.62544525 0.0076703709 0.022956517
0.62427217 0.0076581589 0.023339963
0.62310046 0.0076476415 0.023723477
0.62263304 0.0070550065 0.023699744
0.6214633 0.0070470297 0.024083361
0.62099653 0.0064552422 0.024059663
0.62052977 0.0058634542 0.024035964
0.61936265 0.0058588954 0.02441974
0.61773151 0.0052659041 0.024779929
0.61726612 0.0046758098 0.024756299
0.61680067 0.0040857149 0.024732668
0.61633527 0.0034956222 0.024709038
0.61586982 0.0029055262 0.024685407
0.61470878 0.0029085535 0.025069464
0.61424404 0.002319308 0.025045868
0.61377925 0.0017300594 0.02502227
0.61262089 0.0017364734 0.025406463
0.61215681 0.0011480722 0.025382901
0.61169273 0.00055967103 0.025359336
0.61053693 0.00056950661 0.025743693
0.61007357 -1.8050114e-05 0.025720164
0.60891986 -5.7069574e-06 0.026104592
0.60845709 -0.00059241342 0.026081096
0.60730535 -0.00057753507 0.02646563
0.60615498 -0.000560958 0.026850227
0.60569358 -0.0011459726 0.026826801
0.60454524 -0.0011268604 0.027211502
0.60339814 -0.0011060195 0.027596295
0.60179305 -0.0016659956 0.027957806
0.60133362 -0.0022484711 0.02793448
0.60019058 -0.0022225857 0.028319454
0.59973186 -0.0028042137 0.028296163
0.59859085 -0.0027757853 0.028681235
0.59745115 -0.0027456658 0.029066378
0.59631276 -0.0027138181 0.029451612
0.59517574 -0.0026803121 0.029836891
0.59471971 -0.0032585538 0.029813735
0.59358466 -0.0032225077 0.030199112
0.59245098 -0.0031847679 0.030584561
0.59131861 -0.0031453031 0.0309701
0.59018761 -0.0031041761 0.031355683
0.58838165 -0.0024436838 0.032150004
0.58725399 -0.0023983261 0.032535754
0.58612764 -0.0023512407 0.032921601
0.58500266 -0.0023024934 0.033307489
0.58387899 -0.0022520537 0.03369344
0.58275664 -0.0021999232 0.034079466
0.58163559 -0.0021460648 0.034465585
0.58051598 -0.0020905444 0.034851741
0.57939768 -0.0020333321 0.035237968
0.57828069 -0.0019744281 0.035624262
0.57716501 -0.0019138292 0.036010627
0.57605064 -0.0018515089 0.036397081
0.57426941 -0.0011596901 0.037192658
0.57315844 -0.0010931656 0.037579257
0.57271576 -0.0016544743 0.037556779
0.57160676 -0.0015854107 0.037943479
0.57049912 -0.0015146165 0.038330272
0.56872791 -0.00081010192 0.039126355
0.56762362 -0.00073510956 0.039513294
0.56652057 -0.0006583897 0.039900329
0.56475604 5.4586908e-05 0.040696751
0.56365645 0.00013550503 0.041083924
0.56321973 -0.00041818325 0.041061752
0.56146115 0.00030245239 0.041858505
0.56036556 0.00038844888 0.042245887
0.53831089 0.015204261 0.053973466
0.53724068 0.015322428 0.054362137
0.53748024 0.014151069 0.053931292
0.53706491 0.013624468 0.053910203
0.53730243 0.012450567 0.053479258
0.53753865 0.011274971 0.053048246
0.53712201 0.01074668 0.05302709
0.5373562 0.0095685422 0.052595977
0.53693885 0.0090394039 0.052574787
0.53652149 0.0085102664 0.052553598
0.53675312 0.0073287119 0.052122321
0.53633511 0.0067987265 0.052101098
0.5359171 0.0062687411 0.052079875
0.5354991 0.0057387562 0.052058652
0.53508103 0.0052087707 0.052037425
0.53466302 0.0046787909 0.052016202
0.53424501 0.004148806 0.051994979
0.53382701 0.0036188206 0.051973756
0.533409 0.0030888352 0.051952533
0.53299099 0.0025588498 0.05193131
0.53193074 0.0026897546 0.05232051
0.53087187 0.0028223153 0.052709755
0.5298143 0.0029565708 0.05309907
0.52875805 0.0030925155 0.053488448
0.52834272 0.0025659197 0.053467359
0.5279274 0.0020393238 0.053446271
0.52751207 0.0015127221 0.053425182
0.52645916 0.0016529032 0.053814732
0.52604449 0.0011271547 0.05379368
0.52562982 0.00060140033 0.053772625
0.52521515 7.5651842e-05 0.053751573
0.52480048 -0.0004501025 0.053730518
0.52438581 -0.00097585097 0.053709462
0.52397114 -0.0015015994 0.053688411
0.52355647 -0.0020273537 0.053667355
0.5231418 -0.0025531023 0.0536463
0.52272713 -0.0030788565 0.053625248
0.52231246 -0.0036046051 0.053604193
0.52189779 -0.0041303593 0.053583138
0.52085352 -0.0039791353 0.053973153
0.52043957 -0.0045040422 0.053952135
0.52002555 -0.0050289431 0.053931113
0.51961154 -0.00555385 0.053910095
0.51919752 -0.0060787573 0.053889073
0.51815736 -0.0059224875 0.054279268
0.517744 -0.0064465469 0.05425828
0.51733065 -0.0069706007 0.054237295
0.51691735 -0.0074946606 0.05421631
0.51650399 -0.00801872 0.054195322
0.51609063 -0.0085427798 0.054174338
0.51567733 -0.0090668332 0.054153349
0.51526397 -0.0095908931 0.054132365
0.51485062 -0.010114953 0.054111376
0.51443732 -0.010639006 0.054090392
0.51402396 -0.011163066 0.054069407
0.5136106 -0.011687125 0.054048419
0.5131973 -0.012211179 0.054027434
0.51278394 -0.012735239 0.054006446
0.51237059 -0.013259298 0.053985462
0.51195729 -0.013783352 0.053964473
0.51154393 -0.014307411 0.053943489
0.51113063 -0.014831471 0.053922504
0.51071727 -0.015355531 0.053901516
0.51091743 -0.016576843 0.053468674
0.51050341 -0.017101744 0.053447653
0.5100894 -0.017626652 0.053426635
0.50967544 -0.018151553 0.053405613
0.50926143 -0.01867646 0.053384591
0.50884742 -0.019201366 0.053363573
0.5084334 -0.019726269 0.053342551
0.50801939 -0.020251175 0.053321533
0.50699723 -0.02007205 0.05371264
0.50658393 -0.020596104 0.053691655
0.50617057 -0.021120163 0.053670667
0.50575721 -0.021644223 0.053649683
0.50534391 -0.022168277 0.053628698
0.50493056 -0.022692336 0.05360771
0.5045172 -0.023216397 0.053586725
0.5041039 -0.023740456 0.053565737
0.50369054 -0.024264509 0.053544752
0.50267506 -0.024076916 0.053936198
0.50226241 -0.024600128 0.053915247
0.64140123 0.12131014 0.051064827
0.64337087 0.11938439 0.04983294
0.64453846 0.11791597 0.049004268
0.64410841 0.11737074 0.048982434
0.64208478 0.1177538 0.049767643
0.64245224 0.1167453 0.049342334
0.65104973 0.10847905 0.044007242
0.65378284 0.10604681 0.042370129
0.65413421 0.10501799 0.041944005
0.65527576 0.10351654 0.04111401
0.65562379 0.10248349 0.040687717
0.65597057 0.10144874 0.040261358
0.65631592 0.1004123 0.039834931
0.65666002 0.099374138 0.039408412
0.65700275 0.098334312 0.038981847
0.65813154 0.096816815 0.038151234
0.65847093 0.095772751 0.037724502
0.65880901 0.094726965 0.037297677
0.65914571 0.093679525 0.036870807
0.65948111 0.092630379 0.036443874
0.65981513 0.091579549 0.03601687
0.66014791 0.090526991 0.035589773
0.66047925 0.089472771 0.035162631
0.66080928 0.08841686 0.034735426
0.66113794 0.087359257 0.03430815
0.66146535 0.086299956 0.033880811
0.66257149 0.08475364 0.033049017
0.6628955 0.083690107 0.032621507
0.6632182 0.082624882 0.032193925
0.66353959 0.081557937 0.031766251
0.66385961 0.080489323 0.031338535
0.66417825 0.079419017 0.030910751
0.66449559 0.07834702 0.030482899
0.66403621 0.077764541 0.030459573
0.66435152 0.076690011 0.030031621
0.66466558 0.075613745 0.029603576
0.66420484 0.075029574 0.029580183
0.66451681 0.073950805 0.02915206
0.66482747 0.072870336 0.028723869
0.66436541 0.072284482 0.028700409
0.66467404 0.071201473 0.028272117
0.66498142 0.070116773 0.027843758
0.664518 0.06952922 0.02782023
0.66482335 0.06844195 0.027391741
0.66435927 0.067853548 0.027368179
0.66389519 0.067265153 0.027344616
0.6641978 0.066174522 0.026916018
0.66373307 0.065585278 0.026892422
0.66326833 0.064996034 0.026868824
0.66280353 0.064406782 0.026845228
0.66310287 0.063311927 0.026416462
0.66263747 0.062721834 0.026392832
0.66217202 0.06213174 0.026369201
0.66246867 0.061033495 0.025940299
0.66200256 0.060442556 0.025916634
0.66229725 0.05934174 0.025487604
0.66259056 0.058239266 0.025058534
0.66212314 0.057646628 0.0250348
0.66317314 0.05602923 0.024200184
0.66270441 0.055434905 0.024176385
0.66299301 0.054326501 0.023747077
0.66252363 0.05373133 0.023723243
0.66281027 0.052620351 0.023293806
0.66309553 0.051507715 0.022864327
0.66262478 0.050910849 0.022840425
0.66290808 0.049795672 0.022410845
0.66243666 0.049197957 0.02238691
0.66271794 0.048080243 0.021957228
0.66224581 0.047481682 0.021933258
0.66177374 0.046883125 0.021909287
0.66130161 0.046284564 0.021885319
0.66157961 0.045162614 0.021455469
0.66110682 0.044563208 0.021431465
0.66063404 0.043963801 0.021407461
0.66016126 0.043364391 0.021383457
0.66043591 0.04223818 0.020953409
0.65996248 0.041637924 0.020929372
0.65948904 0.041037671 0.020905335
0.65901566 0.040437419 0.020881297
0.65854222 0.039837163 0.02085726
0.65806878 0.039236911 0.020833222
0.65759534 0.038636658 0.020809185
0.6571219 0.038036406 0.020785147
0.65664846 0.03743615 0.02076111
0.65617502 0.036835898 0.020737072
0.65570158 0.036235642 0.020713035
0.65596819 0.035099301 0.020282609
0.65549409 0.0344982 0.020258537
0.65502 0.033897102 0.020234466
0.6545459 0.033296 0.020210395
0.65407175 0.032694899 0.020186324
0.65359765 0.032093801 0.020162253
0.65312356 0.031492699 0.02013818
0.65264946 0.030891599 0.020114109
0.65217537 0.030290499 0.020090038
0.65170127 0.0296894 0.020065967
0.65122718 0.0290883 0.020041896
0.65148574 0.027941799 0.019611061
0.65101099 0.027339851 0.019586954
0.65053618 0.026737904 0.01956285
0.65079212 0.025588019 0.019131878
0.65031666 0.024985224 0.019107739
0.64984125 0.024382431 0.0190836
0.64936578 0.023779638 0.019059461
0.64889038 0.023176845 0.019035323
0.64841491 0.02257405 0.019011183
0.6479395 0.021971257 0.018987043
0.64746404 0.021368464 0.018962905
0.64698863 0.020765672 0.018938765
0.64651316 0.020162877 0.018914627
0.64603776 0.019560084 0.018890487
0.64556229 0.018957291 0.018866347
0.64508688 0.018354498 0.018842209
0.64461142 0.017751703 0.018818069
0.64341468 0.017708702 0.019201271
0.64293987 0.017106757 0.019177165
0.64246511 0.016504809 0.01915306
0.64199036 0.015902862 0.019128954
0.6407969 0.015864095 0.019512326
0.6403228 0.015262995 0.019488255
0.63984871 0.014661895 0.019464184
0.63937461 0.014060794 0.019440111
0.63818449 0.014026261 0.01982365
0.63771111 0.013426007 0.019799612
0.63652295 0.013394046 0.02018328
0.63605016 0.012794639 0.020159276
0.63557744 0.012195231 0.020135272
0.63510466 0.011595825 0.020111268
0.63391989 0.011568063 0.020495079
0.63344783 0.010969503 0.020471109
0.6329757 0.010370942 0.020447141
0.63179362 0.010346567 0.020831088
0.63132221 0.0097488537 0.020807151
0.63014215 0.0097270189 0.021191198
0.62967134 0.009130151 0.021167297
0.62920058 0.008533285 0.021143394
0.62802321 0.0085148364 0.021527579
0.62684709 0.0084981145 0.021911856
0.62637764 0.0079029398 0.021888023
0.62520361 0.007888726 0.022272374
0.62403089 0.0078762025 0.022656797
0.62356275 0.0072827213 0.022633031
0.62309468 0.0066892402 0.022609264
0.62192464 0.0066801049 0.022993822
0.62145722 0.0060874713 0.02297009
0.6209898 0.0054948376 0.022946356
0.61982238 0.0054890881 0.023331048
0.61865628 0.0054850653 0.023715835
0.61819023 0.0048941248 0.02369217
0.61772412 0.0043031843 0.023668505
0.61725801 0.0037122427 0.02364484
0.61679196 0.0031213036 0.023621175
0.61562991 0.0031223251 0.024006139
0.61516446 0.0025322321 0.02398251
0.61469907 0.0019421391 0.023958879
0.6135397 0.0019465477 0.024343977
0.6130749 0.001357299 0.024320381
0.61191756 0.0013642492 0.024705581
0.61145347 0.00077584793 0.024682019
0.61098939 0.00018744679 0.024658456
0.60983461 0.00019781613 0.025043819
0.60868126 0.00020984803 0.025429223
0.60821849 -0.0003768584 0.025405727
0.60706717 -0.00036229077 0.025791233
0.60591716 -0.00034602496 0.026176807
0.6054557 -0.00093103957 0.02615338
0.60430771 -0.00091223803 0.026539056
0.60270089 -0.0014750283 0.026901463
0.60155618 -0.0014519958 0.02728731
0.60109681 -0.0020344714 0.027263984
0.59995413 -0.0020088966 0.027649932
0.59949535 -0.0025905247 0.027626639
0.5983547 -0.0025624079 0.028012689
0.59721535 -0.0025325988 0.028398804
0.59607732 -0.0025010628 0.028785015
0.5949406 -0.0024678677 0.029171266
0.59448457 -0.0030461091 0.029148111
0.59334987 -0.0030103743 0.029534463
0.59221655 -0.0029729453 0.029920885
0.59108454 -0.0029337916 0.030307401
0.58995384 -0.0028929755 0.030693956
0.58814859 -0.0022331052 0.031490225
0.58702129 -0.0021880586 0.031876951
0.58589524 -0.0021412843 0.032263771
0.58477062 -0.0020928478 0.032650635
0.58364731 -0.0020427196 0.033037566
0.58252531 -0.0019908999 0.033424564
0.58140463 -0.0019373528 0.033811655
0.58028531 -0.0018821431 0.034198787
0.57916737 -0.0018252421 0.03458599
0.57805073 -0.001766649 0.034973256
0.57693541 -0.0017063612 0.035360593
0.5758214 -0.0016443518 0.035748024
0.57404083 -0.00095315505 0.036545549
0.57293022 -0.00088694174 0.03693312
0.57248753 -0.0014482505 0.036910646
0.57137889 -0.001379498 0.037298322
0.5696063 -0.00067810895 0.038096275
0.56850106 -0.0006051223 0.038484123
0.56673312 0.00010219253 0.039282314
0.56563121 0.00017941577 0.03967033
0.56453055 0.00025832208 0.040058415
0.56343132 0.00033892947 0.040446565
0.56233335 0.00042123109 0.040834781
0.56123668 0.0005052546 0.041223094
0.56080133 -4.6738955e-05 0.041200988
0.53678632 0.016684987 0.05418871
0.5363723 0.016160078 0.054167688
0.53661221 0.01498984 0.053735882
0.53619754 0.014464091 0.053714827
0.53643543 0.013291342 0.053282939
0.536672 0.012116905 0.052850988
0.5369072 0.010940772 0.052418966
0.53714103 0.0097629465 0.051986877
0.53672373 0.0092338081 0.051965687
0.53630638 0.0087046707 0.051944498
0.53653759 0.0075234268 0.051512245
0.53611958 0.0069934414 0.051491022
0.53570157 0.0064634564 0.051469799
0.53528357 0.005933471 0.051448576
0.53486556 0.0054034856 0.051427353
0.53444755 0.0048735063 0.05140613
0.53402954 0.0043435208 0.051384907
0.53361154 0.0038135354 0.051363684
0.53319353 0.00328355 0.051342458
0.53277552 0.0027535649 0.051321235
0.53171557 0.0028841584 0.05171141
0.53065705 0.0030164081 0.052101631
0.52959985 0.0031503527 0.052491918
0.52854395 0.0032859864 0.052882269
0.52812862 0.0027593905 0.052861184
0.5277133 0.0022327946 0.052840095
0.52729791 0.0017061929 0.052819006
0.52624542 0.001846063 0.053209532
0.52583075 0.0013203145 0.053188477
0.52541608 0.00079456012 0.053167425
0.52500141 0.00026881165 0.05314637
0.52458674 -0.00025694267 0.053125314
0.52417207 -0.00078269118 0.053104263
0.5237574 -0.0013084396 0.053083207
0.52334267 -0.0018341939 0.053062152
0.522928 -0.0023599425 0.053041101
0.52251333 -0.0028856967 0.053020045
0.52209866 -0.0034114453 0.052998994
0.52105409 -0.0032613853 0.053389948
0.52064013 -0.0037862863 0.053368926
0.52022612 -0.0043111932 0.053347908
0.51981211 -0.0048360946 0.053326886
0.51939809 -0.0053610015 0.053305868
0.51898408 -0.0058859084 0.053284846
0.51794428 -0.00572995 0.053676017
0.51753092 -0.0062540094 0.053655028
0.51711756 -0.0067780633 0.053634044
0.51670426 -0.0073021227 0.053613055
0.5162909 -0.0078261821 0.053592071
0.51587754 -0.0083502419 0.053571083
0.51546425 -0.0088742962 0.053550098
0.51505089 -0.0093983551 0.053529114
0.51463753 -0.009922415 0.053508125
0.51422423 -0.010446468 0.053487141
0.51381087 -0.010970528 0.053466152
0.51339751 -0.011494588 0.053445168
0.51298422 -0.012018641 0.05342418
0.51257086 -0.012542701 0.053403195
0.5121575 -0.013066761 0.05338221
0.5117442 -0.013590815 0.053361222
0.51133084 -0.014114874 0.053340238
0.51091754 -0.014638933 0.053319249
0.51050419 -0.015162993 0.053298265
0.51009083 -0.015687047 0.053277276
0.51028997 -0.016908895 0.052843425
0.50987601 -0.017433804 0.052822404
0.509462 -0.017958704 0.052801386
0.50904799 -0.018483611 0.052780364
0.50863397 -0.019008517 0.052759346
0.50821996 -0.01953342 0.052738324
0.50780594 -0.020058326 0.052717306
0.50678414 -0.019879512 0.053109389
0.50637084 -0.020403566 0.053088404
0.50595748 -0.020927625 0.053067416
0.50554413 -0.021451686 0.053046431
0.50513083 -0.021975739 0.053025443
0.50471747 -0.022499798 0.053004459
0.50430411 -0.023023859 0.05298347
0.50389081 -0.023547918 0.052962486
0.50347745 -0.024071971 0.052941501
0.50246233 -0.023884689 0.053333923
0.64394832 0.11912281 0.04880289
0.64431679 0.11811627 0.04837665
0.64388674 0.11757106 0.048354816
0.64504957 0.1160982 0.047524016
0.65082389 0.10868309 0.04336793
0.65355563 0.1062521 0.041726921
0.65390664 0.10522359 0.04129982
0.6542564 0.10419335 0.040872633
0.65460479 0.10316145 0.040445399
0.65495187 0.10212787 0.0400181
0.65608668 0.10061946 0.039185874
0.65643042 0.099581607 0.038758382
0.65677279 0.098542094 0.038330842
0.65711385 0.097500883 0.037903238
0.65823996 0.095981464 0.037070572
0.65857768 0.094935991 0.036642771
0.65891403 0.093888856 0.036214929
0.65924907 0.092840023 0.03578702
0.65958279 0.091789506 0.03535904
0.65991515 0.090737261 0.034930971
0.66024619 0.089683346 0.034502856
0.66057587 0.088627748 0.034074675
0.66090423 0.087570459 0.033646427
0.66123122 0.08651147 0.033218108
0.66233671 0.084965773 0.032384366
0.66266036 0.083902553 0.031955879
0.6629827 0.082837641 0.031527326
0.66330379 0.081771001 0.031098677
0.66362345 0.0807027 0.030669987
0.66394174 0.079632707 0.030241229
0.66425878 0.078561015 0.029812403
0.66379935 0.077978544 0.029789077
0.66411436 0.076904319 0.029360149
0.66442806 0.075828366 0.02893113
0.66474038 0.074750751 0.028502068
0.66505134 0.073671445 0.028072936
0.66458929 0.073085584 0.028049475
0.66489828 0.072003737 0.027620243
0.66443551 0.071417026 0.027596748
0.66474247 0.070332639 0.027167413
0.66427904 0.069745086 0.027143884
0.6645841 0.068658128 0.026714422
0.66412002 0.068069726 0.026690859
0.66442299 0.066980265 0.026261322
0.66395825 0.066391014 0.026237724
0.66349345 0.065801769 0.026214128
0.66302872 0.065212518 0.026190531
0.66332835 0.064118817 0.025760824
0.66286296 0.063528724 0.025737194
0.66316056 0.062432487 0.025307383
0.66269445 0.061841544 0.02528372
0.66299015 0.060742736 0.024853785
0.66252339 0.060150951 0.024830086
0.662817 0.059049629 0.024400072
0.6631093 0.057946619 0.023969993
0.66264123 0.057353139 0.023946228
0.6629315 0.056247585 0.023516044
0.66246277 0.055653259 0.023492245
0.66275102 0.054545164 0.023061961
0.66303802 0.053435348 0.022631584
0.66332364 0.05232387 0.022201164
0.66285288 0.051727001 0.022177262
0.66313648 0.050612982 0.021746742
0.66341877 0.049497277 0.021316154
0.66294664 0.048898716 0.021292184
0.66247457 0.048300155 0.021268215
0.66275418 0.047181055 0.02083749
0.66228139 0.046581648 0.020813487
0.66180861 0.045982242 0.020789484
0.66133589 0.045382835 0.02076548
0.6608631 0.044783428 0.020741476
0.66113871 0.043659218 0.020310523
0.66066527 0.043058965 0.020286486
0.66019189 0.042458709 0.020262448
0.66046476 0.041331146 0.019831384
0.65999067 0.040730044 0.019807313
0.65951657 0.040128946 0.019783242
0.65904248 0.039527845 0.019759171
0.65856838 0.038926747 0.0197351
0.65809429 0.038325645 0.019711027
0.65762019 0.037724547 0.019686956
0.6571461 0.037123445 0.019662885
0.656672 0.036522344 0.019638814
0.65619785 0.035921242 0.019614743
0.65572375 0.035320144 0.01959067
0.65524966 0.034719042 0.019566599
0.65477556 0.034117945 0.019542528
0.65430146 0.033516843 0.019518457
0.65382737 0.032915741 0.019494385
0.65335327 0.032314643 0.019470314
0.65287918 0.031713542 0.019446243
0.65240502 0.031112444 0.019422172
0.65193093 0.030511342 0.019398101
0.65145683 0.029910242 0.019374028
0.65098274 0.029309142 0.019349957
0.651241 0.028162954 0.018918147
0.65076619 0.027561007 0.018894041
0.65029144 0.02695906 0.018869936
0.65054703 0.025809484 0.018437993
0.65007156 0.025206689 0.018413855
0.64959615 0.024603896 0.018389715
0.64912069 0.024001103 0.018365577
0.64864528 0.02339831 0.018341437
0.64816982 0.022795515 0.018317297
0.64769441 0.022192722 0.018293159
0.64721894 0.021589929 0.018269019
0.64674348 0.020987136 0.018244879
0.64626807 0.020384341 0.018220741
0.6457926 0.019781549 0.018196601
0.6453172 0.019178756 0.018172463
0.64484173 0.018575963 0.018148324
0.64436632 0.017973168 0.018124184
0.64269513 0.01732791 0.018484252
0.64222038 0.016725963 0.018460147
0.64174557 0.016124018 0.018436043
0.64055252 0.016084937 0.018820388
0.64007843 0.015483838 0.018796315
0.63960427 0.014882738 0.018772244
0.63913018 0.014281637 0.018748173
0.63794047 0.014246793 0.019132687
0.63746703 0.013646538 0.019108649
0.63627923 0.013614266 0.019493291
0.63580644 0.01301486 0.019469287
0.63533372 0.012415452 0.019445285
0.63486093 0.011816045 0.019421281
0.63367653 0.011787972 0.019806067
0.6332044 0.011189412 0.019782096
0.63273233 0.010590851 0.019758126
0.6322602 0.0099922922 0.019734157
0.63107914 0.0099684522 0.020119112
0.63060772 0.0093707377 0.020095177
0.62942868 0.0093494393 0.020480232
0.62895793 0.0087525724 0.020456331
0.62778085 0.0087338127 0.020841489
0.62660509 0.0087167798 0.021226741
0.62613565 0.008121606 0.021202907
0.62496191 0.0081070801 0.021588234
0.62449318 0.0075127529 0.021564433
0.62402439 0.0069184247 0.021540634
0.62285334 0.0069072838 0.021926098
0.62238526 0.0063138027 0.021902332
0.62191719 0.005720323 0.021878565
0.62074882 0.0057125702 0.022264164
0.6202814 0.0051199351 0.022240432
0.619115 0.005114723 0.022626134
0.61864823 0.004522935 0.022602435
0.61748385 0.0045202947 0.022988262
0.61701775 0.0039293529 0.022964597
0.61655164 0.0033384142 0.022940934
0.61608559 0.0027474707 0.022917269
0.61561948 0.0021565305 0.022893604
0.6144591 0.0021589387 0.023279611
0.6139937 0.0015688427 0.02325598
0.61352825 0.00097874971 0.02323235
0.61237055 0.00098454161 0.02361849
0.61121422 0.00099202525 0.0240047
0.61075014 0.000403624 0.023981137
0.60959572 0.00041368237 0.024367474
0.60913229 -0.00017387143 0.024343945
0.60797995 -0.00016130341 0.024730358
0.60682893 -0.00014704677 0.025116839
0.60636687 -0.00073290587 0.025093378
0.60521787 -0.00071610685 0.025479959
0.60407019 -0.00069761596 0.025866609
0.60246372 -0.0012607176 0.026229993
0.60131937 -0.001237996 0.026616812
0.60085994 -0.0018204715 0.026593488
0.59971762 -0.0017952078 0.026980409
0.5992589 -0.0023768358 0.026957117
0.59811854 -0.0023490298 0.027344139
0.59697956 -0.0023195322 0.02773123
0.59584183 -0.0022883068 0.028118415
0.59470552 -0.0022554228 0.028505642
0.59357053 -0.0022208437 0.028892936
0.59243685 -0.0021845729 0.029280297
0.59130448 -0.0021465777 0.029667754
0.59017354 -0.0021069201 0.030055251
0.58904386 -0.0020655682 0.030442817
0.58791554 -0.0020225269 0.03083045
0.58678859 -0.0019777913 0.031218151
0.5856629 -0.0019313277 0.031605944
0.58453858 -0.0018832027 0.03199378
0.58341563 -0.0018333854 0.032381684
0.58229399 -0.0017818768 0.032769658
0.58117366 -0.0017286405 0.033157725
0.5800547 -0.0016737421 0.033545833
0.57893705 -0.0016171521 0.033934008
0.57782078 -0.00155887 0.034322251
0.57670581 -0.0014988934 0.034710564
0.57492387 -0.00081082835 0.035509959
0.57381231 -0.00074662047 0.03589844
0.57270199 -0.00068071816 0.036286991
0.57225925 -0.0012420269 0.036264513
0.57115102 -0.0011735854 0.036653161
0.56937909 -0.00047281833 0.037453067
0.5682742 -0.00040014266 0.037841886
0.56650698 0.00030654992 0.03864203
0.56540537 0.00038346217 0.039031021
0.56430507 0.00046205751 0.039420076
0.56320614 0.00054235366 0.039809201
0.56210858 0.00062434428 0.040198397
0.56035203 0.0013445831 0.040999081
0.55793864 0.0027055792 0.042211335
0.5555293 0.0040716212 0.043423768
0.53567576 0.018687639 0.054428775
0.535918 0.017521128 0.053996153
0.53550464 0.016997075 0.053975169
0.53574485 0.015828021 0.053542443
0.53533083 0.015303119 0.053521421
0.53556907 0.014131497 0.053088572
0.53580594 0.012958217 0.052655675
0.5360415 0.011783238 0.052222714
0.53627568 0.010606569 0.051789686
0.53650856 0.0094282124 0.051356588
0.53609121 0.008899074 0.051335398
0.53632212 0.0077181421 0.050902173
0.53590411 0.0071881567 0.05088095
0.5354861 0.0066581713 0.050859727
0.53506809 0.0061281859 0.0508385
0.53465009 0.0055982005 0.050817277
0.53423208 0.0050682211 0.050796054
0.53381401 0.0045382357 0.050774831
0.53339601 0.0040082503 0.050753608
0.532978 0.0034782651 0.050732385
0.53191775 0.0036077006 0.0511235
0.53085893 0.0037387917 0.051514659
0.52980137 0.0038715778 0.051905889
0.52938539 0.0033441344 0.051884767
0.52832985 0.003479457 0.052276094
0.52791452 0.0029528611 0.052255008
0.52749914 0.0024262653 0.05223392
0.52708381 0.0018996637 0.052212831
0.52603161 0.0020392227 0.052604329
0.52561694 0.0015134743 0.052583277
0.52520227 0.00098771998 0.052562222
0.5247876 0.00046197145 0.052541167
0.52437294 -6.3782878e-05 0.052520115
0.52395827 -0.00058953138 0.05249906
0.5235436 -0.0011152799 0.052478008
0.52312893 -0.0016410341 0.052456953
0.52271426 -0.0021667827 0.052435897
0.52229959 -0.0026925369 0.052414846
0.52188492 -0.0032182855 0.05239379
0.5208407 -0.0030685368 0.052785721
0.52042669 -0.0035934378 0.052764699
0.52001268 -0.0041183447 0.052743681
0.51959866 -0.0046432461 0.052722659
0.51918465 -0.005168153 0.052701641
0.51877064 -0.0056930599 0.052680619
0.51773119 -0.0055374121 0.053072762
0.51731783 -0.006061472 0.053051777
0.51690447 -0.0065855258 0.053030793
0.51649117 -0.0071095852 0.053009804
0.51607782 -0.0076336451 0.05298882
0.51566446 -0.008157704 0.052967831
0.51525116 -0.0086817583 0.052946847
0.5148378 -0.0092058182 0.052925859
0.51442444 -0.0097298771 0.052904874
0.51401114 -0.010253931 0.05288389
0.51359779 -0.01077799 0.052862901
0.51318443 -0.01130205 0.052841917
0.51277113 -0.011826104 0.052820928
0.51235777 -0.012350163 0.052799944
0.51194441 -0.012874223 0.052778956
0.51153111 -0.013398277 0.052757971
0.51111776 -0.013922337 0.052736986
0.51070446 -0.014446396 0.052715998
0.5102911 -0.014970456 0.052695014
0.50987774 -0.01549451 0.052674025
0.50946444 -0.016018569 0.052653041
0.50966257 -0.017240955 0.05221818
0.50924855 -0.017765855 0.052197158
0.50883454 -0.018290762 0.05217614
0.50842053 -0.01881567 0.052155118
0.50800651 -0.019340571 0.0521341
0.50759256 -0.019865477 0.052113079
0.50657105 -0.019686975 0.052506138
0.50615776 -0.020211028 0.052485149
0.5057444 -0.020735089 0.052464165
0.50533104 -0.021259148 0.05244318
0.50491774 -0.021783201 0.052422192
0.50450438 -0.022307262 0.052401207
0.50409102 -0.022831321 0.052380219
0.50367773 -0.02335538 0.052359235
0.50326437 -0.023879433 0.052338246
0.64452511 0.11886182 0.047770869
0.64366508 0.11777137 0.047727201
0.64562333 0.11583564 0.046488993
0.64678216 0.11435914 0.045656048
0.64634883 0.11380969 0.045634046
0.64750361 0.11232815 0.044800926
0.65182954 0.10897563 0.042345267
0.65218359 0.10795163 0.041917339
0.65332842 0.10645739 0.041083712
0.65367913 0.10542919 0.040655639
0.65402853 0.10439926 0.040227473
0.65437657 0.10336768 0.039799266
0.65472329 0.10233441 0.039370991
0.65585738 0.10082661 0.038536821
0.65620083 0.099789076 0.038108349
0.65654284 0.098749876 0.037679836
0.65688354 0.09770897 0.037251256
0.65722287 0.096666381 0.03682261
0.65834635 0.095145009 0.035987869
0.65868241 0.094098195 0.035559051
0.65901703 0.093049668 0.035130166
0.6593504 0.091999464 0.034701213
0.65968245 0.090947531 0.034272168
0.66001314 0.08989393 0.033843078
0.66034245 0.088838637 0.033413924
0.66067046 0.08778166 0.0329847
0.66099715 0.086722977 0.032555409
0.66210192 0.085177906 0.031719718
0.66242528 0.084114999 0.031290255
0.66274726 0.083050393 0.030860726
0.66306794 0.081984065 0.030431105
0.6633873 0.080916077 0.030001439
0.66370529 0.079846397 0.029571706
0.66402191 0.078775018 0.029141907
0.66433722 0.077701949 0.028712038
0.66387719 0.077118628 0.028688679
0.66419053 0.076042987 0.028258683
0.6645025 0.074965686 0.027828647
0.66481316 0.073886693 0.02739854
0.66512245 0.072806001 0.026968367
0.66465968 0.07221929 0.026944872
0.664967 0.071136065 0.026514597
0.66450357 0.070548505 0.026491068
0.66480893 0.069462709 0.026060667
0.66434485 0.068874307 0.026037103
0.66464812 0.067786001 0.025606625
0.66418338 0.067196749 0.025583029
0.66371864 0.066607505 0.025559431
0.6632539 0.066018254 0.025535835
0.66278911 0.065429009 0.025512237
0.66308844 0.064335622 0.025081556
0.66338634 0.063240536 0.024650807
0.6629203 0.062649593 0.024627142
0.66321629 0.061551947 0.024196265
0.66274953 0.060960159 0.024172567
0.6630435 0.059859999 0.023741614
0.66257602 0.059267361 0.02371788
0.66286802 0.05816466 0.023286827
0.6631586 0.057060268 0.022855705
0.66344786 0.055954181 0.022424515
0.66297847 0.055359006 0.022400681
0.66326576 0.054250345 0.021969361
0.66355169 0.053140026 0.021538002
0.66308093 0.05254316 0.021514099
0.66336489 0.0514303 0.02108264
0.66364747 0.050315745 0.02065111
0.6631754 0.049717184 0.020627139
0.66345596 0.048600093 0.020195508
0.66298318 0.048000682 0.020171506
0.66251045 0.047401279 0.020147502
0.66203767 0.046801869 0.020123499
0.66156489 0.046202462 0.020099495
0.66109216 0.045603056 0.020075491
0.66136807 0.044480003 0.019643597
0.66089469 0.043879747 0.01961956
0.66042125 0.043279495 0.019595522
0.66069448 0.042153087 0.019163519
0.66022038 0.041551989 0.019139448
0.65974629 0.040950887 0.019115375
0.65927219 0.040349789 0.019091304
0.6587981 0.039748687 0.019067233
0.65832394 0.039147589 0.019043162
0.65784985 0.038546488 0.019019092
0.65737575 0.03794539 0.018995019
0.65690166 0.037344288 0.018970948
0.65642756 0.036743186 0.018946877
0.65595347 0.036142088 0.018922806
0.65547937 0.035540987 0.018898733
0.65500528 0.034939885 0.018874662
0.65453112 0.034338787 0.018850591
0.65405703 0.033737686 0.01882652
0.65358293 0.033136588 0.018802449
0.65310884 0.032535486 0.018778376
0.65263474 0.031934384 0.018754305
0.65216064 0.031333286 0.018730234
0.65168655 0.030732187 0.018706163
0.65121245 0.030131085 0.018682092
0.65073836 0.029529985 0.01865802
0.65099621 0.028384108 0.018225236
0.65052146 0.027782161 0.01820113
0.65004671 0.027180213 0.018177025
0.65030193 0.026030948 0.017744105
0.64982647 0.025428155 0.017719967
0.649351 0.024825361 0.017695827
0.64887559 0.024222568 0.017671689
0.64840013 0.023619775 0.01764755
0.64792472 0.023016982 0.01762341
0.64744925 0.022414187 0.017599272
0.64697385 0.021811394 0.017575132
0.64649838 0.021208601 0.017550994
0.64602298 0.020605808 0.017526854
0.64554751 0.020003013 0.017502714
0.6450721 0.01940022 0.017478576
0.64459664 0.018797427 0.017454436
0.64412123 0.018194634 0.017430296
0.64364576 0.01759184 0.017406158
0.64245039 0.017549064 0.01779134
0.64197558 0.016947117 0.017767236
0.64150083 0.016345171 0.017743131
0.64102608 0.015743224 0.017719025
0.64055127 0.015141277 0.01769492
0.63935989 0.01510358 0.018080307
0.6388858 0.01450248 0.018056236
0.63769639 0.014467324 0.018441726
0.63722295 0.01386707 0.018417688
0.63674951 0.013266817 0.018393651
0.63627607 0.012666564 0.018369613
0.63580263 0.01206631 0.018345576
0.63461721 0.012036267 0.018731292
0.63414443 0.011436859 0.018707288
0.63296103 0.011409323 0.019093083
0.63248897 0.010810762 0.019069113
0.63201684 0.010212203 0.019045142
0.63083613 0.010188051 0.019431073
0.63036472 0.0095903361 0.019407136
0.62918597 0.0095687266 0.019793168
0.62871522 0.0089718606 0.019769266
0.62824446 0.0083749928 0.019745365
0.6270684 0.0083567696 0.02013153
0.6265983 0.0077607487 0.020107662
0.62542421 0.0077450969 0.020493958
0.62495482 0.0071499241 0.020470124
0.62378275 0.0071367789 0.020856494
0.62331396 0.0065424521 0.020832693
0.62284523 0.0059481254 0.020808894
0.62167585 0.0059383665 0.021195399
0.62120777 0.0053448854 0.021171633
0.6207397 0.0047514043 0.021147868
0.619573 0.004745034 0.021534508
0.61910558 0.0041524004 0.021510776
0.61794084 0.004148569 0.021897519
0.61747408 0.003556781 0.021873821
0.61700732 0.0029649932 0.021850122
0.61584526 0.0029645814 0.022237025
0.61537921 0.0023736409 0.02221336
0.61491311 0.0017827005 0.022189697
0.61375374 0.0017856419 0.022576712
0.61328834 0.0011955488 0.022553081
0.61282289 0.00060545292 0.022529451
0.6116662 0.00061178132 0.0229166
0.61120147 2.2532768e-05 0.022893004
0.6100468 3.1402982e-05 0.023280255
0.60889339 4.1994805e-05 0.0236676
0.60842997 -0.00054555899 0.023644071
0.60727865 -0.00053245755 0.024031492
0.60612863 -0.00051766157 0.024418982
0.60497999 -0.00050117378 0.024806539
0.60383266 -0.00048299422 0.025194164
0.60337192 -0.0010671614 0.02517077
0.6022265 -0.0010464068 0.025558522
0.60062313 -0.0016064717 0.025922989
0.59948111 -0.001581519 0.026310887
0.59902239 -0.0021631471 0.026287595
0.59788239 -0.0021356519 0.026675591
0.59674376 -0.0021064656 0.027063658
0.59560639 -0.0020755513 0.027451817
0.59447038 -0.0020429781 0.027840018
0.59333575 -0.0020087101 0.028228287
0.59220243 -0.0019727503 0.028616622
0.59107041 -0.001935066 0.029005053
0.58993977 -0.0018957194 0.029393524
0.5888105 -0.0018546787 0.029782066
0.58768249 -0.0018119486 0.030170672
0.5865559 -0.0017675239 0.030559348
0.5854305 -0.0017213715 0.030948117
0.5843066 -0.0016735574 0.03133693
0.58318394 -0.0016240512 0.031725805
0.58206266 -0.0015728538 0.032114755
0.58094263 -0.0015199286 0.032503795
0.57982403 -0.0014653411 0.032892875
0.57870674 -0.0014090621 0.033282027
0.57759082 -0.001351091 0.033671245
0.57647622 -0.0012914253 0.03406053
0.57536286 -0.0012300381 0.034449909
0.57425094 -0.001166986 0.034839332
0.57314032 -0.0011022418 0.035228822
0.57136518 -0.00040720828 0.036030449
0.57025784 -0.00033819739 0.036420129
0.56915194 -0.00026752797 0.036809858
0.56738341 0.00043597363 0.037611824
0.56628078 0.00051090732 0.038001746
0.56517953 0.00058750861 0.038391709
0.56341773 0.0012994719 0.039194014
0.56231982 0.0013802984 0.039584145
0.56122321 0.0014628584 0.039974373
0.56012791 0.0015470743 0.040364642
0.53415263 0.020164143 0.054651722
0.53439581 0.018999644 0.054218192
0.53463769 0.017833441 0.053784594
0.53487825 0.016665552 0.053350929
0.53511745 0.015495968 0.052917194
0.53535533 0.014324656 0.052483369
0.53559184 0.013151689 0.052049499
0.53582704 0.01197702 0.051615566
0.53606087 0.010800662 0.051181559
0.53629339 0.0096226167 0.050747488
0.53587604 0.0090934783 0.050726298
0.53610659 0.0079128565 0.050292097
0.53568858 0.0073828716 0.050270874
0.53527057 0.0068528862 0.050249651
0.53485256 0.0063229008 0.050228428
0.53443456 0.0057929158 0.050207205
0.53401655 0.005262936 0.050185982
0.53359854 0.0047329506 0.050164759
0.53318053 0.0042029656 0.050143532
0.53211999 0.0043312423 0.050535589
0.53106076 0.0044611753 0.050927691
0.53064412 0.0039328849 0.050906535
0.52958691 0.0040653595 0.051298738
0.52917093 0.0035379163 0.051277615
0.52811569 0.0036729279 0.051669918
0.52770036 0.003146332 0.051648829
0.52728504 0.0026197361 0.051627744
0.52686971 0.0020931344 0.051606655
0.52581787 0.0022323825 0.051999129
0.5254032 0.0017066341 0.051978074
0.52498853 0.0011808798 0.051957019
