# .PCD v0.7 - Point Cloud Data file format
VERSION 0.7
FIELDS x y z
SIZE 4 4 4
TYPE F F F
COUNT 1 1 1
WIDTH 1330
HEIGHT 1
VIEWPOINT 0 0 0 1 0 0 0
POINTS 1330
DATA ascii
0.44144422 -0.0092595108 0.049274959
0.44049931 -0.0089765685 0.049663436
0.43955573 -0.0086919116 0.050051939
0.43861341 -0.008405528 0.050440487
0.43484017 -0.0042731352 0.052810118
0.4339039 -0.003979126 0.05319877
0.43353406 -0.0044539738 0.053191211
0.43147075 -0.002614558 0.054372426
0.4305391 -0.0023145811 0.054761171
0.42960879 -0.0020129124 0.055149943
0.42831391 -0.0021792897 0.055531267
0.42738685 -0.0018733342 0.055920128
0.42590067 -0.00078918092 0.05670533
0.42497697 -0.00047900694 0.057094239
0.42405459 -0.0001671288 0.057483174
0.42369205 -0.00063261343 0.057475764
0.4227716 -0.0003181528 0.057864763
0.42185256 -2.0103087e-06 0.058253765
0.42093483 0.00031582368 0.058642797
0.4200184 0.00063536112 0.059031855
0.41965851 0.00017328351 0.059024498
0.41874409 0.00049537054 0.059413597
0.41783094 0.00081919465 0.059802745
0.41691917 0.0011447003 0.060191896
0.41656125 0.00068516034 0.060184583
0.41565147 0.0010132152 0.060573775
0.41529423 0.00055453274 0.060566474
0.41438642 0.00088513718 0.060955707
0.41402984 0.00042730063 0.06094842
0.41367325 -3.0524192e-05 0.06094113
0.41276807 0.00030350903 0.061330441
0.41186425 0.0006392239 0.061719757
0.41096175 0.00097663025 0.062109098
0.41060716 0.00052135484 0.062101852
0.40970665 0.00086132227 0.062491234
0.40935272 0.00040689268 0.062484
0.40845421 0.00074939796 0.062873423
0.4081009 0.00029581424 0.062866203
0.40720433 0.00064091419 0.06325569
0.40630916 0.00098769588 0.063645184
0.40595719 0.00053581555 0.063637987
0.40506399 0.00088514632 0.064027518
0.40417209 0.001236169 0.064417079
0.40382147 0.00078599219 0.064409912
0.40347084 0.00033582718 0.064402744
0.40312022 -0.00011434962 0.064395577
0.4027696 -0.00056452642 0.064388417
0.402419 -0.0010146914 0.064381249
0.40206838 -0.0014648682 0.064374082
0.40171775 -0.0019150333 0.064366914
0.40136713 -0.0023652101 0.064359747
0.4010165 -0.0028153867 0.064352587
0.40066588 -0.003265552 0.064345419
0.40031525 -0.0037157286 0.064338252
0.39996463 -0.0041658939 0.064331084
0.40014601 -0.0054291827 0.06392701
0.39979473 -0.0058802054 0.063919827
0.39944342 -0.0063312277 0.063912645
0.39962214 -0.0075979237 0.063508511
0.39927021 -0.0080497917 0.063501321
0.39891824 -0.0085016722 0.063494124
0.39909431 -0.0097717633 0.063089937
0.39874169 -0.010224489 0.063082732
0.39891583 -0.011497163 0.062678479
0.39856255 -0.011950736 0.062671259
0.39768386 -0.011582656 0.063061111
0.39733127 -0.012035382 0.063053906
0.39697865 -0.012488108 0.063046701
0.39662603 -0.012940834 0.063039489
0.39627343 -0.01339356 0.063032284
0.39592081 -0.013846287 0.06302508
0.39556819 -0.014299013 0.063017875
0.3952156 -0.014751739 0.063010663
0.39486298 -0.015204465 0.063003458
0.39451036 -0.015657192 0.062996253
0.39415777 -0.016109906 0.062989049
0.39380515 -0.016562631 0.062981836
0.39345255 -0.017015358 0.062974632
0.39309993 -0.017468084 0.062967427
0.39274731 -0.017920811 0.062960222
0.39239472 -0.018373536 0.06295301
0.3920421 -0.018826263 0.062945805
0.39168948 -0.019278988 0.062938601
0.39133689 -0.019731715 0.062931396
0.39098427 -0.020184441 0.062924184
0.39063165 -0.020637168 0.062916979
0.39027905 -0.021089893 0.062909774
0.38992643 -0.02154262 0.06290257
0.38957381 -0.021995334 0.062895358
0.38922122 -0.022448059 0.062888153
0.3888686 -0.022900786 0.062880948
0.38851598 -0.023353511 0.062873743
0.38816339 -0.023806239 0.062866531
0.38781077 -0.024258964 0.062859327
0.38745815 -0.024711691 0.062852122
0.38660008 -0.024317259 0.063242368
0.38624814 -0.024769139 0.063235179
0.38589618 -0.025221007 0.063227981
0.38554424 -0.025672888 0.063220792
0.38519228 -0.026124757 0.063213602
0.38484034 -0.026576636 0.063206404
0.3844884 -0.027028505 0.063199215
0.38413644 -0.027480384 0.063192017
0.3837845 -0.027932253 0.063184828
0.38343254 -0.028384134 0.06317763
0.38258177 -0.027980339 0.063568033
0.38223046 -0.028431362 0.063560851
0.38187918 -0.028882384 0.063553676
0.3815279 -0.029333407 0.063546494
0.38082531 -0.030235464 0.063532136
0.38047403 -0.030686487 0.063524954
0.38012275 -0.031137509 0.063517772
0.37977147 -0.031588532 0.063510597
0.37942019 -0.032039553 0.063503414
0.37906891 -0.032490578 0.063496239
0.37871763 -0.032941598 0.063489057
0.37836632 -0.033392623 0.063481875
0.37801504 -0.033843644 0.0634747
0.37766376 -0.034294669 0.063467517
0.37731248 -0.034745689 0.063460343
0.3769612 -0.035196714 0.06345316
0.37660992 -0.035647735 0.063445978
0.37625864 -0.03609876 0.063438803
0.37590733 -0.036549781 0.063431621
0.37555605 -0.037000805 0.063424446
0.37520477 -0.037451826 0.063417263
0.37485349 -0.037902851 0.063410081
0.37450221 -0.038353872 0.063402906
0.37415093 -0.038804892 0.063395724
0.37379962 -0.039255928 0.063388541
0.37344834 -0.039706953 0.063381366
0.37309706 -0.040157974 0.063374184
0.37274578 -0.040608998 0.063367009
0.3723945 -0.041060019 0.063359827
0.37204319 -0.04151104 0.063352644
0.37169191 -0.041962065 0.06334547
0.37134063 -0.042413086 0.063338287
0.37098935 -0.04286411 0.063331105
0.37063807 -0.043315131 0.06332393
0.37028679 -0.043766156 0.063316748
0.36993551 -0.044217177 0.063309573
0.3695842 -0.044668201 0.06330239
0.36923292 -0.045119222 0.063295208
0.36888164 -0.045570247 0.063288033
0.36853036 -0.046021268 0.063280851
0.36817908 -0.046472292 0.063273676
0.3678278 -0.046923313 0.063266493
0.36747649 -0.047374338 0.063259311
0.36712521 -0.047825359 0.063252136
0.36677393 -0.048276383 0.063244954
0.366891 -0.049622212 0.06283956
0.36653906 -0.050074093 0.06283237
0.36618713 -0.050525963 0.062825173
0.36583516 -0.050977841 0.062817983
0.36548322 -0.051429711 0.062810786
0.36513126 -0.051881589 0.062803596
0.36477932 -0.052333459 0.062796399
0.36442736 -0.052785341 0.062789209
0.36407542 -0.053237207 0.062782012
0.36372349 -0.053689089 0.062774822
0.36337152 -0.054140955 0.062767632
0.36301959 -0.054592837 0.062760435
0.36266765 -0.055044707 0.062753245
0.36231568 -0.055496585 0.062746048
0.36242282 -0.056855176 0.062340453
0.3620702 -0.057307903 0.062333249
0.36171758 -0.057760626 0.06232604
0.36136499 -0.058213353 0.062318832
0.36101237 -0.05866608 0.062311627
0.36111557 -0.060029812 0.061905924
0.3607623 -0.060483385 0.061898705
0.36040902 -0.060936969 0.061891485
0.36005574 -0.061390541 0.061884265
0.35970247 -0.061844114 0.061877046
0.35934919 -0.062297698 0.061869826
0.35899594 -0.062751271 0.061862607
0.35909379 -0.06412176 0.061456818
0.35873985 -0.064576186 0.061449584
0.35838592 -0.06503062 0.061442353
0.35803199 -0.065485045 0.061435118
0.35767806 -0.065939479 0.061427884
0.35732412 -0.066393897 0.061420649
0.35697019 -0.066848323 0.061413415
0.35661623 -0.067302756 0.061406184
0.3562623 -0.067757182 0.061398949
0.35590836 -0.068211615 0.061391715
0.35555443 -0.068666033 0.06138448
0.35564435 -0.070046753 0.060978532
0.35528973 -0.070502028 0.060971286
0.35537764 -0.071885303 0.060565293
0.35502237 -0.072341435 0.060558032
0.35422593 -0.071867868 0.060949542
0.35387132 -0.072323158 0.060942296
0.35395658 -0.073709823 0.06053625
0.35360134 -0.074165955 0.06052899
0.35280755 -0.073688969 0.060920555
0.35245293 -0.074144259 0.060913306
0.35209835 -0.074599549 0.06090606
0.35130721 -0.074119151 0.061297677
0.35095325 -0.074573591 0.061290443
0.35016412 -0.07409066 0.061682101
0.34902361 -0.074058734 0.062066603
0.34867102 -0.074511461 0.062059395
0.34788582 -0.074023433 0.062451135
0.34753388 -0.074475288 0.062443942
0.34631947 -0.073042251 0.063234694
0.34553823 -0.072549067 0.063626543
0.34475833 -0.072054222 0.064018391
0.34440905 -0.072502695 0.064011253
0.34405974 -0.072951168 0.064004108
0.34371045 -0.073399641 0.063996971
0.34336114 -0.073848113 0.063989833
0.34301186 -0.074296586 0.063982695
0.34266254 -0.074745059 0.063975558
0.34231326 -0.075193509 0.06396842
0.34196398 -0.075641982 0.063961275
0.34161466 -0.076090455 0.063954137
0.34126538 -0.076538928 0.063947
0.34091607 -0.076987401 0.063939862
0.34056678 -0.077435881 0.063932724
0.34021747 -0.077884354 0.063925587
0.33986819 -0.078332797 0.063918449
0.3395189 -0.078781277 0.063911304
0.33728707 -0.07865449 0.064681269
0.33735576 -0.080062442 0.064274885
0.33700711 -0.080510072 0.064267755
0.44486856 -0.0089803711 0.047552638
0.44563299 -0.010989884 0.046750695
0.44411165 -0.0099522006 0.047537167
0.44278526 -0.010159682 0.047918841
0.44183862 -0.0098795108 0.048308302
0.44089335 -0.0095976694 0.048697766
0.43994939 -0.0093141254 0.049087256
0.43843994 -0.0082610892 0.049873997
0.43466854 -0.0041302294 0.05224964
0.43373257 -0.0038364765 0.052639294
0.43279791 -0.0035410197 0.053028975
0.43130034 -0.0024726752 0.053815957
0.43036902 -0.0021729539 0.054205708
0.42943898 -0.001871541 0.054595485
0.42814443 -0.0020381736 0.054977808
0.42721766 -0.0017324741 0.055367675
0.4262923 -0.0014251048 0.055757545
0.42480871 -0.00033891344 0.056544792
0.42444551 -0.00080525567 0.056537367
0.42352411 -0.00049277593 0.05692732
0.42260396 -0.0001785707 0.05731732
0.42168522 0.00013731619 0.057707328
0.42076778 0.00045489435 0.058097359
0.41985169 0.00077417627 0.058487423
0.4194918 0.00031209859 0.058480065
0.41857767 0.00063393003 0.058870167
0.41821843 0.00017269824 0.058862824
0.41730624 0.00049712439 0.059252989
0.41639546 0.00082320842 0.059643157
0.41548598 0.0011510077 0.060033351
0.41512874 0.00069232524 0.06002605
0.41422126 0.0010226741 0.060416285
0.41386464 0.00056483754 0.060408998
0.41350806 0.0001070127 0.060401712
0.41260317 0.00044079011 0.060792025
0.41169968 0.00077624939 0.061182342
0.41079748 0.0011134002 0.061572686
0.41044289 0.00065812474 0.06156544
0.40954271 0.00099783659 0.061955824
0.40918875 0.00054340699 0.06194859
0.40829054 0.00088565645 0.062339015
0.40793726 0.00043207273 0.062331796
0.40704101 0.00077691709 0.062722288
0.40614611 0.0011234431 0.06311278
0.40579417 0.00067156286 0.063105583
0.40490127 0.0010206378 0.06349612
0.40400967 0.0013714049 0.06388668
0.40365905 0.00092122809 0.063879512
0.40330842 0.00047106305 0.063872352
0.4029578 2.0886269e-05 0.063865185
0.40260717 -0.00042929052 0.063858017
0.40225658 -0.00087945553 0.06385085
0.40190595 -0.0013296324 0.063843682
0.40155533 -0.0017797974 0.063836522
0.40120471 -0.0022299741 0.063829355
0.40085408 -0.002680151 0.063822187
0.40050346 -0.003130316 0.06381502
0.40015283 -0.0035804927 0.063807853
0.39980221 -0.0040306579 0.063800693
0.39945158 -0.0044808346 0.063793525
0.39910096 -0.0049310112 0.063786358
0.39875033 -0.0053811762 0.06377919
0.39892942 -0.0066467589 0.063374072
0.39857814 -0.0070977816 0.06336689
0.39822686 -0.0075488044 0.063359708
0.39787555 -0.0079998272 0.063352533
0.39805132 -0.0092696622 0.06294734
0.39769936 -0.0097215427 0.062940143
0.39734742 -0.010173411 0.062932953
0.39699546 -0.010625291 0.062925756
0.39664352 -0.01107716 0.062918566
0.39629158 -0.01152904 0.062911376
0.39593962 -0.011980908 0.062904179
0.39558768 -0.012432788 0.062896989
0.39523575 -0.012884657 0.062889792
0.39488378 -0.013336537 0.062882602
0.39453185 -0.013788406 0.062875405
0.39417988 -0.014240286 0.062868215
0.39382794 -0.014692155 0.062861025
0.39347598 -0.015144035 0.062853828
0.39312404 -0.015595904 0.062846638
0.39277211 -0.016047783 0.062839441
0.39242014 -0.016499652 0.062832251
0.39206821 -0.016951533 0.062825054
0.39171624 -0.017403401 0.062817864
0.39136431 -0.017855281 0.062810674
0.39101237 -0.018307149 0.062803477
0.39066041 -0.018759031 0.062796287
0.39030847 -0.019210899 0.06278909
0.3899565 -0.019662779 0.0627819
0.38960457 -0.020114647 0.062774703
0.3892526 -0.020566529 0.062767513
0.38890067 -0.021018397 0.062760316
0.38854873 -0.021470265 0.062753126
0.38819677 -0.021922145 0.062745936
0.38784483 -0.022374013 0.062738739
0.3874929 -0.022825893 0.062731549
0.38714093 -0.023277763 0.062724352
0.38678899 -0.023729643 0.062717162
0.38593188 -0.023334621 0.063108429
0.3855806 -0.023785643 0.063101247
0.38522929 -0.024236666 0.063094072
0.38487801 -0.024687689 0.06308689
0.38452673 -0.025138712 0.063079707
0.38417545 -0.025589734 0.063072532
0.38382417 -0.026040757 0.06306535
0.38347289 -0.02649178 0.063058175
0.38312161 -0.026942803 0.063050993
0.3827703 -0.027393825 0.06304381
0.38192049 -0.026989451 0.063435227
0.38156986 -0.027439617 0.063428059
0.38121924 -0.027889792 0.063420892
0.38086861 -0.028339958 0.063413732
0.38101387 -0.02964895 0.063007914
0.38016737 -0.029240312 0.063399397
0.37981674 -0.029690476 0.063392229
0.37946612 -0.030140653 0.063385062
0.37911552 -0.030590817 0.063377902
0.3787649 -0.031040994 0.063370734
0.37841427 -0.031491172 0.063363567
0.37806365 -0.031941336 0.0633564
0.37771302 -0.032391515 0.063349232
0.3773624 -0.032841679 0.063342072
0.37701178 -0.033291854 0.063334905
0.37666115 -0.033742033 0.063327737
0.37631053 -0.034192197 0.06332057
0.3759599 -0.034642372 0.063313402
0.37560928 -0.035092551 0.063306242
0.37525865 -0.035542715 0.063299075
0.37490803 -0.035992894 0.063291907
0.37455744 -0.036443058 0.06328474
0.37420681 -0.036893234 0.063277572
0.37385619 -0.037343413 0.063270412
0.37350556 -0.037793577 0.063263245
0.37315494 -0.038243752 0.063256077
0.37280431 -0.03869392 0.06324891
0.37245369 -0.039144095 0.06324175
0.37210307 -0.03959427 0.063234583
0.37175244 -0.040044438 0.063227415
0.37140182 -0.040494613 0.063220248
0.37105119 -0.040944777 0.06321308
0.37070057 -0.041394956 0.06320592
0.37034994 -0.041845132 0.063198753
0.36999935 -0.042295296 0.063191585
0.36964872 -0.042745475 0.063184418
0.3692981 -0.043195639 0.06317725
0.36894748 -0.043645814 0.06317009
0.36859685 -0.044095993 0.063162923
0.36824623 -0.044546157 0.063155755
0.3678956 -0.044996336 0.063148588
0.36754498 -0.045446511 0.06314142
0.36719435 -0.045896675 0.06313426
0.36684373 -0.046346854 0.063127093
0.36649311 -0.046797018 0.063119926
0.36614248 -0.047247194 0.063112758
0.36625993 -0.048591912 0.062706374
0.36590862 -0.049042948 0.062699199
0.36555734 -0.049493968 0.062692016
0.36520606 -0.049944993 0.062684841
0.36485478 -0.050396014 0.062677659
0.3645035 -0.050847039 0.062670477
0.36415219 -0.05129806 0.062663302
0.36380091 -0.051749084 0.062656119
0.36344963 -0.052200105 0.062648937
0.36309835 -0.05265113 0.062641762
0.36274707 -0.053102151 0.06263458
0.36239579 -0.053553175 0.062627405
0.36204451 -0.054004196 0.062620223
0.36215264 -0.055360839 0.062213648
0.3618007 -0.055812705 0.062206455
0.36144873 -0.056264587 0.062199261
0.3610968 -0.056716457 0.062192068
0.36074486 -0.057168335 0.062184878
0.36084902 -0.058530077 0.061778221
0.36049643 -0.058982804 0.061771017
0.36014381 -0.059435528 0.061763808
0.35979119 -0.059888255 0.061756603
0.3594386 -0.060340971 0.061749395
0.35908598 -0.060793698 0.06174219
0.35918555 -0.062161438 0.061335418
0.35883227 -0.062615007 0.061328199
0.35847902 -0.063068584 0.061320979
0.35812572 -0.063522168 0.06131376
0.35777247 -0.063975736 0.061306536
0.35741919 -0.064429313 0.061299317
0.35706592 -0.064882897 0.061292097
0.35671264 -0.065336466 0.061284877
0.35635936 -0.065790035 0.061277658
0.35600609 -0.066243619 0.061270438
0.35565281 -0.066697195 0.061263219
0.35529953 -0.067150779 0.061255995
0.35494629 -0.067604348 0.061248776
0.35503653 -0.06898395 0.06084184
0.35468259 -0.069438376 0.060834605
0.35477087 -0.070820548 0.060427625
0.35441625 -0.071275823 0.060420379
0.35326687 -0.071256086 0.060805671
0.35291293 -0.071710505 0.060798436
0.35220507 -0.072619364 0.060783967
0.35106027 -0.072593689 0.061169356
0.35070699 -0.073047258 0.061162136
0.3499181 -0.07256455 0.061554819
0.34956551 -0.073017277 0.061547611
0.34834439 -0.071594104 0.062340222
0.34799311 -0.072045118 0.062333044
0.34764183 -0.072496146 0.062325865
0.34642598 -0.071066126 0.063118607
0.34564441 -0.070574097 0.063511416
0.3452951 -0.07102257 0.063504271
0.34451556 -0.070527986 0.063897125
0.3437373 -0.07003168 0.064290002
0.34381828 -0.071423218 0.063882872
0.34346965 -0.071870841 0.06387575
0.34312102 -0.07231845 0.063868627
0.34277239 -0.072766073 0.063861497
0.34242377 -0.073213682 0.063854374
0.34207511 -0.073661305 0.063847251
0.34172648 -0.074108936 0.063840121
0.34137785 -0.074556537 0.063832998
0.34102923 -0.075004168 0.063825876
0.34068057 -0.075451791 0.063818745
0.34033197 -0.0758994 0.063811623
0.33998331 -0.076347023 0.0638045
0.33963469 -0.076794654 0.06379737
0.33928606 -0.077242255 0.063790247
0.33893743 -0.077689886 0.063783124
0.33754286 -0.079480372 0.063754618
0.33636156 -0.078006111 0.064548045
0.33601424 -0.078452051 0.064540945
0.44469324 -0.0088343984 0.046980128
0.44431478 -0.0093203122 0.046972394
0.44393632 -0.0098062269 0.04696466
0.44526729 -0.01258187 0.04576252
0.4431794 -0.010778056 0.046949189
0.44166392 -0.0097340485 0.0477378
0.44071895 -0.0094524631 0.048128266
0.43920815 -0.0084025217 0.048916947
0.43769997 -0.0073491503 0.049705707
0.43506274 -0.0047556814 0.051290948
0.43412641 -0.00446303 0.051681593
0.43262687 -0.0033986256 0.052470505
0.43112996 -0.0023307926 0.053259496
0.43019891 -0.0020313268 0.053650245
0.42926919 -0.0017301695 0.054041024
0.42797494 -0.0018970579 0.054424353
0.4270485 -0.0015916139 0.054815222
0.42612341 -0.0012845001 0.055206094
0.42519966 -0.00097568298 0.055596992
0.42427725 -0.0006651624 0.055987921
0.42335615 -0.00035293825 0.056378875
0.42243633 -3.8988608e-05 0.056769878
0.42151788 0.00027664247 0.057160888
0.42060074 0.00059396529 0.057551924
0.42024019 0.00013103 0.057544556
0.41932505 0.00045091368 0.057935633
0.41896516 -1.1175717e-05 0.057928275
0.41805202 0.00031125775 0.058319394
0.41714016 0.00063542806 0.05871056
0.41622964 0.00096125674 0.059101731
0.41587174 0.00050172844 0.059094414
0.41496325 0.00083011773 0.059485629
0.41405606 0.001160211 0.059876867
0.41369948 0.00070237444 0.059869576
0.41334289 0.00024454959 0.05986229
0.4124383 0.00057807146 0.060253605
0.41153511 0.00091327511 0.060644925
0.41063324 0.0012501701 0.061036274
0.41027862 0.00079489459 0.061029024
0.40937874 0.0011343507 0.061420415
0.4090248 0.00067992107 0.06141318
0.40812689 0.0010219152 0.061804608
0.40777361 0.00056833145 0.061797388
0.40687767 0.00091291999 0.062188882
0.40598306 0.0012591904 0.062580377
0.40563112 0.00080731016 0.062573187
0.40473852 0.0011561295 0.062964723
0.40384725 0.001506641 0.063356288
0.40349662 0.0010564642 0.06334912
0.403146 0.00060629915 0.063341953
0.40279537 0.00015612238 0.063334785
0.40244475 -0.00029405442 0.063327618
0.40209416 -0.00074421946 0.063320458
0.40174353 -0.0011943963 0.06331329
0.40139291 -0.0016445613 0.063306123
0.40104228 -0.002094738 0.063298956
0.40069166 -0.0025449148 0.063291788
0.40034103 -0.0029950798 0.063284628
0.39999041 -0.0034452567 0.063277461
0.39963979 -0.0038954217 0.063270293
0.39928916 -0.0043455986 0.063263126
0.39893854 -0.0047957753 0.063255958
0.39858791 -0.0052459403 0.063248798
0.39823729 -0.0056961169 0.063241631
0.39788669 -0.006146282 0.063234463
0.39753607 -0.0065964591 0.063227296
0.39718542 -0.0070466357 0.063220128
0.39683482 -0.0074968007 0.063212968
0.3964842 -0.0079469774 0.063205801
0.39613357 -0.0083971545 0.063198633
0.39578295 -0.0088473195 0.063191466
0.39543232 -0.0092974966 0.063184299
0.39560512 -0.010570483 0.062778056
0.39525384 -0.011021506 0.062770873
0.39490256 -0.011472528 0.062763698
0.39455125 -0.011923551 0.062756516
0.39419997 -0.012374573 0.062749334
0.39384869 -0.012825596 0.062742159
0.39349741 -0.013276619 0.062734976
0.39314613 -0.013727642 0.062727802
0.39279485 -0.014178664 0.062720619
0.39244357 -0.014629687 0.062713437
0.39209226 -0.01508071 0.062706262
0.39174098 -0.015531732 0.06269908
0.3913897 -0.015982755 0.062691897
0.39103842 -0.016433777 0.062684722
0.39068714 -0.0168848 0.06267754
0.39033586 -0.017335823 0.062670365
0.38998458 -0.017786846 0.062663183
0.38963327 -0.018237868 0.062656
0.38928199 -0.018688891 0.062648825
0.38893071 -0.019139914 0.062641643
0.38857943 -0.019590948 0.062634468
0.38822812 -0.020041971 0.062627286
0.38787684 -0.020492993 0.062620103
0.38752556 -0.020944016 0.062612928
0.38717428 -0.021395039 0.062605746
0.386823 -0.021846062 0.062598564
0.38647172 -0.022297084 0.062591389
0.38612044 -0.022748107 0.062584206
0.38526428 -0.022352481 0.062976487
0.38491365 -0.022802658 0.062969327
0.38456303 -0.023252835 0.06296216
0.3842124 -0.023703001 0.062954992
0.38386178 -0.024153177 0.062947825
0.38351119 -0.024603343 0.062940657
0.38316056 -0.02505352 0.062933497
0.38280994 -0.025503697 0.06292633
0.38245931 -0.025953861 0.062919162
0.38210869 -0.026404038 0.062911995
0.38125977 -0.025999028 0.063304447
0.38090983 -0.026448349 0.063297294
0.38055986 -0.026897667 0.063290142
0.38020992 -0.027346985 0.063282989
0.38035557 -0.028654898 0.062876165
0.37950999 -0.028245637 0.063268691
0.37916002 -0.028694956 0.063261539
0.37881008 -0.029144274 0.063254386
0.37846011 -0.029593594 0.063247234
0.37811014 -0.030042913 0.063240081
0.3777602 -0.030492233 0.063232929
0.37741023 -0.030941563 0.063225776
0.37706026 -0.031390883 0.063218623
0.37671033 -0.031840201 0.063211471
0.37636036 -0.03228952 0.063204318
0.37601039 -0.032738838 0.063197166
0.37566045 -0.033188161 0.063190013
0.37531048 -0.03363749 0.063182861
0.37496051 -0.034086809 0.063175708
0.37461057 -0.034536127 0.063168555
0.3742606 -0.034985449 0.063161403
0.37391064 -0.035434768 0.06315425
0.37356067 -0.035884097 0.063147098
0.37321073 -0.036333416 0.063139945
0.37286076 -0.036782734 0.063132793
0.37251079 -0.037232056 0.06312564
0.37216085 -0.037681375 0.063118488
0.37181088 -0.038130693 0.063111335
0.37146091 -0.038580023 0.063104182
0.37111098 -0.039029345 0.06309703
0.37076101 -0.039478663 0.063089877
0.37041104 -0.039927982 0.063082725
0.3700611 -0.0403773 0.063075572
0.36971113 -0.040826619 0.06306842
0.36936116 -0.041275952 0.063061267
0.36901122 -0.04172527 0.063054115
0.36866125 -0.042174589 0.063046962
0.36831129 -0.042623907 0.063039809
0.36796135 -0.043073229 0.063032657
0.36761138 -0.043522548 0.063025504
0.36726141 -0.043971878 0.063018352
0.36691144 -0.044421196 0.063011199
0.3665615 -0.044870514 0.063004047
0.36621153 -0.045319837 0.062996894
0.36586159 -0.045769155 0.062989742
0.36551163 -0.046218485 0.062982589
0.36562943 -0.047562137 0.062575199
0.36527881 -0.048012301 0.062568031
0.36492819 -0.048462477 0.062560864
0.36457759 -0.048912641 0.062553696
0.36422697 -0.04936282 0.062546529
0.36387634 -0.049812995 0.062539369
0.36352572 -0.050263163 0.062532201
0.36317509 -0.050713338 0.062525034
0.36282447 -0.051163502 0.062517866
0.36247385 -0.051613681 0.062510699
0.36212322 -0.052063856 0.062503539
0.3617726 -0.05251402 0.062496372
0.36188176 -0.053868704 0.062088825
0.36153048 -0.054319728 0.062081642
0.3611792 -0.054770749 0.062074464
0.36082792 -0.055221774 0.062067285
0.36093378 -0.056580707 0.061659668
0.36058182 -0.057032589 0.061652474
0.36022988 -0.057484459 0.061645281
0.35987791 -0.057936337 0.061638087
0.35952598 -0.058388207 0.061630893
0.35962784 -0.059752252 0.061223198
0.35927525 -0.060204968 0.061215993
0.35892263 -0.060657695 0.061208785
0.35857004 -0.061110418 0.06120158
0.35821742 -0.061563145 0.061194371
0.3578648 -0.062015872 0.061187167
0.35751221 -0.0624686 0.061179958
0.35715958 -0.062921323 0.061172754
0.35680696 -0.06337405 0.061165545
0.35645437 -0.063826777 0.06115834
0.35610175 -0.064279504 0.061151132
0.35574913 -0.064732231 0.061143927
0.35539654 -0.065184958 0.061136719
0.35504392 -0.06563767 0.061129514
0.3546913 -0.066090398 0.061122306
0.35433871 -0.066543125 0.061115101
0.35442936 -0.067921661 0.060707148
0.35407606 -0.068375245 0.060699929
0.35372281 -0.068828821 0.060692709
0.35336953 -0.06928239 0.060685489
0.35301626 -0.069735974 0.06067827
0.35266298 -0.070189543 0.06067105
0.3523097 -0.07064312 0.060663827
0.35239503 -0.072028428 0.060255792
0.35116521 -0.070617646 0.06105024
0.35081258 -0.071070373 0.061043035
0.35002339 -0.07058882 0.061436683
0.34967145 -0.071040675 0.061429489
0.34888422 -0.070556566 0.061823182
0.34853294 -0.07100758 0.061816003
0.34731373 -0.069583185 0.062610663
0.3465305 -0.069093958 0.063004442
0.34618121 -0.06954243 0.062997296
0.34496802 -0.068110391 0.063792065
0.34462002 -0.068557173 0.063784949
0.34427208 -0.069003932 0.063777842
0.34392408 -0.069450714 0.063770726
0.34314683 -0.06895382 0.064164624
0.34322813 -0.070344254 0.063756503
0.34288019 -0.070791006 0.063749395
0.34253222 -0.071237765 0.06374228
0.34218425 -0.071684547 0.063735172
0.34183627 -0.072131306 0.063728057
0.3414883 -0.072578087 0.063720949
0.34114033 -0.073024847 0.063713834
0.34079236 -0.073471628 0.063706726
0.34044439 -0.073918387 0.063699611
0.34009641 -0.074365146 0.063692503
0.33974844 -0.074811928 0.063685387
0.33940047 -0.075258687 0.06367828
0.3390525 -0.075705469 0.063671164
0.33870453 -0.07615222 0.063664056
0.33793721 -0.075642571 0.064058147
0.33682451 -0.075576261 0.064445212
0.33606049 -0.075062357 0.064839378
0.33613122 -0.076466396 0.064431041
0.33536854 -0.075950772 0.064825237
0.44623241 -0.010969738 0.045210332
0.44585195 -0.011458202 0.045202557
0.4454715 -0.011946666 0.045194782
0.44395205 -0.01090916 0.045985281
0.44357291 -0.01139592 0.045977533
0.44205743 -0.010353304 0.04676811
0.44111207 -0.010072798 0.047159586
0.43960121 -0.0090242252 0.047950264
0.43432528 -0.0038444188 0.051128689
0.43395478 -0.0043201242 0.051121116
0.43189165 -0.002486438 0.052311279
0.43095955 -0.0021889093 0.052703027
0.43002883 -0.0018896994 0.053094782
0.42909941 -0.001588798 0.053486563
0.42780545 -0.001755942 0.053870894
0.42687932 -0.0014507535 0.054262765
0.42595455 -0.0011438954 0.054654639
0.4250311 -0.00083533389 0.055046543
0.42410898 -0.00052506931 0.055438474
0.42318821 -0.00021310036 0.05583043
0.42226869 0.00010059326 0.056222439
0.42135054 0.00041596874 0.056614447
0.42043373 0.00073303597 0.057006486
0.42007315 0.00027010069 0.056999117
0.41915834 0.00058972876 0.057391196
0.41879845 0.00012763937 0.057383843
0.4178856 0.00044981702 0.057775963
0.41697404 0.00077373197 0.058168132
0.41606385 0.0010993048 0.058560304
0.41570595 0.00063977652 0.058552988
0.41479775 0.00096791022 0.058945205
0.41389087 0.0012977477 0.059337445
0.41353428 0.00083991111 0.059330158
0.4131777 0.00038208629 0.059322871
0.41227344 0.00071535271 0.059715189
0.41137055 0.0010503007 0.060107511
0.41046897 0.00138694 0.060499862
0.41011435 0.00093166449 0.060492612
0.40921479 0.001270865 0.060885005
0.40886083 0.00081643538 0.06087777
0.40796325 0.0011581739 0.0612702
0.40760997 0.00070459011 0.06126298
0.40671432 0.0010489231 0.061655477
0.40582004 0.0013949377 0.062047973
0.40546808 0.00094305747 0.06204078
0.40457579 0.0012916212 0.062433321
0.40368482 0.0016418771 0.062825888
0.4033342 0.0011917003 0.062818721
0.40298358 0.00074153527 0.062811553
0.40263295 0.0002913585 0.062804386
0.40228233 -0.00015881829 0.062797226
0.40193173 -0.00060898333 0.062790059
0.40158108 -0.0010591601 0.062782891
0.40123048 -0.0015093251 0.062775724
0.40087986 -0.001959502 0.062768556
0.40052924 -0.0024096787 0.062761396
0.40017861 -0.0028598439 0.062754229
0.39982799 -0.0033100205 0.062747061
0.39947736 -0.0037601856 0.062739894
0.39912674 -0.0042103622 0.062732734
0.39877611 -0.0046605393 0.062725566
0.39842549 -0.0051107043 0.062718399
0.39754575 -0.0047459528 0.063111216
0.39719579 -0.0051952722 0.063104063
0.39684585 -0.0056445915 0.063096911
0.39649588 -0.0060939104 0.063089758
0.39614591 -0.0065432298 0.063082606
0.3952702 -0.0061734016 0.06347549
0.395446 -0.0074418797 0.0630683
0.3945716 -0.0070703365 0.063461207
0.39422232 -0.0075188102 0.063454069
0.39439613 -0.0087898374 0.063046843
0.39456865 -0.010062602 0.062639572
0.39421803 -0.010512779 0.062632404
0.39334625 -0.010137807 0.063025393
0.39351678 -0.011413121 0.062618077
0.39316615 -0.011863286 0.062610909
0.39281553 -0.012313463 0.062603742
0.39246491 -0.012763639 0.062596574
0.39211431 -0.013213804 0.062589414
0.39176369 -0.013663981 0.062582247
0.39141306 -0.014114146 0.06257508
0.39106244 -0.014564323 0.062567912
0.39071181 -0.015014499 0.062560745
0.39036119 -0.015464664 0.062553585
0.39001057 -0.015914841 0.062546417
0.38965994 -0.016365007 0.06253925
0.38930932 -0.016815184 0.062532082
0.38895869 -0.017265361 0.062524915
0.38860807 -0.017715525 0.062517755
0.38825744 -0.018165702 0.062510587
0.38790682 -0.018615879 0.06250342
0.38755623 -0.019066043 0.062496252
0.3872056 -0.01951622 0.062489089
0.38685498 -0.019966386 0.062481921
0.38650435 -0.020416562 0.062474757
0.38615373 -0.020866739 0.06246759
0.3858031 -0.021316905 0.062460423
0.38545248 -0.021767082 0.062453259
0.38510185 -0.022217246 0.062446091
0.3842473 -0.021820152 0.062839426
0.38389733 -0.022269471 0.062832274
0.3835474 -0.022718791 0.062825121
0.38319743 -0.023168121 0.062817968
0.38284746 -0.023617441 0.062810816
0.38249752 -0.024066759 0.062803663
0.38214755 -0.02451608 0.062796511
0.38179758 -0.024965398 0.062789358
0.38144761 -0.025414729 0.062782206
0.38059974 -0.025009152 0.063175656
0.38025045 -0.025457624 0.063168518
0.37990114 -0.025906086 0.063161381
0.37955186 -0.026354561 0.063154235
0.37969783 -0.027661325 0.062746443
0.37885326 -0.027251506 0.06313996
0.37850398 -0.027699968 0.063132823
0.37815467 -0.028148441 0.063125685
0.37780538 -0.028596915 0.063118547
0.37745607 -0.029045377 0.063111402
0.37710679 -0.02949385 0.063104264
0.37675747 -0.029942323 0.063097127
0.37640819 -0.030390795 0.063089989
0.37605891 -0.030839257 0.063082851
0.37570959 -0.03128773 0.063075714
0.37536031 -0.031736203 0.063068576
0.375011 -0.032184679 0.063061431
0.37466171 -0.032633141 0.063054293
0.3743124 -0.033081613 0.063047156
0.37396312 -0.033530086 0.063040018
0.3736138 -0.033978559 0.06303288
0.37326452 -0.034427021 0.063025743
0.37291521 -0.034875493 0.063018598
0.37256593 -0.035323966 0.06301146
0.37221661 -0.035772439 0.063004322
0.37186733 -0.036220901 0.062997185
0.37151805 -0.036669374 0.062990047
0.37116873 -0.03711785 0.062982909
0.37081945 -0.037566323 0.062975764
0.37047014 -0.038014784 0.062968627
0.37012085 -0.038463257 0.062961489
0.36977154 -0.03891173 0.062954351
0.36942226 -0.039360192 0.062947214
0.36907297 -0.039808664 0.062940076
0.36872366 -0.040257137 0.062932931
0.36837438 -0.04070561 0.062925793
0.36802506 -0.041154072 0.062918656
0.36767578 -0.041602548 0.062911518
0.36732647 -0.042051021 0.06290438
0.36697719 -0.042499494 0.062897243
0.3666279 -0.042947955 0.062890105
0.36627859 -0.043396428 0.06288296
0.36592931 -0.043844901 0.062875822
0.36557999 -0.044293374 0.062868685
0.36523071 -0.044741835 0.062861547
0.3648814 -0.045190308 0.062854409
0.36499953 -0.046532825 0.062446043
0.36464959 -0.046982143 0.062438894
0.36429963 -0.047431462 0.062431742
0.36394966 -0.04788078 0.062424589
0.36359972 -0.048330102 0.062417436
0.36324975 -0.048779432 0.062410284
0.36289978 -0.04922875 0.062403131
0.36254981 -0.049678069 0.062395979
0.36219987 -0.050127391 0.062388826
0.3618499 -0.050576709 0.062381674
0.36149997 -0.051026028 0.062374521
0.36115 -0.051475357 0.062367368
0.36125955 -0.052828964 0.061958808
0.36090893 -0.053279139 0.061951641
0.3605583 -0.053729303 0.061944477
0.36020768 -0.054179482 0.06193731
0.36031389 -0.055537302 0.061528705
0.35996261 -0.055988327 0.061521526
0.35961133 -0.056439348 0.061514348
0.35926005 -0.056890372 0.061507165
0.35890877 -0.057341393 0.061499987
0.35901099 -0.058704328 0.0610913
0.35865906 -0.059156209 0.061084107
0.35830709 -0.059608076 0.061076913
0.35795516 -0.060059957 0.061069719
0.35760319 -0.060511824 0.06106253
0.35725126 -0.060963705 0.061055336
0.35689932 -0.061415575 0.061048143
0.35654736 -0.061867453 0.061040949
0.35619542 -0.062319323 0.061033756
0.35584345 -0.062771201 0.061026562
0.35549152 -0.063223071 0.061019368
0.35513955 -0.063674949 0.061012179
0.35478762 -0.064126819 0.061004985
0.35443568 -0.064578697 0.060997792
0.35408372 -0.065030567 0.060990598
0.35373178 -0.065482453 0.060983405
0.35337985 -0.065934315 0.060976211
0.35302788 -0.0663862 0.060969017
0.35267594 -0.066838063 0.060961824
0.3527649 -0.068218023 0.060552869
0.35241231 -0.06867075 0.060545661
0.35162008 -0.068193696 0.060940247
0.35126814 -0.068645567 0.060933053
0.35091618 -0.069097444 0.06092586
0.35056424 -0.069549315 0.060918666
0.34977534 -0.069067992 0.06131332
0.34942406 -0.069519028 0.061306141
0.34863716 -0.06903515 0.061700832
0.34698161 -0.066678077 0.062899351
0.34619868 -0.066189118 0.063294128
0.34585074 -0.066635877 0.063287012
0.34550273 -0.067082658 0.063279904
0.34472248 -0.066590272 0.063674733
0.34437516 -0.067036189 0.063667633
0.34402788 -0.067482099 0.063660532
0.34368053 -0.067928039 0.063653432
0.34333324 -0.068373948 0.063646339
0.34255689 -0.067876428 0.064041272
0.34263864 -0.069265775 0.063632138
0.34229133 -0.069711685 0.063625045
0.34194401 -0.070157617 0.063617945
0.34159669 -0.070603535 0.063610844
0.34124941 -0.071049444 0.063603751
0.34090209 -0.071495354 0.063596651
0.34055477 -0.071941294 0.063589551
0.34020746 -0.072387204 0.06358245
0.33986017 -0.072833113 0.063575357
0.33951285 -0.073279031 0.063568257
0.33916554 -0.07372494 0.063561156
0.33881822 -0.07417088 0.063554063
0.33805051 -0.073662296 0.063949168
0.33728415 -0.07315205 0.064344279
0.33693814 -0.073596269 0.064337209
0.33590022 -0.07492891 0.064315997
0.33513784 -0.074413545 0.064711191
0.33437678 -0.073896512 0.065106414
0.44472107 -0.0080565372 0.045842849
0.44662741 -0.011583207 0.044234697
0.44624627 -0.012072529 0.044226907
0.44586518 -0.012561838 0.044219118
0.44434562 -0.011525666 0.045011628
0.44396582 -0.012013272 0.045003869
0.44301817 -0.011736464 0.045396272
0.44150463 -0.010692654 0.046188883
0.43358842 -0.0029336794 0.050968435
0.43321857 -0.0034085272 0.050960876
0.43172094 -0.0023442996 0.051753812
0.43078914 -0.0020470268 0.052146561
0.42985871 -0.0017480726 0.052539319
0.42892963 -0.0014474266 0.052932102
0.42763597 -0.0016148263 0.053317439
0.42671013 -0.0013098933 0.053710312
0.42578566 -0.001003291 0.054103188
0.42486253 -0.00069498527 0.054496095
0.42449868 -0.0011621733 0.054488659
0.42357752 -0.00085131824 0.054881606
0.4226577 -0.00053875922 0.055274576
0.42173916 -0.00022446339 0.055667598
0.42082196 9.1502581e-05 0.056060627
0.41990614 0.0004091716 0.056453682
0.41954556 -5.3763673e-05 0.05644631
0.4186317 0.00026645424 0.05683941
0.41771919 0.00058837654 0.057232529
0.41680795 0.00091203564 0.057625704
0.41644937 0.00045164971 0.057618372
0.41554013 0.00077782484 0.058011562
0.41463226 0.0011057029 0.058404781
0.41372567 0.0014352846 0.058798026
0.41336909 0.00097744795 0.058790736
0.4130125 0.00051962317 0.058783449
0.41210854 0.00085263379 0.059176769
0.41120595 0.0011873263 0.059570093
0.4103047 0.0015237101 0.059963446
0.40995011 0.0010684347 0.0599562
0.40905082 0.0014073795 0.060349595
0.40869689 0.00095294986 0.06034236
0.4077996 0.0012944323 0.060735796
0.4074463 0.0008408486 0.060728576
0.40655097 0.001184926 0.061122071
0.40565699 0.0015306852 0.061515573
0.40530506 0.001078805 0.06150838
0.40441307 0.0014271131 0.061901923
0.4035224 0.0017771129 0.062295493
0.40317178 0.0013269362 0.062288325
0.40282115 0.00087677117 0.062281158
0.40247053 0.00042659437 0.062273994
0.4021199 -2.3582406e-05 0.062266827
0.40176928 -0.00047374744 0.062259663
0.40141866 -0.00092392421 0.062252495
0.40106806 -0.0013740893 0.062245328
0.40071744 -0.001824266 0.062238164
0.40036681 -0.0022744429 0.062230997
0.40001619 -0.0027246079 0.062223833
0.39966556 -0.0031747846 0.062216666
0.39931494 -0.0036249498 0.062209498
0.39896432 -0.0040751267 0.062202334
0.39861369 -0.0045253034 0.062195167
0.39826307 -0.0049754684 0.062188003
0.39738363 -0.0046109725 0.062581822
0.39650556 -0.0042447955 0.062975653
0.39615628 -0.0046932688 0.062968515
0.39528018 -0.0043245419 0.063362375
0.39440545 -0.0039541121 0.063756272
0.39458293 -0.0052197734 0.063348129
0.3942343 -0.005667401 0.063340999
0.39336154 -0.0052944217 0.063734941
0.39301357 -0.0057411799 0.063727826
0.39266559 -0.0061879498 0.063720718
0.39301261 -0.0087294932 0.062904261
0.3926633 -0.009177967 0.062897123
0.39231402 -0.0096264398 0.062889986
0.39196473 -0.010074901 0.062882848
0.39161542 -0.010523375 0.06287571
0.39126614 -0.010971848 0.062868565
0.39091682 -0.011420322 0.062861428
0.39056754 -0.011868783 0.06285429
0.3907344 -0.013148072 0.062445927
0.39038447 -0.013597392 0.062438775
0.3900345 -0.014046711 0.062431622
0.38968453 -0.014496029 0.06242447
0.38933456 -0.014945361 0.062417317
0.38898462 -0.01539468 0.062410168
0.38863465 -0.015843999 0.062403016
0.38828468 -0.016293319 0.062395863
0.38793474 -0.016742637 0.062388711
0.38758478 -0.017191956 0.062381558
0.38723481 -0.017641287 0.062374406
0.38688487 -0.018090608 0.062367253
0.3865349 -0.018539926 0.0623601
0.38618493 -0.018989244 0.062352948
0.38583499 -0.019438565 0.062345795
0.38548502 -0.019887883 0.062338643
0.38513505 -0.020337215 0.06233149
0.38478512 -0.020786533 0.062324338
0.38443515 -0.021235853 0.062317185
0.38358161 -0.02083819 0.062711515
0.3832323 -0.021286665 0.062704377
0.38288301 -0.021735137 0.062697239
0.38253373 -0.022183599 0.062690094
0.38218442 -0.022632072 0.062682956
0.38183513 -0.023080545 0.062675819
0.38148582 -0.023529019 0.062668681
0.38113654 -0.023977481 0.062661543
0.38078722 -0.024425954 0.062654406
0.37994033 -0.024019785 0.063048862
0.37959167 -0.024467401 0.063041739
0.37924305 -0.024915028 0.063034616
0.37889442 -0.025362644 0.063027486
0.37904075 -0.026668308 0.06261871
0.37819713 -0.026257887 0.063013241
0.37784851 -0.026705503 0.06300611
0.37749988 -0.027153119 0.062998988
0.37715125 -0.027600734 0.062991865
0.37680262 -0.028048363 0.062984735
0.37645397 -0.028495977 0.062977612
0.37610534 -0.028943593 0.062970489
0.37575671 -0.02939122 0.062963359
0.37540808 -0.029838836 0.062956236
0.37505946 -0.030286452 0.062949114
0.3747108 -0.030734079 0.062941983
0.37436217 -0.031181695 0.062934861
0.37401354 -0.031629313 0.062927738
0.37366492 -0.032076925 0.062920608
0.37331629 -0.032524556 0.062913485
0.37296763 -0.032972168 0.062906362
0.372619 -0.033419784 0.062899232
0.37227038 -0.033867411 0.062892109
0.37192175 -0.034315027 0.062884986
0.37157312 -0.034762643 0.062877856
0.37122446 -0.03521027 0.062870733
0.37087584 -0.035657886 0.062863611
0.37052721 -0.036105502 0.06285648
0.37017858 -0.036553118 0.062849358
0.36982995 -0.037000746 0.062842228
0.3694813 -0.037448362 0.062835105
0.36913267 -0.037895977 0.062827982
0.36878404 -0.038343605 0.062820852
0.36843541 -0.038791221 0.062813729
0.36808679 -0.039238837 0.062806606
0.36773813 -0.039686464 0.062799476
0.3673895 -0.04013408 0.062792353
0.36704087 -0.040581696 0.062785231
0.36669225 -0.041029323 0.0627781
0.36634359 -0.041476939 0.062770978
0.36599496 -0.041924555 0.062763855
0.36564633 -0.042372171 0.062756725
0.3652977 -0.042819798 0.062749602
0.36494908 -0.043267414 0.062742479
0.36460045 -0.04371503 0.062735349
0.36425179 -0.044162657 0.062728226
0.36437029 -0.04550406 0.062318876
0.364021 -0.045952532 0.062311739
0.36367172 -0.046400994 0.062304597
0.36332241 -0.046849467 0.06229746
0.36297309 -0.04729794 0.062290322
0.36262381 -0.047746412 0.062283181
0.36227453 -0.048194874 0.062276043
0.36192521 -0.048643347 0.062268905
0.36157593 -0.04909182 0.062261768
0.36122662 -0.049540281 0.062254626
0.36087734 -0.049988754 0.062247489
0.36052802 -0.050437231 0.062240351
0.3606379 -0.051789697 0.061830822
0.36028796 -0.052239016 0.06182367
0.359938 -0.052688334 0.061816517
0.35958803 -0.053137656 0.061809365
0.35969466 -0.054494411 0.061399747
0.35934404 -0.054944586 0.061392583
0.35899341 -0.055394765 0.061385415
0.35864279 -0.055844929 0.061378252
0.35829216 -0.056295104 0.061371084
0.35839474 -0.057656925 0.060961407
0.35804346 -0.058107946 0.060954228
0.35769218 -0.058558982 0.060947049
0.35734087 -0.059010006 0.060939871
0.35698959 -0.059461027 0.060932688
0.35663831 -0.059912048 0.06092551
0.35628703 -0.060363073 0.060918331
0.35593575 -0.060814094 0.060911153
0.35558447 -0.061265118 0.06090397
0.35523319 -0.061716139 0.060896792
0.35488188 -0.062167164 0.060889613
0.3545306 -0.062618189 0.060882434
0.35417932 -0.063069209 0.060875256
0.35427263 -0.064442955 0.060465388
0.35347676 -0.063971251 0.060860895
0.35312548 -0.06442228 0.060853716
0.3527742 -0.0648733 0.060846537
0.35242289 -0.065324321 0.060839355
0.35163033 -0.064848371 0.061234932
0.35172033 -0.066226371 0.060824998
0.35136905 -0.066677392 0.060817819
0.35057849 -0.066198885 0.061213434
0.35066649 -0.067579433 0.060803458
0.34943923 -0.066167973 0.061601944
0.34952661 -0.067549407 0.061191935
0.34742936 -0.064267829 0.062796183
0.34708139 -0.064714596 0.062789075
0.34551612 -0.063737132 0.063580655
0.34516948 -0.0641822 0.063573569
0.34482282 -0.064627267 0.063566484
0.34447619 -0.065072328 0.063559398
0.34412953 -0.065517396 0.063552313
0.34335154 -0.065022729 0.063948184
0.34300557 -0.065466948 0.063941114
0.34308961 -0.066852599 0.063531056
0.34274295 -0.06729766 0.063523978
0.34239632 -0.067742728 0.063516892
0.34204966 -0.068187796 0.063509807
0.34170303 -0.068632863 0.063502721
0.34135637 -0.069077931 0.063495636
0.34100974 -0.069522992 0.06348855
0.34066308 -0.06996806 0.063481465
0.34031644 -0.070413128 0.063474379
0.33996978 -0.070858195 0.063467294
0.33962315 -0.071303263 0.063460216
0.33885378 -0.070797525 0.063856259
0.3385078 -0.071241744 0.063849188
0.33816183 -0.07168594 0.063842118
0.33781585 -0.072130166 0.063835047
0.33746985 -0.072574385 0.063827977
0.33670446 -0.07206355 0.064224102
0.33677787 -0.073462829 0.063813835
0.33559576 -0.071993507 0.064613216
0.33525109 -0.072436042 0.064606175
0.33532318 -0.073837005 0.064195871
0.3342171 -0.073763579 0.064585045
0.44645086 -0.011436211 0.043658178
0.44606975 -0.011925532 0.043650389
0.44568864 -0.012414842 0.043642599
0.44416967 -0.011379181 0.044437114
0.4437899 -0.011866788 0.044429354
0.44227499 -0.010826052 0.045223933
0.4413296 -0.010546938 0.045617379
0.43248299 -0.0024974414 0.050802637
0.43098658 -0.0014328456 0.051597618
0.43061873 -0.0019051441 0.051590096
0.42968863 -0.0016064453 0.051983856
0.42875981 -0.0013060546 0.052377641
0.42746648 -0.0014737102 0.05276398
0.42654097 -0.001169033 0.053157855
0.4256168 -0.00086268655 0.053551737
0.42469397 -0.00055463618 0.053945646
0.42433009 -0.0010218243 0.053938206
0.42340925 -0.00071122497 0.054332159
0.42248973 -0.00039892178 0.054726135
0.42157149 -8.48813e-05 0.055120159
0.42065465 0.00023082885 0.055514187
0.4197391 0.00054824207 0.055908244
0.41937855 8.530679e-05 0.055900875
0.41846499 0.00040526933 0.056294974
0.4181051 -5.682007e-05 0.05628762
0.41719353 0.000265704 0.05668176
0.41628325 0.00058995362 0.057075944
0.41537434 0.00091587292 0.057470135
0.41446677 0.0012434953 0.057864357
0.41356051 0.0015728215 0.058258604
0.4132039 0.0011149849 0.058251318
0.41284731 0.00065716007 0.058244027
0.41194367 0.00098991487 0.058638353
0.41104138 0.0013243515 0.059032679
0.41014042 0.00166048 0.059427034
0.40978584 0.0012052045 0.059419788
0.40888685 0.0015438936 0.059814185
0.40853292 0.0010894639 0.05980695
0.40763593 0.0014306911 0.060201388
0.40728265 0.00097710732 0.060194168
0.40638763 0.0013209289 0.060588665
0.40549397 0.0016664324 0.06098317
0.40514201 0.0012145521 0.060975976
0.40425032 0.0015626048 0.061370522
0.40335998 0.0019123494 0.061765093
0.40300936 0.0014621726 0.061757926
0.40265873 0.0010120075 0.061750762
0.40230811 0.0005618307 0.061743595
0.40195748 0.00011165393 0.061736431
0.40160686 -0.0003385111 0.061729264
0.40125623 -0.0007886879 0.061722096
0.40090564 -0.001238853 0.061714932
0.40055501 -0.0016890297 0.061707765
0.40020439 -0.0021392065 0.061700601
0.39985377 -0.0025893715 0.061693434
0.39950314 -0.0030395484 0.061686266
0.39915252 -0.0034897134 0.061679102
0.39880189 -0.0039398903 0.061671935
0.39845127 -0.004390067 0.061664771
0.39810064 -0.004840232 0.061657604
0.39722151 -0.0044759922 0.062052429
0.39634377 -0.0041100709 0.062447261
0.39546734 -0.0037424457 0.062842116
0.39511868 -0.0041900733 0.062834993
0.39371845 -0.0030021085 0.063631907
0.39337113 -0.0034480207 0.063624814
0.39302382 -0.0038939447 0.063617714
0.3926765 -0.004339857 0.063610613
0.39232922 -0.0047857808 0.063603513
0.39093685 -0.0035875619 0.064400621
0.39059088 -0.0040317825 0.06439355
0.3902449 -0.0044760029 0.06438648
0.39146048 -0.0073940456 0.063172996
0.39111251 -0.007840815 0.063165881
0.39076453 -0.0082875853 0.063158773
0.39041656 -0.0087343436 0.063151658
0.39006859 -0.009181113 0.06314455
0.39023784 -0.01045674 0.062735237
0.38988918 -0.010904356 0.062728114
0.38954055 -0.011351983 0.062720984
0.38919193 -0.011799599 0.062713861
0.3888433 -0.012247214 0.062706739
0.38900855 -0.01352794 0.062297344
0.38814601 -0.013142457 0.062692486
0.38779739 -0.013590073 0.062685356
0.38796064 -0.01487336 0.062275928
0.38761136 -0.015321821 0.06226879
0.38726205 -0.015770296 0.062261648
0.38691276 -0.016218768 0.062254511
0.38656345 -0.016667241 0.062247373
0.38621417 -0.017115703 0.062240232
0.38586488 -0.017564176 0.062233094
0.38551557 -0.01801265 0.062225956
0.38516626 -0.018461123 0.062218815
0.38481697 -0.018909585 0.062211677
0.38446769 -0.019358058 0.06220454
0.38411838 -0.01980653 0.062197398
0.38376909 -0.020254992 0.062190261
0.38291651 -0.01985674 0.062585607
0.38256788 -0.020304367 0.062578477
0.38221925 -0.020751983 0.062571354
0.38187063 -0.021199599 0.062564231
0.38152197 -0.021647226 0.062557101
0.38117334 -0.022094842 0.062549978
0.38082471 -0.022542458 0.062542856
0.38047609 -0.022990074 0.062535726
0.38012746 -0.023437701 0.062528603
0.37928149 -0.023030931 0.06292408
0.37893352 -0.023477701 0.062916972
0.37858555 -0.02392447 0.062909856
0.37823758 -0.02437124 0.062902749
0.37838429 -0.02567579 0.062492974
0.37754163 -0.025264779 0.062888525
0.37719369 -0.025711538 0.06288141
0.37684572 -0.026158309 0.062874302
0.37649775 -0.026605077 0.062867187
0.37614977 -0.027051847 0.062860079
0.3758018 -0.027498618 0.062852964
0.37545383 -0.027945388 0.062845849
0.37510586 -0.028392157 0.062838741
0.37475789 -0.028838916 0.062831625
0.37440991 -0.029285684 0.062824517
0.37406194 -0.029732455 0.062817402
0.37371397 -0.030179225 0.062810294
0.373366 -0.030625995 0.062803179
0.37301803 -0.031072764 0.062796071
0.37267005 -0.031519536 0.062788956
0.37232208 -0.031966303 0.062781848
0.37197411 -0.032413062 0.062774733
0.37162614 -0.032859832 0.062767625
0.37127817 -0.033306602 0.06276051
0.37093019 -0.033753373 0.062753402
0.37058222 -0.034200143 0.062746286
0.37023425 -0.03464691 0.062739179
0.36988628 -0.03509368 0.062732063
0.36953834 -0.035540439 0.062724955
0.36919037 -0.03598721 0.06271784
0.36884239 -0.03643398 0.062710732
0.36849442 -0.03688075 0.062703617
0.36814645 -0.037327517 0.062696502
0.36779848 -0.037774287 0.062689394
0.36745048 -0.038221058 0.062682278
0.3671025 -0.038667828 0.062675171
0.36675456 -0.039114587 0.062668055
0.36640659 -0.039561357 0.062660947
0.36605862 -0.040008124 0.062653832
0.36571065 -0.040454894 0.062646724
0.36536267 -0.040901665 0.062639609
0.3650147 -0.041348435 0.062632501
0.36466673 -0.041795205 0.062625386
0.36431876 -0.042241964 0.062618278
0.36397079 -0.042688731 0.062611163
0.36362281 -0.043135501 0.062604055
0.36374167 -0.044475801 0.062193714
0.36339304 -0.044923417 0.062186588
0.36304438 -0.045371044 0.062179461
0.36269575 -0.04581866 0.062172338
0.36234713 -0.046266276 0.062165212
0.3619985 -0.046713892 0.062158085
0.36164987 -0.04716152 0.062150963
0.36130124 -0.047609136 0.062143836
0.36095259 -0.048056751 0.06213671
0.36060396 -0.048504379 0.062129583
0.36025533 -0.048951995 0.06212246
0.36036623 -0.050302505 0.06171196
0.36001691 -0.050750978 0.061704818
0.35966763 -0.05119944 0.061697681
0.35931835 -0.051647913 0.061690543
0.35896903 -0.052096386 0.061683401
0.35907596 -0.053451993 0.061272819
0.35872599 -0.053901326 0.061265666
0.35837603 -0.054350644 0.061258513
0.35802609 -0.054799963 0.061251361
0.35767612 -0.055249281 0.061244208
0.35777912 -0.056610033 0.060833521
0.35742849 -0.057060212 0.060826354
0.35707787 -0.057510387 0.06081919
0.35672724 -0.057960551 0.060812023
