# .PCD v0.7 - Point Cloud Data file format
VERSION 0.7
FIELDS x y z
SIZE 4 4 4
TYPE F F F
COUNT 1 1 1
WIDTH 1345
HEIGHT 1
VIEWPOINT 0 0 0 1 0 0 0
POINTS 1345
DATA ascii
0.44777206 -0.084095992 0.064869098
0.44899148 -0.083351932 0.065222956
0.45021039 -0.082609981 0.065576799
0.45142856 -0.081870057 0.065930575
0.45174745 -0.080833994 0.065947242
0.45296478 -0.080097213 0.066301011
0.45507944 -0.079662777 0.066991791
0.45629516 -0.07893116 0.067345478
0.4575102 -0.078201592 0.067699105
0.45782751 -0.0771707 0.06771569
0.4590416 -0.076444238 0.068069272
0.46025503 -0.075719848 0.068422824
0.46146789 -0.074997544 0.068776354
0.46268007 -0.074277282 0.069129832
0.4638916 -0.07355909 0.06948328
0.46510249 -0.07284297 0.069836706
0.46541789 -0.071818285 0.069853187
0.46573329 -0.070793591 0.06986966
0.46694294 -0.070081607 0.070223011
0.46815196 -0.069371708 0.07057634
0.46936032 -0.068663858 0.070929624
0.47056803 -0.067958079 0.071282879
0.47088215 -0.066937529 0.071299292
0.47208893 -0.066234842 0.071652487
0.47240272 -0.065215327 0.071668886
0.47271654 -0.064195804 0.071685284
0.47303036 -0.063176289 0.071701676
0.47334418 -0.06215677 0.071718074
0.47365797 -0.061137252 0.071734473
0.47486252 -0.060441814 0.072087556
0.47517601 -0.059423327 0.072103932
0.47637963 -0.058731001 0.072456986
0.4766928 -0.057713553 0.072473347
0.47789544 -0.057024319 0.072826326
0.4790974 -0.056337148 0.073179282
0.48029876 -0.055652045 0.073532201
0.48149952 -0.054969031 0.073885098
0.4826996 -0.054288059 0.07423795
0.48389906 -0.053609163 0.074590772
0.48509786 -0.052932337 0.07494355
0.4871833 -0.052593041 0.075632825
0.48838049 -0.051921379 0.075985529
0.48957708 -0.051251788 0.076338194
0.49077302 -0.050584268 0.07669083
0.4919683 -0.049918808 0.077043436
0.49316305 -0.049255438 0.077396013
0.49435708 -0.048594121 0.077748545
0.49555045 -0.047934867 0.078101054
0.49585855 -0.04693396 0.078117155
0.49616662 -0.045933053 0.078133248
0.49647471 -0.044932146 0.078149348
0.49589905 -0.043584421 0.077829115
0.49444062 -0.041886739 0.077172607
0.49386656 -0.040533844 0.076852463
0.49241039 -0.038828947 0.076196082
0.49095541 -0.037119895 0.075539753
0.48861966 -0.035054732 0.074547268
0.48716757 -0.033336379 0.073891096
0.48483533 -0.031259846 0.07289879
0.4833861 -0.02953219 0.072242759
0.48105732 -0.027444281 0.071250632
0.47873044 -0.025350148 0.070258595
0.47728571 -0.023608029 0.069602825
0.47584221 -0.02186176 0.068947092
0.47440004 -0.020111363 0.068291441
0.47383836 -0.018718123 0.06797193
0.47327739 -0.017322838 0.067652494
0.47271699 -0.015925467 0.06733305
0.47215721 -0.014526023 0.067013636
0.47159818 -0.013124532 0.066694297
0.47103965 -0.011720949 0.06637495
0.4704819 -0.010315335 0.06605567
0.46992466 -0.0089076133 0.065736391
0.47024485 -0.0078674126 0.065753117
0.47056502 -0.0068272119 0.065769851
0.47088519 -0.0057870178 0.065786578
0.47120538 -0.0047468171 0.065803304
0.47152555 -0.0037066231 0.065820038
0.47184572 -0.0026664222 0.065836765
0.47216591 -0.0016262213 0.065853491
0.47248608 -0.00058602751 0.065870218
0.47280625 0.00045417345 0.065886952
0.47312641 0.0014943673 0.065903679
0.47432017 0.0021546315 0.066256218
0.47464004 0.0031937996 0.066272937
0.47583273 0.0038509993 0.066625386
0.47702491 0.004506106 0.066977836
0.47734416 0.0055432008 0.066994518
0.47853526 0.0061952216 0.067346878
0.47972584 0.0068451567 0.067699254
0.48004442 0.0078801857 0.067715906
0.48123404 0.0085270153 0.068068221
0.48242292 0.0091717979 0.06842047
0.48361129 0.0098144952 0.068772718
0.48479894 0.010455137 0.069124922
0.48685569 0.010701383 0.069812685
0.48804182 0.011336843 0.070164822
0.48835817 0.012364629 0.070181347
0.49041206 0.012601572 0.070868954
0.49072778 0.013627297 0.07088545
0.43105429 -0.1200303 0.061178572
0.43137604 -0.11898493 0.061195385
0.43898201 -0.12001055 0.063922517
0.44112161 -0.11949327 0.064616732
0.44235012 -0.11871919 0.064972147
0.44448751 -0.11820915 0.065666243
0.44662359 -0.11770323 0.06636028
0.4469406 -0.11667337 0.066376843
0.44816619 -0.11590859 0.066732094
0.44848287 -0.11487976 0.066748641
0.44879955 -0.11385094 0.066765189
0.4491162 -0.11282212 0.066781729
0.44852558 -0.11152408 0.066459656
0.44884256 -0.11049422 0.066476218
0.44825286 -0.10919309 0.066154197
0.44766378 -0.10788988 0.065832198
0.44707531 -0.10658459 0.065510228
0.44648758 -0.10527727 0.065188326
0.44590038 -0.10396785 0.064866416
0.44531381 -0.10265635 0.064544536
0.44472799 -0.10134283 0.064222738
0.4441427 -0.1000272 0.063900933
0.44355813 -0.098709531 0.063579179
0.443878 -0.097670369 0.063595898
0.44419786 -0.096631207 0.06361261
0.44361445 -0.095309369 0.063290901
0.44393465 -0.094269171 0.063307635
0.44425482 -0.093228973 0.063324362
0.44457498 -0.092188776 0.063341089
0.44489518 -0.091148578 0.063357823
0.44611698 -0.090396218 0.06371288
0.44643685 -0.089357056 0.063729592
0.44675672 -0.088317893 0.063746303
0.44707656 -0.087278724 0.063763015
0.4482967 -0.086531505 0.064117976
0.4495163 -0.08578638 0.064472929
0.45073515 -0.085043296 0.0648278
0.45195347 -0.084302306 0.065182686
0.45317116 -0.083563387 0.065537535
0.45438811 -0.08282651 0.065892316
0.45470607 -0.081793547 0.065908931
0.45682025 -0.081358999 0.066601835
0.45803535 -0.080628335 0.066956535
0.45924979 -0.079899736 0.067311205
0.46046367 -0.07917323 0.067665845
0.46078002 -0.078145437 0.067682378
0.46199289 -0.077422015 0.068036959
0.46320513 -0.076700658 0.068391517
0.46441671 -0.075981371 0.068746038
0.46562767 -0.075264148 0.069100514
0.46594274 -0.074240491 0.06911698
0.4671528 -0.073526397 0.069471426
0.46746755 -0.072503775 0.06948787
0.4686766 -0.071792759 0.069842257
0.46988502 -0.071083806 0.070196614
0.47109279 -0.070376925 0.070550919
0.47140658 -0.06935741 0.070567317
0.47261339 -0.068653628 0.070921592
0.47381964 -0.06795194 0.071275845
0.47413281 -0.066934489 0.071292207
0.47533804 -0.066235878 0.071646377
0.47565091 -0.065219462 0.071662724
0.47596374 -0.064203046 0.071679071
0.47627661 -0.063186631 0.071695417
0.47658947 -0.062170211 0.071711764
0.47690231 -0.061153796 0.07172811
0.47810531 -0.060462426 0.072082184
0.47841784 -0.059447043 0.072098516
0.47873038 -0.058431663 0.072114848
0.47904292 -0.057416283 0.072131172
0.48024434 -0.056730077 0.072485164
0.48144516 -0.056045964 0.072839126
0.48264527 -0.055363894 0.073193043
0.48384479 -0.054683901 0.073546931
0.48504364 -0.054005977 0.073900782
0.48624185 -0.053330112 0.074254602
0.48832646 -0.052991718 0.074945964
0.48952308 -0.052321032 0.075299695
0.49071908 -0.051652409 0.075653397
0.49191445 -0.050985854 0.076007068
0.49222347 -0.049981844 0.076023214
0.49341795 -0.049318407 0.07637684
0.49461171 -0.048657026 0.07673043
0.49580482 -0.047997709 0.07708399
0.49611291 -0.046996802 0.077100091
0.49642098 -0.045995891 0.077116184
0.49672908 -0.044994984 0.077132285
0.49615371 -0.043647327 0.076811001
0.49557897 -0.042297587 0.076489754
0.4950048 -0.040945768 0.076168537
0.49443135 -0.039591897 0.075847365
0.49297631 -0.037885062 0.075188912
0.49064067 -0.035822157 0.074193224
0.49007004 -0.034458973 0.073872201
0.48773757 -0.032385714 0.072876677
0.48628798 -0.030661307 0.072218508
0.48483959 -0.028932741 0.071560398
0.48251227 -0.026842959 0.070565164
0.48106673 -0.025105085 0.069907196
0.47962254 -0.023363102 0.06924931
0.47817963 -0.021616973 0.06859149
0.47761691 -0.020227937 0.06827087
0.47705492 -0.018836847 0.067950286
0.47649354 -0.017443674 0.067629747
0.47593281 -0.01604845 0.067309231
0.47537264 -0.014651137 0.066988744
0.47481325 -0.013251785 0.066668317
0.47425437 -0.011850333 0.06634789
0.47369611 -0.010446822 0.066027492
0.47313863 -0.0090412581 0.065707177
0.47345784 -0.0080041625 0.065723851
0.47377706 -0.0069670677 0.065740533
0.47409627 -0.0059299725 0.065757208
0.47441551 -0.0048928778 0.065773889
0.47473472 -0.0038557826 0.065790571
0.47505394 -0.0028186801 0.065807246
0.47537318 -0.0017815852 0.065823928
0.47569239 -0.00074449001 0.065840602
0.4760116 0.00029260508 0.065857284
0.47720405 0.00094986189 0.066210777
0.47752294 0.0019859241 0.066227444
0.47871456 0.0026400627 0.066580929
0.47990549 0.0032921215 0.066934384
0.48022377 0.0043261177 0.066951014
0.48141366 0.0049751047 0.06730438
0.48260301 0.0056219986 0.067657746
0.48292065 0.0066539291 0.067674346
0.48410901 0.0072977343 0.068027653
0.48529673 0.0079394663 0.068380915
0.48648381 0.0085791405 0.068734162
0.4876703 0.0092167305 0.069087371
0.48885611 0.0098522659 0.069440544
0.49004129 0.010485728 0.069793679
0.49035701 0.011511453 0.069810182
0.49154124 0.012141817 0.070163272
0.49185663 0.013166511 0.070179746
0.42579541 -0.12196384 0.058366276
0.42703024 -0.12116796 0.058723055
0.42735326 -0.12011845 0.05873993
0.43587443 -0.12137964 0.061815687
0.43983686 -0.12137052 0.063191831
0.44015577 -0.12033445 0.063208491
0.44138464 -0.11955825 0.063564993
0.44352245 -0.11904497 0.064261235
0.44565904 -0.11853584 0.064957447
0.44870335 -0.11829379 0.065993354
0.4490197 -0.117266 0.066009879
0.4502444 -0.11650322 0.066366144
0.45056042 -0.11547646 0.066382654
0.45087647 -0.1144497 0.066399164
0.4511925 -0.11342295 0.066415682
0.45060149 -0.11212704 0.066092528
0.45091784 -0.11109926 0.066109061
0.45032769 -0.10980023 0.06578593
0.44973826 -0.10849916 0.06546285
0.44914946 -0.10719603 0.065139823
0.44856131 -0.10589082 0.06481681
0.44797373 -0.10458352 0.064493813
0.44829169 -0.10355057 0.064510427
0.44770515 -0.1022402 0.064187519
0.44711918 -0.10092774 0.063864619
0.44653383 -0.099613212 0.06354174
0.44685271 -0.098577149 0.063558407
0.44717163 -0.097541086 0.063575067
0.44658765 -0.096222453 0.0632523
0.44690686 -0.095185362 0.063268974
0.44722611 -0.094148263 0.063285656
0.44754532 -0.093111165 0.063302331
0.44786453 -0.092074074 0.063319013
0.44908503 -0.091324717 0.063675039
0.44940394 -0.090288654 0.063691705
0.44972286 -0.089252591 0.063708365
0.45094219 -0.088507406 0.064064369
0.45216089 -0.087764286 0.064420328
0.45337883 -0.087023206 0.064776227
0.45369679 -0.085990243 0.064792842
0.45491388 -0.085252292 0.065148726
0.45613033 -0.084516399 0.065504566
0.45734611 -0.083782569 0.065860353
0.45856124 -0.08305081 0.066216126
0.45977581 -0.08232113 0.066571884
0.46098968 -0.081593506 0.066927575
0.46220291 -0.080867946 0.067283243
0.4634155 -0.080144458 0.067638882
0.4637309 -0.079119772 0.067655362
0.46494257 -0.078399383 0.068010949
0.46615362 -0.07768108 0.068366505
0.46736398 -0.076964825 0.068722025
0.46857372 -0.076250643 0.069077522
0.46888787 -0.075230092 0.069093935
0.47009665 -0.074519008 0.069449358
0.47041044 -0.073499493 0.069465756
0.47161826 -0.072791517 0.069821142
0.47282553 -0.072085619 0.070176512
0.47403207 -0.071381778 0.07053183
0.47434494 -0.070365362 0.070548177
0.47465777 -0.069348946 0.070564523
0.47586307 -0.068649232 0.070919774
0.47706771 -0.06795159 0.071274996
0.47737992 -0.066937245 0.071291305
0.47769216 -0.065922894 0.071307622
0.47800437 -0.064908549 0.071323931
0.47831658 -0.063894197 0.071340248
0.47862881 -0.062879853 0.071356557
0.47983128 -0.062189471 0.071711667
0.48014316 -0.061176155 0.071727961
0.48045507 -0.060162842 0.071744263
0.48076698 -0.05914953 0.071760558
0.48107886 -0.05813621 0.071776852
0.48227939 -0.057452012 0.072131865
0.48347926 -0.056769885 0.072486833
0.48467848 -0.056089822 0.072841763
0.48587707 -0.055411827 0.073196664
0.48707509 -0.054735921 0.073551558
0.4882724 -0.054062061 0.073906392
0.48946911 -0.053390272 0.074261189
0.49066514 -0.052720554 0.074615963
0.49186057 -0.052052896 0.074970707
0.4930554 -0.051387329 0.075325415
0.49336413 -0.050384358 0.075341545
0.49455795 -0.049721871 0.0756962
0.49575111 -0.049061455 0.076050818
0.49605921 -0.048060551 0.076066919
0.49636728 -0.047059644 0.076083012
0.49667537 -0.046058733 0.076099113
0.49698344 -0.045057826 0.076115206
0.49729154 -0.044056926 0.076131307
0.49671674 -0.042708293 0.075808994
0.49614257 -0.041357584 0.07548672
0.49556899 -0.040004794 0.075164467
0.4949961 -0.038649961 0.074842252
0.49266064 -0.036589324 0.073843397
0.49208963 -0.035228264 0.073521264
0.49063832 -0.033511221 0.072860889
0.48918828 -0.03179004 0.072200567
0.48773947 -0.030064711 0.071540304
0.48541191 -0.027978204 0.070541851
0.48396602 -0.026243582 0.069881752
0.48252141 -0.024504829 0.069221713
0.481078 -0.022761911 0.068561733
0.48051465 -0.021376057 0.068240017
0.47995195 -0.019988129 0.067918338
0.47938991 -0.018598134 0.067596704
0.4788284 -0.017206058 0.06727507
0.47826761 -0.015811926 0.066953488
0.47770748 -0.014415726 0.06663195
0.47802478 -0.013384828 0.066648528
0.47746557 -0.011985531 0.066327035
0.4777832 -0.010953608 0.066343628
0.47722492 -0.009551188 0.066022165
0.47666734 -0.0081467293 0.065700777
0.4769856 -0.0071127396 0.065717407
0.47730389 -0.0060787434 0.065734036
0.47762215 -0.0050447471 0.065750659
0.47794041 -0.0040107504 0.065767288
0.47825867 -0.0029767614 0.065783918
0.47857696 -0.001942765 0.065800548
0.47889522 -0.00090876856 0.065817177
0.48008645 -0.00025454536 0.066171676
0.48040438 0.00077841099 0.066188291
0.48159477 0.001429509 0.066542782
0.48278445 0.0020785509 0.066897221
0.48310176 0.0031094414 0.066913798
0.48429048 0.0037553769 0.067268178
0.48547858 0.0043992545 0.067622535
0.48579526 0.0054280791 0.067639083
0.48698243 0.0060688336 0.067993402
0.48816895 0.0067075389 0.06834767
0.48848498 0.0077342908 0.068364181
0.48880103 0.0087610492 0.068380699
0.48911706 0.0097878017 0.068397209
0.49030197 0.010421328 0.068751395
0.49061769 0.011447054 0.06876789
0.49180165 0.012077483 0.069122039
0.49211705 0.013102176 0.069138519
0.42606241 -0.1220298 0.057298776
0.42729697 -0.12123385 0.057656609
0.43490762 -0.12222949 0.060401019
0.43613878 -0.12144494 0.060758695
0.44010016 -0.12143557 0.062139042
0.44041908 -0.1203995 0.062155701
0.44164771 -0.11962324 0.062513255
0.44469437 -0.11937065 0.063552476
0.44773909 -0.11912425 0.064591579
0.45078197 -0.11888407 0.065630607
0.45109767 -0.11785835 0.065647103
0.45232147 -0.11709757 0.066004388
0.45263687 -0.11607288 0.066020861
0.45295227 -0.11504819 0.066037342
0.45326769 -0.11402351 0.066053823
0.45358309 -0.11299881 0.066070303
0.45299199 -0.11170401 0.065746084
0.45330772 -0.11067829 0.065762579
0.4527176 -0.10938039 0.065438397
0.45212811 -0.10808042 0.06511426
0.45153919 -0.10677836 0.06479013
0.45095098 -0.10547425 0.064466059
0.4503634 -0.10416807 0.064142019
0.4506807 -0.10313718 0.064158604
0.45009407 -0.1018279 0.063834608
0.44950804 -0.10051654 0.063510627
0.44982597 -0.099483579 0.063527241
0.45014393 -0.098450616 0.063543856
0.44955927 -0.097135156 0.063219987
0.44987753 -0.096101157 0.063236617
0.45019579 -0.095067166 0.063253246
0.45051408 -0.094033167 0.063269876
0.45173368 -0.093285814 0.063626915
0.45205161 -0.092252858 0.06364353
0.45236957 -0.091219895 0.063660137
0.4526875 -0.090186939 0.063676752
0.45390564 -0.089444786 0.064033754
0.45512307 -0.08870469 0.064390711
0.45633987 -0.087966658 0.064747624
0.45665684 -0.086936802 0.064764187
0.45787269 -0.086201876 0.065121055
0.45908794 -0.08546903 0.065477908
0.4603025 -0.08473824 0.065834701
0.46151644 -0.084009513 0.06619148
0.46272972 -0.083282858 0.066548206
0.46394238 -0.082558267 0.06690491
0.46515444 -0.081835769 0.067261592
0.46636584 -0.081115313 0.067618236
0.46668029 -0.080093727 0.067634664
0.46789071 -0.079376377 0.067991249
0.46910051 -0.078661092 0.068347789
0.47030964 -0.077947877 0.068704315
0.47151822 -0.077236749 0.069060817
0.47183141 -0.076219298 0.069077179
0.47303897 -0.075511254 0.069433615
0.47335181 -0.074494839 0.069449961
0.47455844 -0.073789895 0.069806345
0.47576439 -0.073087022 0.070162699
0.4760766 -0.07207267 0.070179015
0.47728169 -0.071372919 0.070535325
0.4775936 -0.070359603 0.070551626
0.47790548 -0.069346294 0.070567921
0.47821739 -0.068332978 0.070584215
0.47942081 -0.067638367 0.070940442
0.47973239 -0.066626087 0.070956722
0.48004398 -0.065613806 0.070973001
0.48035556 -0.064601526 0.070989281
0.4815574 -0.063912101 0.071345419
0.48186865 -0.062900849 0.071361683
0.48217991 -0.061889604 0.071377948
0.4824912 -0.060878363 0.071394213
0.48280245 -0.059867114 0.07141047
0.48311371 -0.058855865 0.071426734
0.48431334 -0.058173675 0.071782745
0.48551229 -0.057493545 0.072138734
0.48671067 -0.056815505 0.072494708
0.48790836 -0.05613951 0.07285063
0.48910543 -0.055465594 0.073206507
0.49030185 -0.054793738 0.073562369
0.49149764 -0.054123946 0.073918194
0.49180669 -0.053119943 0.073934339
0.49300158 -0.052453276 0.074290119
0.49419576 -0.051788662 0.074645855
0.49450415 -0.050786719 0.07466197
0.49569741 -0.050125204 0.075017661
0.49600548 -0.049124297 0.075033754
0.49631357 -0.048123389 0.075049855
0.49662164 -0.047122482 0.075065948
0.49692973 -0.046121575 0.075082049
0.4972378 -0.045120668 0.075098142
0.4975459 -0.044119768 0.075114243
0.49785396 -0.043118861 0.075130336
0.49727976 -0.041769255 0.074806988
0.49670619 -0.040417582 0.074483685
0.49613318 -0.039063822 0.074160397
0.49467954 -0.037356213 0.07349775
0.4941082 -0.035997305 0.073174566
0.49265674 -0.034282446 0.072512031
0.49120659 -0.032563459 0.071849585
0.49063778 -0.031196283 0.07152652
0.48831007 -0.029113078 0.070524856
0.48686373 -0.027381685 0.069862612
0.48541862 -0.025646148 0.069200404
0.48397484 -0.023906484 0.068538286
0.48341081 -0.022523792 0.068215474
0.48284736 -0.021139011 0.067892686
0.48228461 -0.01975218 0.067569934
0.4817225 -0.018363291 0.067247227
0.481161 -0.016972324 0.066924542
0.48060018 -0.015579295 0.066601902
0.48091653 -0.014551504 0.066618435
0.48123288 -0.013523712 0.06663496
0.48067325 -0.012126528 0.066312365
0.48098993 -0.011097703 0.066328913
0.48043129 -0.0096974382 0.066006385
0.47987333 -0.0082950927 0.065683894
0.48019063 -0.007264202 0.065700471
0.48050794 -0.0062333113 0.065717049
0.48082525 -0.005202414 0.065733626
0.48114258 -0.0041715233 0.065750211
0.48145989 -0.0031406328 0.065766789
0.48177719 -0.0021097423 0.065783367
0.48296726 -0.0014585698 0.066138886
0.48328424 -0.00042871217 0.066155449
0.48360124 0.00060114544 0.066172011
0.48304644 0.0020138272 0.065849684
0.48336375 0.0030447177 0.065866262
0.4845522 0.0036907184 0.066221699
0.48574004 0.0043346602 0.066577099
0.48605672 0.0053634853 0.066593647
0.48724365 0.0060043046 0.066949017
0.48842987 0.006643075 0.067304336
0.48874593 0.0076698265 0.067320853
0.4899312 0.0083054844 0.067676127
0.49024692 0.0093312105 0.067692623
0.49143127 0.009963776 0.068047836
0.49174666 0.010988463 0.068064317
0.49293002 0.01161793 0.068419494
0.49324512 0.012641583 0.06843596
0.42632937 -0.12209576 0.056231279
0.42756367 -0.12129974 0.056590155
0.43517223 -0.12229486 0.059342977
0.43640316 -0.12151025 0.0597017
0.44127357 -0.12175827 0.061428219
0.44159216 -0.12072325 0.061444864
0.44009194 -0.1191688 0.060777675
0.44586572 -0.11969618 0.062845796
0.45345327 -0.12075954 0.065597504
0.45376804 -0.11973692 0.065613955
0.45317462 -0.11845043 0.065288536
0.45439756 -0.11769168 0.065646842
0.45471233 -0.11666906 0.065663293
0.4550271 -0.11564644 0.065679736
0.45534188 -0.11462381 0.065696187
0.45565662 -0.1136012 0.065712631
0.45597139 -0.11257858 0.065729074
0.4553802 -0.11128486 0.065403774
0.4547897 -0.10998908 0.065078512
0.45419985 -0.10869125 0.064753287
0.4536106 -0.10739134 0.064428091
0.45392665 -0.10636459 0.064444602
0.45333838 -0.10506158 0.064119466
0.45365474 -0.10403378 0.064135998
0.45306736 -0.10272765 0.063810885
0.45248067 -0.10141947 0.063485824
0.45279768 -0.10038961 0.063502386
0.45311466 -0.099359758 0.063518949
0.45343167 -0.098329902 0.063535511
0.45374864 -0.097300045 0.063552074
0.45406565 -0.096270181 0.063568637
0.45438263 -0.095240325 0.063585199
0.45469964 -0.094210468 0.063601762
0.45501661 -0.093180612 0.063618325
0.45533362 -0.092150748 0.063634887
0.45655078 -0.091410585 0.063992888
0.45776737 -0.090672508 0.064350881
0.45898324 -0.08993648 0.064708807
0.4592993 -0.08890973 0.064725317
0.46051422 -0.088176802 0.065083206
0.46172854 -0.087445945 0.065441057
0.46204394 -0.086421251 0.065457538
0.46325728 -0.085693501 0.065815344
0.46447006 -0.084967829 0.066173121
0.46568212 -0.084244214 0.066530861
0.46689355 -0.083522663 0.066888571
0.46810436 -0.082803175 0.067246228
0.46931452 -0.082085766 0.067603871
0.46962801 -0.081067279 0.067620248
0.4708373 -0.080352984 0.067977846
0.47204587 -0.079640739 0.068335399
0.47325379 -0.078930557 0.068692923
0.47446108 -0.078222446 0.069050409
0.47477332 -0.077208102 0.069066718
0.47597972 -0.076503113 0.069424175
0.4762916 -0.075489797 0.069440469
0.47749701 -0.074787892 0.069797859
0.47870174 -0.074088052 0.070155211
0.47901303 -0.073076807 0.070171475
0.47932428 -0.072065562 0.070187733
0.47963554 -0.07105431 0.070203997
0.47994682 -0.070043065 0.070220262
0.48025808 -0.06903182 0.070236526
0.4814606 -0.068339221 0.070593752
0.48177156 -0.067329012 0.070610002
0.48208249 -0.066318803 0.070626251
0.48239344 -0.065308586 0.070642494
0.48359436 -0.064621158 0.07099966
0.48390499 -0.063611977 0.071015887
0.48421562 -0.062602796 0.071032114
0.48452625 -0.061593618 0.071048349
0.48483688 -0.060584441 0.071064577
0.48514751 -0.05957526 0.071080804
0.48634627 -0.058895092 0.071437858
0.48754436 -0.058216963 0.07179486
0.48874179 -0.057540912 0.072151832
0.48993859 -0.056866925 0.072508775
0.49113473 -0.056195002 0.07286568
0.49144378 -0.055190992 0.072881825
0.49263903 -0.054522198 0.073238686
0.4938336 -0.053855445 0.073595516
0.494142 -0.052853506 0.073611625
0.49533561 -0.052189857 0.073968396
0.49564371 -0.051188949 0.073984496
0.49683636 -0.050528403 0.074341208
0.49714413 -0.049528532 0.074357294
0.49745187 -0.04852866 0.074373372
0.49775964 -0.047528788 0.07438945
0.49806741 -0.046528917 0.074405529
0.49837518 -0.045529041 0.074421614
0.49868295 -0.044529174 0.074437693
0.49899071 -0.043529298 0.074453771
0.49841642 -0.042180791 0.074129365
0.49784279 -0.040830221 0.073804989
0.49726981 -0.039477579 0.073480636
0.4966974 -0.038122851 0.07315632
0.49612567 -0.036766075 0.07283204
0.49467415 -0.035053425 0.072167389
0.494104 -0.033691477 0.071843192
0.49265465 -0.031971574 0.071178637
0.49120662 -0.030247562 0.070514172
0.4897598 -0.028519379 0.069849752
0.48831433 -0.026787082 0.069185413
0.48774865 -0.02541066 0.068861455
0.48718357 -0.024032155 0.068537511
0.48661914 -0.022651602 0.068213612
0.48693296 -0.021632079 0.068230011
0.48636952 -0.020248413 0.067906171
0.4858067 -0.018862687 0.067582354
0.48524454 -0.017474897 0.067258574
0.48468295 -0.016085008 0.066934824
0.48412204 -0.014693079 0.066611104
0.48356178 -0.013299076 0.066287421
0.48387748 -0.012273356 0.066303916
0.48331818 -0.010876248 0.065980285
0.48013532 -0.0083598159 0.064636357
0.48045263 -0.0073289257 0.064652935
0.48076993 -0.0062980354 0.064669512
0.48108724 -0.0052671377 0.064686097
0.48140454 -0.0042362469 0.064702675
0.48172188 -0.0032053564 0.064719252
0.48203918 -0.0021744659 0.06473583
0.48322898 -0.0015232288 0.0650924
0.48354596 -0.00049337128 0.065108962
0.4847348 0.00015476753 0.06546548
0.48592308 0.00080082368 0.06582199
0.48623943 0.0018286156 0.065838523
0.48742667 0.0024715823 0.066194952
0.48774272 0.0034983412 0.066211469
0.488929 0.0041382024 0.066567853
0.48924473 0.0051639215 0.066584349
0.49043006 0.005800691 0.066940688
0.49161476 0.0064353882 0.067297004
0.49192986 0.0074590412 0.06731347
0.49224493 0.0084826946 0.067329928
0.49342841 0.0091132345 0.067686178
0.49374318 0.010135855 0.067702621
0.49405795 0.011158475 0.067719072
0.49437273 0.012181095 0.067735516
0.42594963 -0.12426279 0.05512999
0.42627299 -0.12321225 0.055146884
0.42659637 -0.12216172 0.055163778
0.4278304 -0.12136563 0.055523712
0.42906392 -0.12057165 0.055883646
0.4366675 -0.12157556 0.058644708
0.44153661 -0.12182326 0.060376484
0.44367412 -0.12130545 0.061079103
0.44490126 -0.12053216 0.061438709
0.44612771 -0.1197609 0.061798256
0.45553017 -0.12134717 0.065244257
0.45584428 -0.12032662 0.065260671
0.45525056 -0.11904228 0.064934179
0.45647255 -0.11828551 0.065293498
0.45678669 -0.11726496 0.065309912
0.45710081 -0.11624441 0.065326326
0.45832154 -0.11549177 0.06568557
0.45863536 -0.11447226 0.065701962
0.45894915 -0.11345273 0.06571836
0.45835733 -0.1121622 0.06539198
0.45776615 -0.11086959 0.065065615
0.45717558 -0.10957492 0.064739287
0.45658562 -0.10827816 0.064412981
0.45690069 -0.10725451 0.06442944
0.45631173 -0.10595467 0.064103194
0.45662713 -0.10492998 0.064119674
0.4560391 -0.10362703 0.06379348
0.45545173 -0.10232202 0.063467324
0.45576778 -0.10129526 0.063483834
0.4560838 -0.10026851 0.063500345
0.45639986 -0.099241756 0.063516863
0.45671588 -0.098214999 0.063533373
0.45703194 -0.097188242 0.063549884
0.45734796 -0.096161485 0.063566402
0.45766401 -0.095134728 0.063582912
0.45798004 -0.094107971 0.063599423
0.45829609 -0.093081214 0.063615933
0.45951203 -0.09234409 0.063974939
0.46072733 -0.091609031 0.064333908
0.46194202 -0.090876043 0.064692847
0.46225709 -0.089852385 0.064709313
0.46347088 -0.089122511 0.065068208
0.46468395 -0.088394694 0.065427065
0.4658964 -0.08766894 0.065785885
0.46621054 -0.08664839 0.065802298
0.46742204 -0.085925743 0.066161059
0.46863288 -0.08520516 0.066519804
0.46984315 -0.084486663 0.06687852
0.47105274 -0.083770216 0.067237191
0.4722617 -0.083055839 0.067595832
0.47257423 -0.082040451 0.067612156
0.47378221 -0.081329182 0.067970745
0.47498962 -0.080619991 0.068329304
0.47619635 -0.079912849 0.068687834
0.47740242 -0.079207778 0.069046319
0.4777137 -0.078196526 0.069062583
0.47891882 -0.077494562 0.069421016
0.47922978 -0.076484345 0.069437265
0.47954071 -0.075474136 0.069453515
0.48074457 -0.074776299 0.069811881
0.4810552 -0.073767118 0.069828108
0.48136583 -0.072757944 0.069844343
0.48167646 -0.071748763 0.06986057
0.48198709 -0.070739582 0.069876797
0.48229772 -0.069730408 0.069893032
0.48349938 -0.069039829 0.070251301
0.48380971 -0.068031684 0.070267513
0.48412001 -0.067023538 0.070283726
0.48443031 -0.0660154 0.070299946
0.48563036 -0.065329961 0.070658118
0.48594034 -0.064322859 0.070674315
0.48625034 -0.063315749 0.070690513
0.48656031 -0.062308636 0.07070671
0.48687032 -0.061301526 0.070722908
0.48718032 -0.060294416 0.070739098
0.48837811 -0.059616227 0.07109715
0.4895753 -0.058940109 0.071455181
0.49077183 -0.058266055 0.071813166
0.49108085 -0.057262044 0.071829319
0.49227649 -0.056591116 0.07218726
0.49347144 -0.055922236 0.072545163
0.49377984 -0.054920293 0.072561279
0.49497381 -0.05425451 0.072919138
0.4952819 -0.053253606 0.072935238
0.49647495 -0.052590925 0.073293038
0.49678269 -0.051591054 0.073309116
0.49709046 -0.050591182 0.073325202
0.49828228 -0.049932655 0.073682956
0.49858972 -0.048933815 0.07369902
0.49889717 -0.047934979 0.073715083
0.49920461 -0.046936139 0.073731147
0.49951205 -0.0459373 0.07374721
0.49981952 -0.04493846 0.073763274
0.49924481 -0.043592073 0.073437758
0.49955258 -0.042592201 0.073453844
0.49897888 -0.041242726 0.073128402
0.49840581 -0.039891187 0.072802983
0.4978334 -0.038537577 0.072477601
0.49726158 -0.03718188 0.072152257
0.49669042 -0.035824139 0.071826935
0.4969998 -0.034819093 0.071843103
0.49642959 -0.033458248 0.071517833
0.49498084 -0.03173849 0.070851199
0.49353328 -0.030014576 0.070184611
0.49296564 -0.028645458 0.06985949
0.49152038 -0.026914323 0.069193028
0.49095425 -0.025540022 0.068867967
0.48687825 -0.022715611 0.067177631
0.48719206 -0.021696089 0.06719403
0.48662889 -0.020312488 0.066869147
0.48606634 -0.018926827 0.066544279
0.48550442 -0.017539101 0.066219442
0.48494309 -0.016149277 0.065894634
0.48438245 -0.014757412 0.06556987
0.48382244 -0.013363475 0.065245137
0.48413816 -0.012337756 0.065261632
0.48357913 -0.010940712 0.064936958
0.48302069 -0.0095416093 0.064612314
0.48333707 -0.0085138176 0.064628839
0.48365343 -0.0074860258 0.064645372
0.48396978 -0.006458241 0.064661898
0.48428613 -0.0054304493 0.064678431
0.48460248 -0.0044026575 0.064694956
0.48491883 -0.0033748657 0.064711489
0.48610744 -0.0027266622 0.065069057
0.48642346 -0.0016999033 0.065085568
0.48761109 -0.0010548128 0.065443091
0.48792681 -2.9086812e-05 0.065459587
0.48911348 0.00061291252 0.065817058
0.49029949 0.0012528461 0.066174507
0.49061459 0.0022764991 0.066190965
0.49179971 0.002913302 0.06654837
0.49211448 0.0039359294 0.066564813
0.49329862 0.0045696581 0.066922158
0.49361306 0.0055912384 0.066938587
0.49392751 0.0066128257 0.066955015
0.49511036 0.007242423 0.067312293
0.49542448 0.0082629705 0.067328706
0.4957386 0.0092835249 0.06734512
0.49605274 0.010304079 0.067361534
0.49810112 0.010532361 0.068059489
0.49841461 0.011550849 0.068075873
0.42621663 -0.12432875 0.054062489
0.42653999 -0.12327821 0.054079387
0.42686334 -0.12222767 0.054096282
0.42900765 -0.12168595 0.054801386
0.42933035 -0.12063748 0.05481825
0.43056297 -0.1198455 0.055179197
0.44179964 -0.12188824 0.059324745
0.44393665 -0.1213703 0.060029462
0.44516352 -0.12059695 0.060390119
0.4463897 -0.11982562 0.060750723
0.45760602 -0.12193454 0.064895205
0.45791951 -0.12091605 0.064911582
0.4573254 -0.11963385 0.064584009
0.45854649 -0.11887909 0.064944342
0.45885998 -0.1178606 0.064960718
0.45917347 -0.11684211 0.064977102
0.46039334 -0.1160915 0.06533739
0.46070653 -0.11507405 0.065353759
0.46101969 -0.1140566 0.06537012
0.46042743 -0.11276818 0.065042622
0.46074092 -0.11174969 0.065058999
0.46014968 -0.11045819 0.064731576
0.45955908 -0.10916462 0.06440419
0.4598732 -0.10814406 0.064420603
0.45928356 -0.10684739 0.064093247
0.459598 -0.1058258 0.064109676
0.45900929 -0.10452603 0.063782386
0.45842117 -0.10322416 0.06345512
0.45873624 -0.10220051 0.063471578
0.45905134 -0.10117685 0.063488044
0.45936641 -0.1001532 0.063504502
0.45968151 -0.099129543 0.063520968
0.45999658 -0.098105893 0.063537434
0.46031168 -0.097082235 0.063553892
0.46062675 -0.096058585 0.063570358
0.46094182 -0.095034927 0.063586816
0.46125692 -0.09401127 0.063603282
0.46247169 -0.093277201 0.063963294
0.46368581 -0.092545182 0.064323261
0.46489924 -0.091815226 0.064683206
0.46611208 -0.091087341 0.065043107
0.4664259 -0.090067826 0.065059498
0.46763775 -0.089343041 0.065419354
0.46884903 -0.088620342 0.065779194
0.46916223 -0.087602891 0.065795556
0.4703725 -0.086883277 0.066155322
0.47158214 -0.086165734 0.066515058
0.47279114 -0.085450254 0.066874772
0.47399956 -0.084736869 0.067234449
0.47520727 -0.084025525 0.067594089
0.47551885 -0.083013244 0.067610368
0.47672564 -0.082305007 0.067969963
0.47793177 -0.081598833 0.068329506
0.47913727 -0.080894731 0.068689026
0.48034221 -0.080192715 0.069048539
0.48065251 -0.079184569 0.069064751
0.48096281 -0.078176424 0.069080964
0.48127311 -0.077168278 0.069097176
0.48247641 -0.076471411 0.069456585
0.48278639 -0.075464301 0.069472782
0.48309639 -0.074457191 0.06948898
0.48340636 -0.073450081 0.069505177
0.48371637 -0.072442971 0.069521368
0.48491773 -0.07175231 0.069880672
0.48522741 -0.070746236 0.069896847
0.48553708 -0.069740161 0.06991303
0.48584676 -0.06873408 0.069929212
0.48615643 -0.067728005 0.069945388
0.48735586 -0.06704355 0.070304602
0.48766524 -0.066038504 0.070320763
0.48797458 -0.065033466 0.07033693
0.48828393 -0.06402842 0.070353091
0.48859328 -0.063023381 0.070369259
0.48890263 -0.062018339 0.070385419
0.48921201 -0.061013293 0.070401579
0.4904089 -0.060337108 0.070760652
0.49160522 -0.059663009 0.071119703
0.49191394 -0.058660038 0.071135834
0.49310926 -0.057989024 0.071494825
0.49341768 -0.056987081 0.071510941
0.49461204 -0.056319162 0.07186988
0.4949201 -0.055318259 0.071885973
0.49611351 -0.054653451 0.07224486
0.49642128 -0.053653575 0.072260939
0.49761379 -0.052991882 0.072619803
0.49792123 -0.051993042 0.072635867
0.49822867 -0.050994202 0.07265193
0.49941987 -0.050336633 0.073010698
0.49972698 -0.049338825 0.073026747
0.50003409 -0.048341025 0.073042795
0.50034124 -0.047343221 0.073058844
0.50064838 -0.046345413 0.073074892
0.50095546 -0.045347612 0.073090933
0.50038081 -0.044002336 0.072764374
0.50068825 -0.043003492 0.072780438
0.50011444 -0.041655108 0.072453901
0.49866048 -0.039954092 0.071784876
0.4980883 -0.038600545 0.071458437
0.49751675 -0.037244916 0.071132034
0.49694586 -0.035887238 0.070805669
0.49725521 -0.034882192 0.070821837
0.4966853 -0.033521414 0.070495516
0.49523705 -0.031801786 0.069826782
0.49379 -0.030078003 0.069158085
0.49322262 -0.028708948 0.068831913
0.4917779 -0.026977943 0.06816335
0.49121204 -0.025603706 0.067837246
0.4906469 -0.024227414 0.067511179
0.49008238 -0.022849049 0.067185149
0.48951849 -0.021468619 0.066859156
0.4889552 -0.020086112 0.066533171
0.48839259 -0.01870155 0.066207245
0.48783064 -0.017314905 0.065881357
0.48726931 -0.015926212 0.065555483
0.48670861 -0.014535445 0.065229654
0.48702335 -0.013512825 0.065246098
0.48646358 -0.012118927 0.064920314
0.48590446 -0.010722996 0.064594552
0.48621988 -0.0096983025 0.064611033
0.48653528 -0.0086736167 0.064627513
0.48685068 -0.0076489309 0.064643994
0.48716608 -0.0066242376 0.064660475
0.48748147 -0.0055995518 0.064676955
0.48779687 -0.004574866 0.064693436
0.48898423 -0.0039296956 0.06505201
0.48929933 -0.0029060424 0.065068476
0.49048579 -0.0022640033 0.065427005
0.49080056 -0.0012413831 0.065443456
0.49198601 -0.0006024178 0.065801926
0.49230045 0.00041916949 0.065818354
0.49348494 0.0010550295 0.066176787
0.49379906 0.0020755837 0.066193201
0.4949826 0.002708337 0.066551566
0.49529642 0.0037278584 0.066567965
0.49561024 0.0047473726 0.066584356
0.4967925 0.0053759948 0.066942662
0.49710599 0.0063944831 0.066959046
0.49741948 0.0074129645 0.066975422
0.49773297 0.0084314533 0.066991806
0.49804646 0.0094499346 0.067008182
0.50096059 0.0092802001 0.068050064
0.50127316 0.010295582 0.068066388
0.4264836 -0.12439471 0.052994993
0.42680696 -0.12334417 0.053011887
0.42713031 -0.12229363 0.053028781
0.43018436 -0.12200614 0.054081157
0.43050677 -0.12095871 0.054098003
0.43173867 -0.12016767 0.054459952
0.44206271 -0.12195323 0.058273006
0.44238129 -0.1209182 0.058289655
0.44633439 -0.12092125 0.059686609
0.4466517 -0.11989035 0.059703186
0.4587729 -0.12226008 0.064205334
0.45908606 -0.12124263 0.064221695
0.45849183 -0.11996152 0.063893035
0.46061942 -0.11947241 0.06459941
0.46093228 -0.118456 0.064615756
0.46124515 -0.11743958 0.064632103
0.46246406 -0.11669095 0.064993389
0.4627766 -0.11567557 0.065009721
0.46308914 -0.11466019 0.065026052
0.46340168 -0.11364481 0.065042384
0.46280941 -0.1123575 0.064713836
0.46312228 -0.11134109 0.064730182
0.46253097 -0.11005068 0.064401694
0.46284413 -0.10903323 0.064418055
0.46225375 -0.1077397 0.064089589
0.46256724 -0.10672121 0.064105973
0.46197784 -0.10542461 0.063777573
0.46229166 -0.10440509 0.063793972
0.46260545 -0.10338558 0.063810363
0.46291927 -0.10236605 0.063826762
0.46323308 -0.10134654 0.063843161
0.4635469 -0.10032701 0.063859552
0.46386069 -0.0993075 0.063875951
0.46417451 -0.098287977 0.06389235
0.46448833 -0.097268462 0.063908741
0.46480212 -0.096248947 0.06392514
0.46511593 -0.095229425 0.063941538
0.46542975 -0.094209909 0.06395793
0.46664262 -0.093480922 0.064318903
0.46785492 -0.092754021 0.064679861
0.46906653 -0.092029177 0.06504076
0.47027749 -0.091306396 0.065401636
0.47059003 -0.090291016 0.065417968
0.47180003 -0.089571334 0.065778792
0.47300947 -0.088853739 0.066139586
0.47332138 -0.08784043 0.066155881
0.4745298 -0.08712592 0.066516623
0.47573757 -0.08641348 0.066877328
0.47694474 -0.085703105 0.067237996
0.47725567 -0.084692895 0.067254245
0.47846186 -0.083985627 0.067614868
0.47966748 -0.083280437 0.067975476
0.48087239 -0.082577303 0.068336032
0.48207667 -0.081876241 0.068696544
0.48238635 -0.080870166 0.068712726
0.48269603 -0.079864085 0.068728909
0.4830057 -0.07885801 0.068745084
0.48420841 -0.078162111 0.069105528
0.48451775 -0.077157073 0.069121689
0.4848271 -0.076152027 0.069137856
0.48513645 -0.075146988 0.069154017
0.48544583 -0.074141949 0.069170184
0.48664659 -0.073452257 0.069530524
0.48695564 -0.072448246 0.06954667
0.48726466 -0.071444236 0.069562815
0.48757371 -0.070440225 0.069578968
0.48788273 -0.069436215 0.069595113
0.48819178 -0.068432212 0.069611259
0.48939037 -0.067749776 0.069971494
0.4896991 -0.066746801 0.069987625
0.49000782 -0.065743826 0.070003755
0.49031654 -0.064740852 0.070019886
0.49062526 -0.063737877 0.070036016
0.49093398 -0.062734902 0.070052147
0.49124271 -0.061731927 0.070068277
0.4924387 -0.061057746 0.070428364
0.49363407 -0.06038563 0.070788428
0.49394214 -0.059384722 0.070804521
0.49425024 -0.058383819 0.070820622
0.4945583 -0.057382911 0.070836715
0.4957521 -0.056715969 0.07119669
0.49694529 -0.056051109 0.071556635
0.49725273 -0.055052269 0.071572699
0.4975602 -0.05405343 0.071588762
0.49875206 -0.05339269 0.07194864
0.4990592 -0.052394886 0.071964689
0.49936631 -0.051397085 0.071980737
0.49967346 -0.050399277 0.071996786
0.49998057 -0.049401473 0.072012827
0.50028771 -0.048403673 0.072028875
0.50059479 -0.047405865 0.072044924
0.50090194 -0.046408061 0.072060972
0.50120908 -0.045410257 0.072077021
0.50063461 -0.044065047 0.071749404
0.50094211 -0.043066204 0.071765468
0.50036854 -0.041717883 0.071437895
0.49979571 -0.040367499 0.071110368
0.4992235 -0.039015058 0.07078287
0.49865192 -0.037660543 0.070455402
0.49896064 -0.036657564 0.070471533
0.49838996 -0.035299934 0.070144109
0.49781999 -0.033940252 0.069816723
0.49725065 -0.032578502 0.069489375
0.49580356 -0.030856937 0.068818577
0.49523574 -0.029489996 0.068491288
0.49466863 -0.028120998 0.068164058
0.49410215 -0.026749942 0.067836866
0.49353632 -0.025376823 0.067509696
0.49297112 -0.024001621 0.067182563
0.49240649 -0.022624342 0.06685546
0.49184254 -0.021245016 0.066528395
0.49127924 -0.019863619 0.066201359
0.49071661 -0.018480154 0.065874368
0.4901545 -0.017094605 0.065547384
0.48959312 -0.015707001 0.065220453
0.48990694 -0.014687488 0.065236844
0.49022076 -0.013667966 0.065253243
0.48966062 -0.012276223 0.064926386
0.48997477 -0.011255669 0.0649428
0.49028888 -0.010235115 0.064959213
0.49060303 -0.009214567 0.064975627
0.49091715 -0.0081940126 0.06499204
0.49123126 -0.0071734586 0.065008454
0.49154541 -0.0061529041 0.065024868
0.49185953 -0.0051323571 0.065041281
0.49217367 -0.0041118027 0.065057695
0.49335885 -0.0034727803 0.065417208
0.49367267 -0.0024532659 0.065433599
0.49485689 -0.0018173342 0.065793082
0.49517038 -0.00079885288 0.065809458
0.49635372 -0.00016604421 0.066168904
0.49666688 0.00085140427 0.066185266
0.49784923 0.0014811311 0.066544637
0.49816206 0.0024975466 0.066560984
0.49847493 0.0035139623 0.06657733
0.49878779 0.0045303777 0.066593677
0.49910063 0.0055467933 0.066610023
0.49941349 0.006563209 0.06662637
0.49972636 0.0075796247 0.066642717
0.50003922 0.0085960403 0.066659063
0.50208527 0.0088204509 0.067361169
0.50326383 0.009437751 0.067720346
0.50357574 0.010451061 0.067736648
0.5030219 0.011863501 0.067410111
0.50333416 0.012877843 0.067426421
0.4267506 -0.12446067 0.051927492
0.42707396 -0.12341012 0.051944386
0.43832058 -0.12539856 0.056115996
0.43864009 -0.12436043 0.056132689
0.43168253 -0.12127977 0.053379826
0.43291399 -0.12048972 0.053742852
0.43414479 -0.11970176 0.054105837
0.43446624 -0.11865743 0.054122631
0.44659638 -0.12098597 0.058639072
0.44963783 -0.12073655 0.059693988
0.4608469 -0.122847 0.063863635
0.46115944 -0.12183161 0.063879959
0.46056488 -0.12055265 0.063550234
0.46178451 -0.11980085 0.063912623
0.46300349 -0.11905112 0.064274982
0.4633157 -0.11803678 0.064291298
0.46453378 -0.11729016 0.064653605
0.46484569 -0.11627685 0.064669907
0.46606275 -0.11553332 0.065032162
0.46637434 -0.11452104 0.065048441
0.46578139 -0.1132369 0.064718798
0.46609327 -0.1122236 0.064735092
0.46550122 -0.11093634 0.064405486
0.46581346 -0.10992198 0.064421803
0.46612567 -0.10890764 0.064438112
0.46553496 -0.10761626 0.06410858
0.46584749 -0.10660088 0.064124912
0.46616003 -0.1055855 0.064141236
0.46647257 -0.10457011 0.064157568
0.4667851 -0.10355473 0.0641739
0.46709764 -0.10253935 0.064190231
0.46741018 -0.10152397 0.064206555
0.46772271 -0.10050859 0.064222887
0.46803525 -0.099493206 0.064239219
0.46834779 -0.098477826 0.064255551
0.46866032 -0.097462438 0.064271875
0.46897286 -0.096447058 0.064288206
0.4692854 -0.095431678 0.064304538
0.46959794 -0.094416291 0.06432087
0.47080895 -0.093692414 0.064682811
0.4720194 -0.092970617 0.065044723
0.47322914 -0.092250876 0.065406598
0.47354072 -0.091238596 0.065422878
0.47474954 -0.090521954 0.065784708
0.47595769 -0.089807384 0.066146486
0.47626862 -0.088797174 0.066162735
0.47747582 -0.088085696 0.066524476
0.47868246 -0.087376311 0.066886202
0.47899276 -0.086368166 0.066902414
0.48019838 -0.085661866 0.067264065
0.48140335 -0.084957637 0.067625687
0.48260769 -0.084255472 0.067987278
0.48381138 -0.083555371 0.06834884
0.48412043 -0.082551368 0.068364985
0.48442945 -0.081547357 0.068381138
0.4847385 -0.080543347 0.068397284
0.48504755 -0.079539344 0.068413429
0.48624939 -0.078845464 0.068774894
0.48655811 -0.077842489 0.068791024
0.48686683 -0.076839514 0.068807155
0.48717555 -0.075836539 0.068823285
0.48837575 -0.075147815 0.069184653
0.48868415 -0.074145876 0.069200769
0.48899254 -0.073143937 0.069216885
0.48930094 -0.072141998 0.069233
0.48960933 -0.071140058 0.069249108
0.48991773 -0.070138119 0.069265224
0.49022615 -0.06913618 0.06928134
0.49142379 -0.068455726 0.069642588
0.49173188 -0.067454815 0.069658682
0.49203995 -0.066453911 0.069674782
0.49234805 -0.065453 0.069690876
0.49265611 -0.064452097 0.069706976
0.49296421 -0.063451193 0.06972307
0.49327227 -0.062450282 0.06973917
0.49446741 -0.06177811 0.070100263
0.49477515 -0.060778238 0.070116349
0.49419653 -0.059447564 0.069787458
0.4945046 -0.058446661 0.069803558
0.4948127 -0.057445753 0.069819652
0.49600622 -0.056778744 0.070180669
0.49719915 -0.056113821 0.070541672
0.49750659 -0.055114981 0.070557736
0.49781403 -0.054116141 0.070573799
0.49900565 -0.053455338 0.070934735
0.49931276 -0.052457534 0.070950776
0.4996199 -0.05145973 0.070966825
0.50081021 -0.050803062 0.071327679
0.50111705 -0.049806293 0.071343705
0.50142384 -0.048809521 0.071359739
0.50173068 -0.047812752 0.071375765
0.50203747 -0.04681598 0.071391799
0.50234425 -0.045819208 0.071407825
0.50176978 -0.044475097 0.071079157
0.50207692 -0.043477293 0.071095206
0.50238401 -0.042479493 0.071111247
0.50181085 -0.041131239 0.070782632
0.50211829 -0.040132403 0.070798695
0.50154597 -0.038781043 0.070470117
0.5009743 -0.037427627 0.070141591
0.50040334 -0.036072142 0.069813088
0.49983299 -0.034714587 0.069484621
0.4992632 -0.033354957 0.069156185
0.497816 -0.031635594 0.068483241
0.49724787 -0.030270794 0.068154894
0.49668038 -0.028903943 0.067826577
0.49699071 -0.027895797 0.067842789
0.49642411 -0.026525822 0.067514509
0.49585822 -0.025153792 0.067186274
0.49529296 -0.023779694 0.066858083
0.49472833 -0.02240354 0.066529915
0.49416435 -0.021025296 0.066201784
0.49360093 -0.019644985 0.065873675
0.49303821 -0.018262619 0.065545604
0.49247614 -0.016878178 0.065217569
0.492789 -0.015861763 0.065233916
0.49310184 -0.014845348 0.065250263
0.49254104 -0.013456776 0.06492231
0.49285421 -0.012439327 0.064938672
0.49316737 -0.011421879 0.064955033
0.49348056 -0.01040443 0.064971395
0.49379373 -0.0093869744 0.064987756
0.49410692 -0.0083695259 0.065004125
0.49442008 -0.0073520779 0.065020487
0.49473324 -0.0063346294 0.065036848
0.49504644 -0.0053171734 0.06505321
0.49623039 -0.0046811849 0.065413728
0.49654326 -0.0036647692 0.065430075
0.49772626 -0.0030318857 0.065790549
0.4980388 -0.0020165029 0.065806881
0.49835134 -0.0010011203 0.065823212
0.49953309 -0.000372368 0.066183627
0.4998453 0.00064198178 0.066199936
0.50015754 0.0016563316 0.066216253
0.50046974 0.0026706741 0.066232562
0.50078195 0.0036850241 0.066248879
0.50109416 0.0046993736 0.066265188
0.50140637 0.0057137236 0.066281505
0.50171864 0.0067280736 0.066297822
0.50203085 0.0077424161 0.066314131
0.50320947 0.0083608143 0.066674381
0.50352132 0.0093741305 0.066690676
0.50383323 0.01038744 0.06670697
0.50501055 0.011001711 0.067067146
0.5053221 0.012013994 0.067083426
0.41973239 -0.12251768 0.048081491
0.42005828 -0.12145887 0.048098519
0.43858439 -0.12546374 0.055061102
0.43981367 -0.12467985 0.055425074
0.44104218 -0.12389798 0.055788975
0.4413611 -0.12286192 0.055805638
0.43531886 -0.12002462 0.053391829
0.43564001 -0.11898132 0.053408608
0.44685835 -0.12105069 0.057591539
0.44989905 -0.12080108 0.0586496
0.46110493 -0.12291075 0.062831856
0.46141747 -0.12189537 0.062848188
0.46263683 -0.1211435 0.063211627
0.46385559 -0.12039373 0.063575044
0.46416751 -0.11938041 0.063591346
0.46538526 -0.11863372 0.063954704
0.46660239 -0.1178891 0.064318024
0.46691364 -0.11687785 0.064334288
0.46812984 -0.11613633 0.064697549
0.46844077 -0.11512612 0.064713798
0.46875173 -0.1141159 0.064730041
0.46815872 -0.11283287 0.064399339
0.46846998 -0.11182162 0.064415604
0.46878123 -0.11081037 0.064431868
0.46909252 -0.10979912 0.064448133
0.46940377 -0.10878788 0.064464398
0.46971503 -0.10777663 0.064480655
0.46912426 -0.10648636 0.064150058
0.46943584 -0.10547408 0.064166337
0.46974742 -0.1044618 0.064182617
0.47005901 -0.10344952 0.064198896
0.47127137 -0.1027204 0.064561978
0.47158262 -0.10170916 0.064578235
0.47189388 -0.10069791 0.0645945
0.47220513 -0.09968666 0.064610764
0.47251642 -0.098675415 0.064627029
0.47282767 -0.09766417 0.064643294
0.47313893 -0.096652925 0.064659558
0.47345021 -0.09564168 0.064675815
0.47465968 -0.094921872 0.065038726
0.47497064 -0.093911655 0.065054975
0.47617915 -0.093194954 0.065417849
0.47648978 -0.092185773 0.065434083
0.47769743 -0.091472186 0.065796919
0.47890437 -0.090760648 0.066159718
0.47921437 -0.089753538 0.066175915
0.48042035 -0.089045107 0.066538647
0.48073003 -0.088039026 0.066554829
0.48193505 -0.087333702 0.066917524
0.48313946 -0.086630434 0.067280181
0.48434326 -0.085929252 0.067642815
0.48554638 -0.085230127 0.068005405
0.48585477 -0.084228188 0.068021521
0.48705694 -0.083532162 0.068384066
0.48736504 -0.082531251 0.068400159
0.4876731 -0.081530347 0.06841626
0.4879812 -0.080529436 0.068432353
0.48828927 -0.079528533 0.068448454
0.48859736 -0.078527629 0.068464547
0.48890543 -0.077526718 0.068480648
0.48921353 -0.076525815 0.068496741
0.49041283 -0.075839095 0.068859123
0.49072057 -0.074839219 0.068875201
0.49102834 -0.073839352 0.068891287
0.49133611 -0.072839476 0.068907365
0.49164388 -0.071839601 0.068923444
0.49195164 -0.07083974 0.068939522
0.49048078 -0.069199085 0.068263225
0.49167815 -0.068518564 0.068625517
0.49198624 -0.067517661 0.068641618
0.49229431 -0.06651675 0.068657711
0.49260241 -0.065515846 0.068673812
0.49291047 -0.064514935 0.068689905
0.49321857 -0.063514031 0.068706006
0.49352664 -0.062513128 0.068722099
0.4947215 -0.061840884 0.069084249
0.49502927 -0.060841013 0.069100328
0.49622321 -0.060171884 0.069462456
0.49653065 -0.059173044 0.069478519
0.49683809 -0.058174208 0.069494583
0.49714553 -0.057175368 0.069510646
0.49833784 -0.056511398 0.06987267
0.49864498 -0.055513591 0.069888718
0.49895209 -0.05451579 0.069904767
0.50014311 -0.053855956 0.070266724
0.50044996 -0.052859183 0.07028275
0.50075674 -0.051862411 0.070298783
0.50194651 -0.051206712 0.070660673
0.502253 -0.050210975 0.070676692
0.50255948 -0.049215239 0.070692703
0.50286597 -0.048219502 0.070708722
0.50317246 -0.047223762 0.070724733
0.50347894 -0.046228033 0.070740744
0.50290442 -0.044885021 0.070410997
0.5032112 -0.043888252 0.070427023
0.50351804 -0.042891476 0.070443057
0.50382483 -0.041894708 0.07045909
0.50325185 -0.040546529 0.070129424
0.50267953 -0.039196275 0.069799796
0.50298697 -0.038197439 0.069815859
0.5024156 -0.036844071 0.06948626
0.50184482 -0.03548865 0.069156721
0.50127476 -0.034131169 0.068827204
0.49982738 -0.032413978 0.068152115
0.49925891 -0.03105133 0.06782268
0.49869102 -0.029686602 0.067493275
0.4990007 -0.028680529 0.067509457
0.4984338 -0.027312694 0.067180112
0.49786752 -0.025942802 0.066850796
0.49730185 -0.024570826 0.066521496
0.49673682 -0.023196794 0.06619224
0.49704778 -0.022186577 0.066208489
0.49648374 -0.020809446 0.0658793
0.49592033 -0.01943025 0.065550134
0.49535757 -0.018048981 0.065220997
0.49566945 -0.017035663 0.065237291
0.49598137 -0.016022347 0.065253593
0.4954198 -0.014636929 0.064924516
