# .PCD v0.7 - Point Cloud Data file format
VERSION 0.7
FIELDS x y z
SIZE 4 4 4
TYPE F F F
COUNT 1 1 1
WIDTH 1359
HEIGHT 1
VIEWPOINT 0 0 0 1 0 0 0
POINTS 1359
DATA ascii
0.53358096 -0.012285156 0.06696175
0.53316271 -0.012822129 0.066953205
0.53208756 -0.012663574 0.067273259
0.53101361 -0.012503287 0.067593358
0.53059673 -0.013038556 0.067584835
0.5295248 -0.012875748 0.067904957
0.52845424 -0.012711231 0.068225108
0.52803868 -0.013244801 0.068216614
0.52762312 -0.013778372 0.068208121
0.52720755 -0.014311938 0.068199627
0.52679193 -0.014845508 0.068191133
0.52637637 -0.015379079 0.06818264
0.52531046 -0.015208606 0.068502881
0.52489555 -0.015741324 0.068494402
0.52448064 -0.016274044 0.068485923
0.52406573 -0.016806763 0.068477437
0.52365083 -0.017339483 0.068468958
0.52323592 -0.017872196 0.068460479
0.52282095 -0.018404914 0.068452001
0.52240604 -0.018937634 0.068443522
0.52134603 -0.018759472 0.068763904
0.52093184 -0.019291339 0.06875544
0.52116132 -0.020535786 0.068418078
0.52267557 -0.023208704 0.067422949
0.52290112 -0.024458256 0.067085505
0.52248353 -0.024994375 0.067076974
0.52334809 -0.026962403 0.066410586
0.52421004 -0.028933834 0.065744154
0.52378982 -0.029473361 0.065735564
0.52336961 -0.030012889 0.065726973
0.52358782 -0.0312718 0.065389387
0.52380472 -0.032532383 0.065051787
0.52402025 -0.033794671 0.064714171
0.52423447 -0.035058662 0.064376518
0.52508318 -0.037047148 0.063709788
0.52529407 -0.038315389 0.063372068
0.5255037 -0.039585337 0.063034326
0.52634573 -0.041582327 0.062367462
0.5259189 -0.042130366 0.062358737
0.52675694 -0.04413243 0.061691809
0.5263288 -0.044682167 0.061683059
0.5259006 -0.045231909 0.061674308
0.5261029 -0.046511214 0.061336417
0.5256741 -0.047061801 0.061327655
0.52524525 -0.047612388 0.061318889
0.52481639 -0.048162978 0.061310124
0.5245859 -0.049997978 0.060963385
0.52415639 -0.050549425 0.060954608
0.52435279 -0.051836424 0.060616571
0.52454776 -0.053125091 0.060278531
0.52411693 -0.053678226 0.060269725
0.52368611 -0.054231364 0.060260922
0.52325529 -0.054784514 0.060252115
0.52282447 -0.055337649 0.060243309
0.52239364 -0.055890787 0.060234506
0.52258402 -0.057185411 0.059896369
0.521532 -0.056997076 0.060216896
0.52172107 -0.058293402 0.059878729
0.60184622 0.065003522 0.065327048
0.59839362 0.066724323 0.066628605
0.5934329 0.069585472 0.068585381
0.59452885 0.067915767 0.067921713
0.59411132 0.067379646 0.067913175
0.59444851 0.066274196 0.067577042
0.59478438 0.065167047 0.067240886
0.59436548 0.064629219 0.067232326
0.59394658 0.064091399 0.067223765
0.59352767 0.063553579 0.067215204
0.59386027 0.062442169 0.066878974
0.59344071 0.061903495 0.066870399
0.59302115 0.061364822 0.066861823
0.59335107 0.06025001 0.066525549
0.59293085 0.059710484 0.066516958
0.59251064 0.059170958 0.066508368
0.59134293 0.059210122 0.066827528
0.59167016 0.058091905 0.066491194
0.59124994 0.057552382 0.066482604
0.59082973 0.057012856 0.06647402
0.59040952 0.05647333 0.06646543
0.5899893 0.055933803 0.066456839
0.58956909 0.055394277 0.066448249
0.58914888 0.054854751 0.066439666
0.58872867 0.054315224 0.066431075
0.58830845 0.053775702 0.066422485
0.58788824 0.053236175 0.066413902
0.58746803 0.052696649 0.066405311
0.58704782 0.052157123 0.066396721
0.58736646 0.051027812 0.066060185
0.58694559 0.050487436 0.066051587
0.58652472 0.049947057 0.066042982
0.58684069 0.048814379 0.065706417
0.58641917 0.04827315 0.065697804
0.58599764 0.047731921 0.065689184
0.58631098 0.046595838 0.065352567
0.58588874 0.04605376 0.065343939
0.58620012 0.044915121 0.065007277
0.58577722 0.044372194 0.064998634
0.58535439 0.043829262 0.064989991
0.58493149 0.043286331 0.064981349
0.58450866 0.042743403 0.064972714
0.58408576 0.042200472 0.064964071
0.58366293 0.041657545 0.064955428
0.58324003 0.041114613 0.064946786
0.58354545 0.039968282 0.064609982
0.5823943 0.040028755 0.0649295
0.5826984 0.038880721 0.064592667
0.58227485 0.03833694 0.064584009
0.58112568 0.038399965 0.064903572
0.58070284 0.037857033 0.06489493
0.58027995 0.037314106 0.064886287
0.57985711 0.036771175 0.064877644
0.57943422 0.036228247 0.064869002
0.57828909 0.036296338 0.065188617
0.57786685 0.03575426 0.065179989
0.57672369 0.03582491 0.065499648
0.57486153 0.036510874 0.066147663
0.57372171 0.036585778 0.066467389
0.57000929 0.037972983 0.067763634
0.5674395 0.039288659 0.068740182
0.56559056 0.039991643 0.069388457
0.56374431 0.040697996 0.070036776
0.56261641 0.040788215 0.070356749
0.56148976 0.040880173 0.070676766
0.55965018 0.041595034 0.071325213
0.55852687 0.041691214 0.071645282
0.55740494 0.041789096 0.071965374
0.55628425 0.04188871 0.072285518
0.55445325 0.042614631 0.072934143
0.55333596 0.04271847 0.073254332
0.55221993 0.042824041 0.073574565
0.55110526 0.042931285 0.073894806
0.54999197 0.043040227 0.074215077
0.54958832 0.042521976 0.074206829
0.54918462 0.042003725 0.074198581
0.54878098 0.041485474 0.074190326
0.54837734 0.040967222 0.074182078
0.54797369 0.040448971 0.07417383
0.54757005 0.03993072 0.074165583
0.54716641 0.039412469 0.074157327
0.54605907 0.03952907 0.074477725
0.54565609 0.039011668 0.074469484
0.5452531 0.03849427 0.074461251
0.54485011 0.037976872 0.074453011
0.50569451 0.064624175 0.090804175
0.50532466 0.064149328 0.09079662
0.5056479 0.063026004 0.090460204
0.5052774 0.062550306 0.090452634
0.50421512 0.062724777 0.09077394
0.50384527 0.062249921 0.090766385
0.50347543 0.06177507 0.090758823
0.50310558 0.061300222 0.090751268
0.50273573 0.06082537 0.090743706
0.50236589 0.060350519 0.090736151
0.50199604 0.059875667 0.090728588
0.50162619 0.059400816 0.090721034
0.50125635 0.058925968 0.090713471
0.5008865 0.058451116 0.090705916
0.50051671 0.057976265 0.090698354
0.50014687 0.057501413 0.090690799
0.50046086 0.056366179 0.090354189
0.49940714 0.056551713 0.090675682
0.4990373 0.056076862 0.090668119
0.4979856 0.056264944 0.090989649
0.55100965 0.0028100142 0.064974107
0.55126798 0.0016032994 0.064636365
0.55016655 0.0017275588 0.064956881
0.54906648 0.0018535211 0.06527742
0.54864562 0.0013131421 0.065268822
0.54822475 0.0007727691 0.065260217
0.54780388 0.00023239011 0.065251611
0.54670703 0.00036263917 0.065572247
0.54628682 -0.0001768822 0.065563656
0.54586661 -0.00071640941 0.065555066
0.5454464 -0.0012559367 0.065546483
0.54502618 -0.0017954638 0.065537892
0.54460597 -0.0023349852 0.065529302
0.54418576 -0.0028745125 0.065520719
0.54376554 -0.0034140397 0.065512128
0.54334533 -0.0039535668 0.065503538
0.54292512 -0.004493094 0.065494955
0.54250491 -0.0050326157 0.065486364
0.54099649 -0.00543086 0.065798558
0.54057693 -0.0059695356 0.065789983
0.54015738 -0.0065082107 0.065781407
0.53907192 -0.0063635278 0.066102244
0.53865302 -0.0069013517 0.066093683
0.53823411 -0.0074391752 0.066085123
0.53781521 -0.0079769995 0.066076562
0.53739637 -0.0085148225 0.066068001
0.53697747 -0.0090526463 0.06605944
0.5358966 -0.0089020068 0.066380374
0.53547835 -0.0094389785 0.066371821
0.53506017 -0.0099759512 0.066363275
0.53464192 -0.010512923 0.066354729
0.53422368 -0.011049895 0.066346183
0.53380543 -0.011586867 0.066337638
0.53272921 -0.011430271 0.066658661
0.53231168 -0.011966391 0.06665013
0.53123736 -0.011807213 0.06697122
0.53016448 -0.011646363 0.06729231
0.52974826 -0.01218078 0.067283809
0.52867734 -0.012017376 0.067604944
0.52760774 -0.011852269 0.067926109
0.52719283 -0.012384982 0.06791763
0.52677792 -0.012917701 0.067909144
0.52636302 -0.01345042 0.067900665
0.52594811 -0.01398314 0.067892186
0.52553314 -0.014515859 0.067883708
0.52446818 -0.014344756 0.068204992
0.52405393 -0.014876623 0.06819652
0.52363968 -0.015408491 0.068188056
0.52322543 -0.015940357 0.068179592
0.52281117 -0.016472226 0.068171121
0.52239692 -0.017004093 0.068162657
0.52198267 -0.01753596 0.068154186
0.52156842 -0.018067827 0.068145722
0.52115417 -0.018599695 0.068137258
0.52073991 -0.019131562 0.068128787
0.52032566 -0.019663431 0.068120323
0.52055418 -0.020908471 0.067781948
0.51949716 -0.020727159 0.068103388
0.52100724 -0.023403598 0.067105159
0.52059096 -0.023938021 0.067096651
0.52145499 -0.025905566 0.066428244
0.52167684 -0.027159084 0.066089749
0.52189738 -0.028414307 0.06575124
0.5221166 -0.029671233 0.065412693
0.52169704 -0.030209908 0.065404117
0.52318788 -0.032911025 0.064405493
0.52276635 -0.03345225 0.064396881
0.52361572 -0.035438489 0.063728191
0.52446246 -0.037428167 0.063059427
0.52467245 -0.038697004 0.062720694
0.52551448 -0.040692601 0.062051862
0.52572119 -0.04196573 0.061713036
0.52655864 -0.043967284 0.061044104
0.52613044 -0.044517022 0.061035354
0.5257023 -0.045066763 0.061026603
0.5252741 -0.0456165 0.061017852
0.52547544 -0.046896398 0.060678948
0.52504659 -0.047446989 0.060670182
0.52461773 -0.047997575 0.060661417
0.52418894 -0.048548162 0.060652655
0.52438694 -0.049832322 0.060313676
0.52395743 -0.050383765 0.060304899
0.52415347 -0.051670507 0.059965856
0.52372336 -0.0522228 0.059957065
0.5232932 -0.052775092 0.059948273
0.52286303 -0.05332737 0.059939481
0.52243286 -0.053879663 0.05993069
0.5220027 -0.054431956 0.059921898
0.52219409 -0.055724617 0.059582788
0.52114236 -0.055536538 0.059904318
0.52133244 -0.056830905 0.059565179
0.59407252 0.070814855 0.067972735
0.5928992 0.070846103 0.068292774
0.59248364 0.070312537 0.068284281
0.59357959 0.068644226 0.067618646
0.59316272 0.068108954 0.067610122
0.59350032 0.067004584 0.067272976
0.59383655 0.065898538 0.06693583
0.5934183 0.065361567 0.066927284
0.59300005 0.064824589 0.066918738
0.59258181 0.064287618 0.066910185
0.59216362 0.063750647 0.066901639
0.59249586 0.062639497 0.066564411
0.59207696 0.06210167 0.06655585
0.59165806 0.061563846 0.066547289
0.59123921 0.061026022 0.066538729
0.59082031 0.060488198 0.066530168
0.59040141 0.059950374 0.066521607
0.590729 0.058833268 0.066184282
0.59030944 0.058294594 0.066175707
0.58988988 0.057755921 0.066167131
0.58947033 0.057217244 0.066158555
0.58905083 0.056678571 0.06614998
0.58863127 0.056139894 0.066141404
0.58821172 0.055601221 0.066132829
0.58779216 0.055062544 0.06612426
0.5873726 0.05452387 0.066115685
0.58769357 0.053398252 0.065778226
0.58727336 0.052858729 0.065769635
0.58685315 0.052319203 0.065761045
0.58717149 0.051190145 0.065423511
0.58675063 0.05064977 0.065414913
0.58632976 0.050109394 0.065406308
0.58664542 0.048976969 0.065068737
0.5862239 0.04843574 0.065060124
0.58580238 0.047894511 0.065051511
0.58611536 0.046758685 0.064713888
0.58569318 0.046216603 0.06470526
0.58527094 0.045674525 0.064696625
0.58484876 0.045132447 0.064687997
0.58442658 0.044590369 0.064679369
0.58400434 0.044048291 0.064670742
0.58358216 0.043506209 0.064662114
0.58315992 0.042964131 0.064653486
0.58273774 0.042422052 0.064644851
0.58231556 0.041879974 0.064636223
0.58262128 0.040734783 0.064298458
0.58147115 0.040795814 0.064618967
0.58177555 0.039648924 0.064281173
0.58135265 0.039105996 0.06427253
0.58020449 0.03916958 0.064593084
0.57978231 0.038627502 0.064584449
0.57936013 0.038085423 0.064575821
0.57893789 0.037543342 0.064567193
0.57779306 0.037611183 0.064887814
0.57664955 0.037680726 0.065208465
0.57622868 0.037140347 0.065199867
0.57436645 0.037824951 0.065849863
0.57322687 0.037899595 0.066170596
0.57023311 0.038669057 0.067141496
0.56838018 0.039365537 0.067791663
0.56652987 0.040065452 0.068441905
0.5646823 0.040768743 0.069092184
0.5628373 0.041475434 0.069742516
0.56171036 0.041566286 0.070063531
0.56058472 0.041658804 0.07038454
0.5594604 0.041753024 0.070705585
0.55833745 0.041848946 0.071026653
0.55721581 0.041946571 0.071347751
0.55467135 0.043292999 0.07232783
0.5535537 0.043395728 0.072649002
0.55243731 0.043500196 0.072970234
0.55132228 0.04360633 0.073291466
0.55091798 0.043087229 0.073283195
0.54980493 0.043195914 0.073604472
0.54940128 0.042677663 0.073596224
0.54899764 0.042159412 0.073587969
0.548594 0.041641161 0.073579721
0.54819036 0.04112291 0.073571473
0.54778671 0.040604658 0.073563226
0.54738307 0.040086407 0.07355497
0.54697943 0.039568156 0.073546723
0.54587239 0.039684501 0.073868118
0.5454694 0.039167102 0.073859878
0.54506642 0.038649704 0.073851645
0.54466343 0.038132302 0.073843412
0.50552315 0.064766824 0.090244703
0.5051533 0.064291976 0.090237148
0.5054763 0.063168913 0.089899726
0.5044136 0.063342273 0.090222031
0.50404382 0.062867425 0.090214469
0.50367397 0.06239257 0.090206914
0.50330412 0.061917722 0.090199351
0.50293428 0.061442871 0.090191796
0.50256443 0.060968019 0.090184234
0.50219458 0.060493167 0.090176679
0.50182474 0.06001832 0.090169117
0.50145489 0.059543468 0.090161562
0.50108504 0.059068616 0.090154
0.5007152 0.058593765 0.090146437
0.50034535 0.058118913 0.090138882
0.4999755 0.057644065 0.09013132
0.5002892 0.056509085 0.089793712
0.49923584 0.056694362 0.090116203
0.49886599 0.056219511 0.090108648
0.4978146 0.05640734 0.090431176
0.4974454 0.055933341 0.090423636
0.55013418 0.0036369863 0.064666547
0.54971325 0.0030966073 0.064657949
0.54861349 0.0032223482 0.064979516
0.54751503 0.0033497592 0.065301083
0.54709548 0.0028110836 0.065292507
0.54667592 0.0022724082 0.065283932
0.54625636 0.0017337326 0.065275356
0.54516119 0.001865396 0.065596998
0.54474235 0.0013275723 0.065588437
0.54432344 0.0007897485 0.065579869
0.54390454 0.00025192476 0.065571308
0.54348564 -0.00028589898 0.065562747
0.54306674 -0.00082372274 0.065554187
0.54331946 -0.0020369899 0.065215334
0.54289991 -0.0025756652 0.065206759
0.5418101 -0.0024371939 0.065528505
0.54139119 -0.0029750178 0.065519944
0.54097229 -0.0035128414 0.065511383
0.54122174 -0.0047303615 0.065172464
0.54013455 -0.004588489 0.065494262
0.53971565 -0.0051263128 0.065485701
0.53929675 -0.0056641363 0.06547714
0.53887784 -0.0062019601 0.06546858
0.53779399 -0.0060558291 0.065790445
0.53737575 -0.0065928008 0.065781899
0.53695756 -0.007129773 0.065773346
0.53653932 -0.0076667452 0.0657648
0.53612107 -0.0082037225 0.065756254
0.53504121 -0.0080524813 0.066078201
0.53462362 -0.0085886074 0.06606967
0.53420603 -0.0091247279 0.066061132
0.5337885 -0.0096608484 0.066052601
0.53337091 -0.010196968 0.06604407
0.53295338 -0.010733094 0.066035531
0.53187805 -0.010575875 0.066357598
0.53146118 -0.011111143 0.066349082
0.53038788 -0.010951396 0.066671163
0.52890038 -0.011323516 0.06698478
0.52741551 -0.011692235 0.067298457
0.52634752 -0.011525646 0.067620665
0.52593327 -0.012057513 0.067612201
0.52551901 -0.012589381 0.067603737
0.52510476 -0.013121243 0.067595266
0.52469051 -0.01365311 0.067586802
0.52321297 -0.014012465 0.06790062
0.52279937 -0.014543481 0.067892171
0.52238578 -0.015074497 0.067883715
0.52197218 -0.015605512 0.067875266
0.52155858 -0.016136535 0.06786681
0.52049923 -0.015958913 0.068189181
0.52008635 -0.016489075 0.06818074
0.51967341 -0.017019246 0.068172298
0.51926047 -0.01754941 0.068163864
0.51884758 -0.018079573 0.068155423
0.51971954 -0.020035513 0.067485206
0.51866347 -0.019853644 0.067807645
0.51953214 -0.021813877 0.067137338
0.51911724 -0.02234659 0.067128852
0.51870233 -0.022879308 0.067120373
0.5195657 -0.024846315 0.066449977
0.51978791 -0.026098726 0.066110507
0.52000886 -0.02735287 0.065770976
0.51959127 -0.027888997 0.065762438
0.52108318 -0.030586755 0.064760871
0.52066362 -0.031125432 0.064752296
0.5221495 -0.033830889 0.063750587
0.52299696 -0.03581832 0.063079864
0.5238418 -0.037809186 0.062409069
0.52468389 -0.039803419 0.061738241
0.5248909 -0.041075408 0.06139845
0.5250966 -0.04234913 0.061058614
0.52593207 -0.044351872 0.060387649
0.52550393 -0.044901617 0.060378898
0.52507573 -0.045451351 0.060370147
0.52527678 -0.046730995 0.060030237
0.52484792 -0.047281586 0.060021475
0.52441913 -0.047832172 0.060012709
0.52399027 -0.048382763 0.060003944
0.52356142 -0.04893335 0.059995182
0.52375847 -0.050218109 0.059655186
0.52332896 -0.050769541 0.059646409
0.52289951 -0.051320989 0.059637628
0.52247 -0.051872421 0.059628852
0.52204049 -0.052423857 0.059620075
0.52161098 -0.052975301 0.059611294
0.52118152 -0.053526737 0.059602518
0.52013075 -0.053338066 0.059925064
0.5203225 -0.054629616 0.05958496
0.59160727 0.072669119 0.068331711
0.59194988 0.071571805 0.067993671
0.59153497 0.071039088 0.067985192
0.59263098 0.06937214 0.067317553
0.59221476 0.068837725 0.067309052
0.59255266 0.067734487 0.066970944
0.59213579 0.067199215 0.066962421
0.59247172 0.066093393 0.066624247
0.59205419 0.065557271 0.066615716
0.5916366 0.06502115 0.066607177
0.59121901 0.064485028 0.066598646
0.59080148 0.063948907 0.066590115
0.59038389 0.063412786 0.066581577
0.58996636 0.062876664 0.066573046
0.58954877 0.062340539 0.066564508
0.58987874 0.061227094 0.066226237
0.58946049 0.06069012 0.066217691
0.5897885 0.05957412 0.065879375
0.5893696 0.059036296 0.065870814
0.58895069 0.058498472 0.065862253
0.58853179 0.057960648 0.065853693
0.58811289 0.057422824 0.065845132
0.58769399 0.056885 0.065836571
0.58801734 0.055763043 0.065498158
0.58759779 0.055224366 0.065489583
0.58717823 0.054685693 0.065481007
0.5874989 0.053560331 0.06514255
0.58707869 0.053020805 0.065133959
0.58665848 0.052481279 0.065125376
0.58697653 0.051352482 0.064786837
0.58655566 0.050812103 0.064778231
0.58613479 0.050271727 0.064769633
0.58645016 0.049139559 0.064431056
0.58602864 0.04859833 0.064422444
0.58560705 0.048057102 0.064413831
0.58518553 0.047515873 0.06440521
0.584764 0.046974648 0.064396597
0.58434242 0.046433419 0.064387985
0.5839209 0.04589219 0.064379364
0.58349937 0.045350965 0.064370751
0.58307785 0.044809736 0.064362139
0.58265626 0.044268508 0.064353518
0.58223474 0.043727279 0.064344905
0.58181322 0.043186054 0.064336292
0.58139163 0.042644825 0.064327672
0.58169776 0.04150074 0.063988917
0.58054858 0.041562367 0.064310446
0.58085334 0.040416583 0.063971654
0.5804311 0.039874505 0.063963026
0.57928395 0.039938685 0.0642846
0.57813805 0.040004566 0.064606197
0.57771719 0.039464191 0.064597592
0.57729632 0.038923811 0.064588994
0.57615304 0.038993131 0.064910665
0.57501119 0.039064121 0.065232344
0.57459164 0.038525447 0.065223768
0.57231313 0.038674232 0.065867238
0.57045686 0.039365128 0.06651935
0.56860322 0.040059395 0.067171499
0.56746995 0.040141445 0.067493357
0.56562096 0.040841702 0.068145618
0.56377465 0.041545331 0.068797916
0.56193089 0.042252395 0.069450289
0.5608049 0.042343806 0.069772288
0.55968028 0.042436924 0.070094325
0.55855697 0.042531736 0.070416383
0.55743498 0.042628255 0.070738465
0.55631423 0.042726509 0.071060605
0.55377144 0.044072986 0.07204368
0.55265468 0.044176348 0.072365895
0.5515393 0.044281375 0.07268811
0.55042523 0.044388104 0.073010363
0.55002159 0.043869853 0.073002115
0.54961795 0.043351602 0.07299386
0.5492143 0.042833351 0.072985612
0.54881066 0.042315099 0.072977364
0.54840702 0.041796848 0.072969116
0.54800338 0.041278597 0.072960861
0.54759973 0.040760346 0.072952613
0.54719609 0.040242095 0.072944365
0.5460887 0.040357336 0.073266745
0.54568571 0.039839935 0.073258512
0.54528272 0.039322533 0.073250279
0.54487973 0.038805135 0.073242038
0.50535184 0.064909473 0.089685231
0.50567514 0.06378752 0.089346826
0.50530463 0.063311815 0.089339249
0.5042423 0.063484922 0.089662552
0.50387245 0.063010074 0.089654997
0.50350261 0.062535219 0.089647435
0.50313276 0.062060371 0.08963988
0.50276291 0.061585519 0.089632317
0.50239307 0.061110668 0.089624763
0.50202322 0.06063582 0.0896172
0.50165337 0.060160968 0.089609645
0.50128359 0.059686117 0.089602083
0.50091374 0.059211265 0.089594528
0.50054389 0.058736414 0.089586966
0.50017405 0.058261566 0.089579411
0.5004881 0.057127696 0.089240812
0.50011754 0.056651991 0.089233235
0.49906451 0.056837011 0.089556731
0.49869466 0.05636216 0.089549176
0.49764356 0.056549732 0.08987271
0.4965938 0.05673901 0.090196274
0.54925925 0.0044634757 0.064361013
0.54815978 0.0045889276 0.064683557
0.54706162 0.0047160881 0.065006129
0.54596484 0.0048449407 0.065328732
0.54554659 0.0043079685 0.065320186
0.54512835 0.0037709966 0.065311633
0.5447101 0.0032340244 0.065303087
0.54361665 0.0033671355 0.065625757
0.54319906 0.0028310094 0.065617226
0.54278147 0.0022948892 0.065608688
0.54236394 0.0017587688 0.065600157
0.54194635 0.0012226427 0.065591618
0.54152882 0.0006865224 0.065583088
0.54178256 -0.00052478543 0.065243252
0.54136431 -0.0010617634 0.065234706
0.54027611 -0.00092184427 0.065557487
0.54052782 -0.0021357073 0.065217614
0.54010963 -0.0026726793 0.065209061
0.53969139 -0.0032096514 0.065200515
0.53927314 -0.0037466234 0.065191969
0.53885496 -0.0042835954 0.065183423
0.53843671 -0.0048205731 0.06517487
0.53801847 -0.0053575453 0.065166324
0.53693557 -0.0052108183 0.06548921
0.53651804 -0.0057469383 0.065480679
0.53610045 -0.0062830648 0.065472141
0.53568286 -0.0068191849 0.06546361
0.53526533 -0.0073553054 0.065455072
0.53484774 -0.0078914259 0.065446541
0.53376943 -0.0077387202 0.065769538
0.53335255 -0.008273988 0.065761022
0.53293568 -0.0088092573 0.065752499
0.53251874 -0.0093445312 0.065743983
0.53210187 -0.0098797996 0.065735459
0.53168494 -0.010415074 0.065726936
0.53061134 -0.010256434 0.066050008
0.52912349 -0.010629656 0.066364616
0.52870786 -0.011163226 0.066356122
0.52763826 -0.010999482 0.066679284
0.5265699 -0.010834001 0.067002483
0.52615565 -0.011365868 0.066994019
0.52508932 -0.011197864 0.06731724
0.52467573 -0.01172888 0.067308784
0.52426213 -0.012259896 0.067300335
0.52384853 -0.012790912 0.067291878
0.52343494 -0.013321927 0.067283429
0.5223726 -0.01314882 0.067606732
0.52195966 -0.013678989 0.067598291
0.52154672 -0.014209153 0.067589857
0.52113384 -0.014739318 0.067581415
0.5207209 -0.015269482 0.067572974
0.52030796 -0.015799645 0.06756454
0.51883799 -0.016149899 0.067879513
0.51842576 -0.016679212 0.067871086
0.51801348 -0.017208524 0.06786266
0.51824337 -0.018450471 0.06752234
0.51718897 -0.018267155 0.067845806
0.5180583 -0.020225137 0.067173541
0.5176447 -0.020756153 0.067165084
0.51723111 -0.021287169 0.067156635
0.51745635 -0.022535073 0.066816226
0.51768029 -0.023784714 0.066475764
0.51790291 -0.025036018 0.066135295
0.51748729 -0.025569588 0.066126801
0.51770788 -0.026823448 0.065786295
0.51856273 -0.02880018 0.065113708
0.52131939 -0.032946307 0.06344495
0.52216691 -0.034932368 0.062772237
0.52301174 -0.036921877 0.062099449
0.52385396 -0.038914751 0.061426628
0.52406126 -0.04018563 0.061085846
0.52489889 -0.042184494 0.060412914
0.52510285 -0.043459632 0.060072064
0.52530557 -0.044736467 0.059731193
0.52487743 -0.045286205 0.059722442
0.52444923 -0.045835942 0.059713691
0.52402109 -0.046385683 0.059704937
0.52359289 -0.046935413 0.059696186
0.52379161 -0.04821736 0.059355237
0.52336282 -0.048767947 0.059346471
0.52293396 -0.049318533 0.059337709
0.5225051 -0.049869124 0.059328943
0.52207631 -0.050419711 0.059320178
0.52164745 -0.050970301 0.059311416
0.5212186 -0.051520899 0.05930265
0.58628953 0.081612155 0.071060464
0.58588189 0.081088796 0.071052134
0.58623409 0.080004506 0.070713297
0.5858258 0.079480298 0.070704952
0.58617604 0.078393489 0.070366099
0.58804053 0.076178066 0.069366165
0.58838677 0.075086117 0.069027208
0.59024465 0.072862186 0.068027139
0.5905869 0.071765162 0.067688122
0.59092784 0.070666403 0.067349054
0.59126747 0.069565974 0.067009985
0.59160572 0.068463847 0.066670887
0.59118944 0.067929424 0.066662379
0.59152573 0.066824742 0.066323243
0.59110886 0.066289477 0.06631472
0.59069192 0.065754205 0.066306196
0.59027505 0.065218933 0.06629768
0.58985811 0.064683661 0.066289157
0.58944124 0.064148389 0.066280641
0.58902431 0.063613117 0.066272117
0.58860743 0.063077852 0.066263594
0.58893776 0.061965473 0.065924309
0.58852023 0.061429352 0.065915778
0.58884853 0.060314458 0.065576471
0.58843029 0.059777487 0.065567926
0.5880121 0.059240513 0.06555938
0.58759385 0.058703538 0.065550834
0.58791888 0.05758439 0.06521146
0.58749998 0.057046566 0.065202899
0.58708107 0.056508742 0.065194339
0.58740342 0.055386193 0.064854912
0.58698386 0.054847516 0.064846337
0.58730423 0.053722411 0.064506873
0.58688402 0.053182885 0.06449829
0.58646381 0.052643359 0.0644897
0.58678156 0.051514816 0.064150155
0.58636069 0.05097444 0.064141557
0.58593982 0.05043406 0.064132951
0.58551896 0.049893685 0.064124353
0.58509803 0.049353309 0.064115748
0.58467716 0.04881293 0.06410715
0.58425629 0.048272554 0.064098544
0.58383542 0.047732178 0.064089946
0.58341455 0.047191799 0.064081341
0.58299369 0.046651423 0.064072743
0.58257276 0.046111047 0.064064138
0.58215189 0.045570672 0.06405554
0.58173102 0.045030292 0.064046934
0.58131015 0.044489916 0.064038336
0.58088928 0.043949541 0.064029731
0.58046842 0.043409165 0.064021133
0.58004749 0.042868786 0.064012527
0.57962662 0.04232841 0.064003929
0.57993174 0.041183729 0.063664153
0.57878488 0.041247655 0.063986726
0.57763928 0.041313317 0.064309344
0.57607549 0.040841971 0.064623393
0.57565594 0.040303294 0.064614818
0.57337409 0.04044646 0.065260209
0.57295585 0.039909486 0.065251663
0.57181764 0.039984476 0.065574415
0.57068062 0.040061198 0.065897211
0.5681076 0.041366912 0.066882662
0.5676927 0.040834196 0.066874184
0.56584293 0.041532241 0.067528427
0.56471264 0.041617442 0.067851335
0.56286758 0.042321406 0.068505652
0.56102514 0.043028817 0.069160044
0.55990016 0.043120824 0.069483064
0.55877644 0.04321453 0.069806106
0.55765408 0.043309942 0.070129186
0.55510753 0.044649728 0.071115196
0.55398917 0.044750247 0.07143835
0.55287206 0.044852499 0.071761556
0.55175632 0.04495642 0.07208477
0.55064189 0.045062043 0.072408006
0.54952884 0.045169368 0.072731264
0.54912585 0.044651967 0.072723031
0.54872286 0.044134568 0.072714798
0.54831988 0.04361717 0.072706558
0.54791689 0.043099768 0.072698325
0.5475139 0.042582367 0.072690085
0.54711092 0.042064968 0.072681852
0.54670793 0.041547567 0.072673611
0.546305 0.041030169 0.072665378
0.5451985 0.041146003 0.072988778
0.54479623 0.040629454 0.072980553
0.5443939 0.040112905 0.072972335
0.54399157 0.039596353 0.072964109
0.50555032 0.065526977 0.089133315
0.50587404 0.064406127 0.088793918
0.50550354 0.063930422 0.088786349
0.50513303 0.063454717 0.088778771
0.504071 0.063627571 0.08910308
0.50370115 0.063152723 0.089095525
0.5033313 0.062677868 0.089087963
0.50296146 0.06220302 0.089080408
0.50259161 0.061728168 0.089072846
0.50222176 0.06125332 0.089065291
0.50185192 0.060778469 0.089057729
0.50148207 0.060303617 0.089050174
0.50111222 0.059828766 0.089042611
0.50074238 0.059353914 0.089035057
0.50037253 0.058879066 0.089027494
0.50068694 0.057746299 0.088687904
0.50031644 0.057270601 0.088680334
0.49994594 0.056794897 0.088672765
0.49957544 0.056319196 0.088665187
0.49920493 0.055843491 0.088657618
0.49815348 0.056029961 0.088982143
0.54702574 0.0066171684 0.064721711
0.54660749 0.0060801962 0.064713158
0.54551101 0.0062087933 0.065036766
0.54373819 0.0070055542 0.065692574
0.54264498 0.0071384031 0.066016249
0.54222941 0.0066048382 0.066007756
0.54248947 0.0054022921 0.065667056
0.54207319 0.0048678694 0.065658547
0.54098266 0.0050041312 0.065982275
0.54124075 0.0037990299 0.065641537
0.54082447 0.003264613 0.065633029
0.54040825 0.0027301903 0.06562452
0.53999203 0.0021957736 0.065616012
0.53957576 0.0016613508 0.065607511
0.53982985 0.00045114971 0.065266691
0.53874332 0.00059251144 0.065590493
0.53899604 -0.00061939325 0.065249652
0.53857917 -0.0011546676 0.065241128
0.53816223 -0.0016899362 0.065232605
0.53774536 -0.0022252046 0.065224089
0.53799486 -0.003441395 0.06488315
0.53757727 -0.0039775153 0.064874612
0.53715974 -0.0045136414 0.064866081
0.53607774 -0.0043662908 0.065190002
0.53566086 -0.0049015651 0.065181486
0.53524393 -0.0054368335 0.065172963
0.53482705 -0.0059721018 0.065164439
0.53441012 -0.0065073767 0.065155923
0.53399324 -0.007042645 0.0651474
0.53291595 -0.0068893647 0.065471396
0.53249967 -0.0074237874 0.065462887
0.53208345 -0.0079582045 0.065454379
0.53166723 -0.0084926272 0.06544587
0.53125101 -0.0090270434 0.065437369
0.53083473 -0.0095614661 0.06542886
0.53041852 -0.010095889 0.065420352
0.52934653 -0.0099358018 0.06574446
0.52893096 -0.010469367 0.065735966
0.52786094 -0.01030673 0.066060111
0.52744603 -0.010839448 0.066051625
0.52637798 -0.010674222 0.066375837
0.52531129 -0.010507327 0.066700049
0.52489769 -0.011038342 0.066691592
0.52383304 -0.010868898 0.067015842
0.5234201 -0.011399061 0.067007408
0.52300715 -0.011929225 0.066998966
0.52259421 -0.012459389 0.066990525
0.52153283 -0.012285692 0.067314848
0.52112061 -0.012815004 0.067306422
0.52070832 -0.013344316 0.067297995
0.5202961 -0.013873628 0.067289568
0.51988381 -0.014402946 0.067281142
0.51947153 -0.014932259 0.067272723
0.5190593 -0.015461571 0.067264296
0.51800323 -0.015281064 0.067588724
0.5175916 -0.015809525 0.067580312
0.51718003 -0.016337991 0.067571901
0.51612651 -0.01615404 0.067896403
0.51530468 -0.017209262 0.067879602
0.51553363 -0.01845184 0.067538247
0.5157612 -0.019696087 0.067196891
0.51534891 -0.020225398 0.067188464
0.51557451 -0.021472193 0.066847056
0.51579875 -0.022720695 0.066505633
0.51538521 -0.023251709 0.066497177
0.51497161 -0.023782725 0.066488728
0.51582843 -0.025755551 0.06581419
0.52133745 -0.034046937 0.06246661
0.52154911 -0.035311606 0.062124923
0.52302456 -0.038026594 0.06111702
0.52323228 -0.039296363 0.06077525
0.52406985 -0.04129383 0.060100347
0.52427429 -0.042567894 0.059758488
0.5251072 -0.044571321 0.059083488
0.52467906 -0.045121059 0.059074737
0.52425086 -0.045670796 0.059065986
0.52382272 -0.046220537 0.059057232
0.52339453 -0.046770267 0.059048481
0.52296638 -0.047320012 0.059039731
0.52253819 -0.047869753 0.05903098
0.5227353 -0.049153134 0.058688998
0.52230644 -0.049703721 0.058680233
0.52125371 -0.049518954 0.059004728
0.52082551 -0.050068699 0.058995977
0.58650827 0.082292736 0.070452176
0.5861007 0.081769377 0.070443839
0.58569306 0.081246018 0.070435509
0.58604497 0.080161981 0.070095673
0.58563668 0.079637773 0.070087329
0.58598655 0.078551218 0.06974747
0.58709264 0.076899767 0.069076054
0.58743924 0.075808957 0.068736129
0.58778453 0.074716412 0.068396159
0.58963948 0.072490692 0.067393042
0.58998072 0.071393073 0.067053005
0.59032071 0.070293717 0.066712923
0.59065932 0.069192693 0.066372834
0.59024376 0.068659127 0.06636434
0.5905804 0.067555554 0.066024214
0.59016418 0.067021132 0.066015705
0.58974791 0.066486709 0.066007197
0.58933169 0.065952294 0.065998688
0.58891547 0.065417871 0.065990187
0.58849919 0.064883456 0.065981679
0.58808297 0.064349033 0.06597317
0.58766675 0.06381461 0.065964662
0.58799738 0.062703378 0.065624416
0.5875805 0.062168106 0.065615892
0.58790922 0.061054286 0.06527558
0.58749163 0.060518164 0.065267049
0.5870741 0.059982043 0.06525851
0.58740008 0.058864851 0.064918168
0.58698189 0.05832788 0.064909615
0.5873059 0.057208136 0.064569235
0.586887 0.056670312 0.064560674
0.58720905 0.055548016 0.064220242
0.58678955 0.055009339 0.064211667
0.58710957 0.053884488 0.063871205
0.58668935 0.053344965 0.063862614
0.58626914 0.052805439 0.063854024
0.58584893 0.052265912 0.063845441
0.58542871 0.051726386 0.06383685
0.5850085 0.05118686 0.06382826
0.58458829 0.050647333 0.063819669
0.58490306 0.049515642 0.063479073
0.58374786 0.049568281 0.063802496
0.58332765 0.049028758 0.063793905
0.58290744 0.048489232 0.063785322
0.58248723 0.047949705 0.063776731
0.58206701 0.047410179 0.063768141
0.5816468 0.046870653 0.063759558
0.58122653 0.046331126 0.063750967
0.58080631 0.0457916 0.063742377
0.5803861 0.045252077 0.063733786
0.57996589 0.044712551 0.063725203
0.57954568 0.044173025 0.063716613
0.57912546 0.043633498 0.063708022
0.57943165 0.042490743 0.063367248
0.57828504 0.042554446 0.063690849
0.57672024 0.042081144 0.064005874
0.57485324 0.042755663 0.064661734
0.57443506 0.042218693 0.064653188
0.57401681 0.041681718 0.064644642
0.57287687 0.041753896 0.064968355
0.57101715 0.042437814 0.065624386
0.57060093 0.041903395 0.065615878
0.56946492 0.04198068 0.065939665
0.56833029 0.042059664 0.066263489
0.56719691 0.042140387 0.066587359
0.56606495 0.042222779 0.066911228
0.56421721 0.042921983 0.067567483
0.56308854 0.043008626 0.067891426
0.56124538 0.043713819 0.068547793
0.56011999 0.04380472 0.068871804
0.55828154 0.044515833 0.069528244
0.55715942 0.044611022 0.069852345
0.55532563 0.045328096 0.070508882
0.55420691 0.045427505 0.070833027
0.55308944 0.04552865 0.071157224
0.55197334 0.045631468 0.071481422
0.55085856 0.045735981 0.071805641
0.54974514 0.045842204 0.072129898
0.54863304 0.045950122 0.072454177
0.54823071 0.045433573 0.072445959
0.54782838 0.044917025 0.072437733
0.54742604 0.044400472 0.072429508
0.54702377 0.043883923 0.07242129
0.54662144 0.043367375 0.072413065
0.54621911 0.042850826 0.072404839
0.54581678 0.042334277 0.072396621
0.54541445 0.041817728 0.072388396
0.54430896 0.041934192 0.072712839
0.54390728 0.041418493 0.072704628
0.54280382 0.041537479 0.073029079
0.54170161 0.041658163 0.073353566
0.54130131 0.041144166 0.073345385
0.50570238 0.064549029 0.088233441
0.50533187 0.064073332 0.088225871
0.50496137 0.063597627 0.088218302
0.50459087 0.06312193 0.088210724
0.50422037 0.062646225 0.088203155
0.50384986 0.06217052 0.088195585
0.50279009 0.062345669 0.088520937
0.50242025 0.061870821 0.088513374
0.50205046 0.061395969 0.088505812
0.50236785 0.060267713 0.088165291
0.50199735 0.059792012 0.088157721
0.50162685 0.059316311 0.088150151
0.50125635 0.05884061 0.088142574
0.50088584 0.058364905 0.088135004
0.50051528 0.057889204 0.088127434
0.50014478 0.057413504 0.088119857
0.49977431 0.056937803 0.088112287
0.4994038 0.056462098 0.088104717
0.49903327 0.055986397 0.08809714
0.49798214 0.056172609 0.088422671
0.5436992 0.0088994056 0.065413073
0.54328364 0.0083658341 0.065404579
0.54015875 0.010496969 0.066728771
0.5404225 0.0092997886 0.066387154
0.5400089 0.0087687727 0.066378698
0.53959531 0.0082377568 0.066370249
0.53918171 0.0077067413 0.066361792
0.53876811 0.0071757259 0.066353343
0.53902787 0.0059734341 0.066011645
0.53861362 0.0054415669 0.066003174
0.53819937 0.0049096993 0.06599471
0.53778511 0.0043778322 0.065986246
0.53737086 0.0038459646 0.065977775
0.53762668 0.0026385351 0.065635972
0.53721178 0.002105816 0.065627493
0.53746551 0.00089587102 0.065285668
0.53704995 0.00036230008 0.065277174
0.53663439 -0.00017127085 0.06526868
0.53621882 -0.00070483593 0.065260187
0.53646928 -0.0019190453 0.064918302
0.53605306 -0.0024534622 0.064909793
0.53630149 -0.0036702214 0.064567864
0.53522056 -0.0035223016 0.064892776
0.53480434 -0.0040567243 0.064884275
0.53438807 -0.0045911409 0.064875767
0.53397185 -0.0051255636 0.064867258
0.53355563 -0.0056599807 0.06485875
0.53313935 -0.0061944034 0.064850241
0.53206307 -0.0060405275 0.065175258
0.53164744 -0.0065740985 0.065166764
0.53123188 -0.0071076634 0.06515827
0.53081632 -0.0076412344 0.065149777
0.53040075 -0.008174805 0.065141283
0.52998519 -0.0087083708 0.065132789
0.52956957 -0.0092419414 0.065124296
0.52849859 -0.0090812575 0.065449417
0.52808368 -0.0096139768 0.065440938
0.52766871 -0.010146696 0.065432452
0.52725381 -0.010679415 0.065423973
0.52618611 -0.010514445 0.065749183
0.52511972 -0.010347804 0.066074401
0.52470613 -0.01087882 0.066065945
0.52364171 -0.01070963 0.0663912
0.52322882 -0.011239795 0.066382758
0.52216643 -0.01106805 0.066708058
0.52175415 -0.011597362 0.066699632
0.52134186 -0.01212668 0.066691205
0.52092963 -0.012655993 0.066682778
0.51987052 -0.012479989 0.067008145
0.51945895 -0.013008456 0.066999733
0.51904732 -0.013536916 0.066991322
0.51863575 -0.014065382 0.06698291
0.51822412 -0.014593843 0.066974498
0.517169 -0.014412707 0.067299962
0.51675802 -0.014940316 0.067291565
0.51634711 -0.015467931 0.067283161
0.51529467 -0.015283421 0.067608662
0.51488435 -0.015810179 0.06760028
0.51447409 -0.01633694 0.067591891
0.51406384 -0.016863704 0.067583509
0.51429242 -0.018105991 0.06724117
0.5138815 -0.0186336 0.067232773
0.51347053 -0.019161215 0.067224376
0.51369655 -0.020406937 0.066881962
0.51328492 -0.020935398 0.06687355
0.51287335 -0.021463865 0.066865139
0.51309663 -0.022712961 0.066522688
0.5114159 -0.02179927 0.067182377
0.51290566 -0.024493918 0.06617178
0.5207206 -0.034425575 0.061820317
0.52219582 -0.037138943 0.060809419
0.5224039 -0.038407613 0.060466662
0.5226106 -0.039677978 0.060123876
0.52407658 -0.042403258 0.059112787
0.5242793 -0.043678734 0.058769923
0.5244807 -0.044955913 0.058427032
0.52405256 -0.04550565 0.058418278
0.52362436 -0.046055391 0.058409527
0.52319622 -0.046605121 0.058400776
0.52276802 -0.047154862 0.058392026
0.52233988 -0.047704607 0.058383275
0.52191168 -0.048254337 0.058374524
0.52148354 -0.048804078 0.058365773
0.52105534 -0.049353808 0.058357023
0.52000421 -0.049167596 0.05868255
0.51957673 -0.049716495 0.058673814
0.52039248 -0.051740684 0.057996467
0.58596528 0.083530299 0.070176311
0.5855583 0.08300779 0.070167996
0.58591187 0.081926599 0.069827221
0.58550423 0.081403241 0.069818884
0.58585584 0.080319464 0.069478042
0.58544755 0.079795256 0.069469698
0.58579713 0.078708954 0.069128841
0.58690256 0.07705801 0.06845542
0.5864923 0.076531246 0.068447039
0.58759385 0.074875161 0.067773513
0.58869267 0.073215708 0.067099966
0.58903432 0.072119199 0.066758938
0.5893746 0.071020983 0.066417895
0.58971363 0.069921032 0.066076793
0.58929873 0.069388315 0.066068314
0.58963567 0.068285845 0.065727189
0.58922011 0.067752279 0.065718696
0.58880454 0.067218713 0.065710202
0.58838898 0.06668514 0.065701716
0.58797336 0.066151574 0.065693222
0.58755779 0.065618001 0.065684728
0.58714223 0.065084435 0.065676235
0.58672667 0.064550862 0.065667741
0.58705765 0.06344074 0.065326497
0.58664143 0.062906317 0.065317988
0.58697045 0.061793637 0.064976715
0.58655357 0.061258364 0.064968191
0.58688062 0.060143098 0.06462685
0.58646309 0.059606977 0.064618312
0.58678812 0.058489192 0.064276949
0.58636993 0.057952218 0.064268403
0.58669299 0.056831878 0.063927002
0.58627409 0.056294054 0.063918442
0.58659518 0.055171162 0.063576996
0.58617562 0.054632489 0.063568421
0.58575606 0.054093812 0.063559845
0.58533651 0.053555138 0.063551269
0.58491695 0.053016461 0.063542694
0.58449739 0.052477788 0.063534126
0.58481383 0.05134894 0.063192584
0.58439362 0.050809413 0.063184001
0.58397341 0.050269887 0.06317541
0.58281916 0.050323088 0.063499823
0.58239961 0.049784414 0.063491248
0.58198005 0.049245737 0.063482672
0.58156055 0.048707064 0.063474096
0.581141 0.048168391 0.063465521
0.58072144 0.047629714 0.063456953
0.58030188 0.047091041 0.063448377
0.57988232 0.046552368 0.063439801
0.57946277 0.046013691 0.063431226
0.57904321 0.045475014 0.06342265
0.57862365 0.04493634 0.063414074
0.5782041 0.044397663 0.063405499
0.57778454 0.04385899 0.063396923
0.57736498 0.043320317 0.063388355
0.57694542 0.04278164 0.063379779
0.57435369 0.04405944 0.064370826
0.57104248 0.045948725 0.065695196
0.5699048 0.046023235 0.066019975
0.56949055 0.045491368 0.066011503
0.57051915 0.043741677 0.065336496
0.56794131 0.045037381 0.066327848
0.5682478 0.043895766 0.065986104
0.56783354 0.043363903 0.06597764
0.56670052 0.043444335 0.066302486
0.56556886 0.043526471 0.066627361
0.56443846 0.043610308 0.066952266
0.56259263 0.04431073 0.067610577
0.56146556 0.044398826 0.067935541
0.56033987 0.04448862 0.068260543
0.55850071 0.04519752 0.068918966
0.55666411 0.045909859 0.069577463
0.55554372 0.04600646 0.069902569
0.55442458 0.046104763 0.070227705
0.55330682 0.046204805 0.070552886
0.55219036 0.04630651 0.070878074
0.55107522 0.046409924 0.071203284
0.54996145 0.046515033 0.071528532
0.54884899 0.046621848 0.071853802
0.54773778 0.046730395 0.072179116
0.54733616 0.046214696 0.072170906
0.54693449 0.045699 0.072162695
0.54653281 0.045183301 0.072154492
0.54613119 0.044667602 0.072146282
0.54572952 0.044151906 0.072138071
0.54532784 0.043636207 0.072129861
0.544222 0.043751534 0.072455265
0.54382104 0.043236684 0.072447069
0.54271716 0.04335456 0.072772518
0.54231685 0.042840566 0.072764337
0.54191649 0.042326566 0.072756149
0.54081529 0.04244785 0.07308165
0.54041564 0.041934703 0.073073484
0.50835454 0.063711949 0.086686641
0.50798202 0.063233696 0.086679026
0.50622368 0.06404645 0.087339126
0.50585252 0.063569896 0.087331541
0.50548136 0.063093342 0.087323949
0.50441927 0.063264832 0.087650254
0.50404876 0.062789127 0.087642677
0.5036782 0.062313426 0.087635107
0.50261879 0.062488321 0.087961458
0.50224894 0.06201347 0.087953903
0.5018791 0.061538618 0.08794634
0.50219619 0.060410619 0.087604821
0.50182569 0.059934918 0.087597243
0.50145519 0.059459217 0.087589674
0.50108469 0.058983516 0.087582096
0.50071418 0.058507811 0.087574527
0.50034368 0.05803211 0.087566957
0.49997318 0.057556409 0.08755938
0.49960268 0.057080708 0.08755181
0.49923214 0.056605004 0.08754424
0.49886164 0.056129303 0.087536663
0.49781084 0.056315258 0.087863192
0.49676132 0.056502916 0.088189751
0.53902507 0.012516527 0.06678088
0.5372594 0.013319924 0.067440823
0.53684914 0.012793162 0.067432441
0.53711456 0.011598785 0.067089856
0.53670359 0.011071171 0.067081459
0.53629267 0.010543562 0.067073062
0.53655547 0.0093457457 0.066730402
0.53614384 0.0088172853 0.066721991
0.53640461 0.0076169539 0.066379316
0.53599238 0.0070876358 0.06637089
0.53625113 0.005884754 0.06602817
0.53516781 0.0060290112 0.066354036
0.53542531 0.0048244204 0.066011295
0.53568143 0.0036181323 0.065668523
0.53593618 0.0024101399 0.06532573
0.53552198 0.0018782725 0.065317258
0.53510773 0.001346405 0.065308794
0.53469348 0.00081454345 0.065300331
0.53494501 -0.00039774054 0.06495744
0.53453004 -0.00093045976 0.064948961
0.53477955 -0.0021452534 0.064606056
0.53436399 -0.0026788244 0.064597562
0.53394842 -0.0032123954 0.064589068
0.53353286 -0.0037459603 0.064580575
0.53311723 -0.0042795311 0.064572081
0.53270167 -0.0048131021 0.064563587
0.53228611 -0.005346667 0.064555094
0.53121078 -0.0051922016 0.064881124
0.53079587 -0.0057249209 0.064872645
0.5303809 -0.0062576341 0.064864159
0.529966 -0.006790353 0.06485568
0.52955109 -0.0073230723 0.064847201
0.52913618 -0.0078557916 0.064838722
0.52872127 -0.0083885109 0.064830244
0.52830637 -0.0089212237 0.064821765
0.52723694 -0.0087590646 0.065147936
0.52682269 -0.0092909317 0.065139465
0.52640843 -0.0098227998 0.065131001
0.52534169 -0.0096572665 0.065457202
0.52492809 -0.010188282 0.065448746
0.5245145 -0.010719297 0.065440297
0.52345043 -0.010550364 0.065766558
0.52303749 -0.011080528 0.065758117
0.52197546 -0.010909039 0.066084415
0.52156317 -0.011438351 0.066075988
0.52050304 -0.011264313 0.066402331
0.52009147 -0.011792773 0.066393919
0.51967984 -0.012321234 0.0663855
0.5186224 -0.012143755 0.066711918
0.51756626 -0.011964612 0.067038335
0.51715595 -0.012491369 0.067029953
0.51674569 -0.013018131 0.067021571
0.51633543 -0.013544894 0.067013182
0.51592517 -0.014071651 0.0670048
0.51551485 -0.014598414 0.06699641
0.51446337 -0.014413309 0.067322925
0.51405376 -0.014939221 0.067314558
0.51364416 -0.015465131 0.067306183
0.51259536 -0.015276619 0.067632757
0.51282495 -0.016516948 0.067289442
0.51241535 -0.017042859 0.067281067
0.51200575 -0.017568771 0.0672727
0.51159608 -0.018094681 0.067264326
0.51118648 -0.018620592 0.067255959
0.51141214 -0.019866025 0.066912562
0.51163644 -0.021113163 0.066569142
0.50995767 -0.020198319 0.067230843
0.52199966 -0.036975585 0.060168732
0.52220738 -0.038243998 0.05982497
0.52304441 -0.040239591 0.059146065
0.52387881 -0.042238623 0.058467086
0.52408123 -0.043513842 0.05812322
0.52428234 -0.044790767 0.057779323
0.5238542 -0.045340501 0.057770573
0.523426 -0.045890246 0.057761822
0.52299786 -0.046439976 0.057753071
0.52256966 -0.046989717 0.05774432
0.52214152 -0.047539458 0.05773557
0.52171338 -0.048089191 0.057726819
0.52128518 -0.048638932 0.057718068
0.52023369 -0.048453823 0.058044583
0.52042884 -0.049738403 0.057700567
0.52062267 -0.051024694 0.057356525
0.58501518 0.084243998 0.069894128
0.58536977 0.083164759 0.069552377
0.58572304 0.082083821 0.069210596
0.58531541 0.081560463 0.069202267
0.58566672 0.08047694 0.068860419
0.58525842 0.079952732 0.068852074
0.58560771 0.078866683 0.068510212
0.58595562 0.077778943 0.06816832
0.58630228 0.076689489 0.067826398
0.58589196 0.076162733 0.067818016
0.58699155 0.074505456 0.067142464
0.58808845 0.072844811 0.066466883
0.58842909 0.071747705 0.066124842
0.58876842 0.070648894 0.065782771
0.58835417 0.070117027 0.065774307
0.58869159 0.06901563 0.065432176
0.58827668 0.068482913 0.065423697
0.58786178 0.067950197 0.065415218
0.58744681 0.06741748 0.06540674
0.5870319 0.066884764 0.065398261
0.58661699 0.06635204 0.065389782
0.58620209 0.065819323 0.065381296
0.58578718 0.065286607 0.065372817
0.58611858 0.064177588 0.06503059
0.58570296 0.063644014 0.065022096
0.58603239 0.06253244 0.064679824
0.58636045 0.061419167 0.064337529
0.58594352 0.060883895 0.064329013
0.58626968 0.059768032 0.063986652
0.58585209 0.059231911 0.063978113
0.5854345 0.058695789 0.063969582
0.58575791 0.057576556 0.063627191
0.58533973 0.057039585 0.063618645
0.58566117 0.055917799 0.063276209
0.58524227 0.055379976 0.063267648
0.58482337 0.054842152 0.063259088
0.58440447 0.054304328 0.063250527
0.58398557 0.053766504 0.063241966
0.58356667 0.05322868 0.063233405
0.58388346 0.052100938 0.06289088
0.58346391 0.051562261 0.062882304
0.58304441 0.051023588 0.062873729
0.58189112 0.051077385 0.063199155
0.58147222 0.050539561 0.063190594
0.58105338 0.050001737 0.063182034
0.58063447 0.049463913 0.063173473
0.58021557 0.048926089 0.063164912
0.57979667 0.048388265 0.063156351
0.57937777 0.047850441 0.063147791
0.57895887 0.047312614 0.06313923
0.57854003 0.04677479 0.063130669
0.57739341 0.046837099 0.063456237
0.57770222 0.045699146 0.063113548
0.57728332 0.045161322 0.063104987
0.57613868 0.045226179 0.063430592
0.57572049 0.044689205 0.063422047
0.57312894 0.045965426 0.064416111
0.56723475 0.049139231 0.06673868
0.56610072 0.049217738 0.067064524
0.56352448 0.050513495 0.068058878
0.56527883 0.048162516 0.06704773
0.56414747 0.048244394 0.067373604
0.56589657 0.045886572 0.066362329
0.56620342 0.044746067 0.066019595
0.565072 0.044827946 0.066345476
0.56322414 0.045524456 0.067005731
0.56281322 0.044996843 0.066997334
0.5616858 0.045083828 0.067323297
0.56055975 0.045172516 0.067649283
0.55943495 0.045262907 0.067975298
0.55688256 0.04658933 0.068970159
0.55504799 0.047302827 0.069630668
0.55392915 0.04740091 0.069956824
0.55281168 0.047500659 0.070282988
0.55169553 0.047602113 0.070609175
0.55058074 0.047705267 0.070935398
0.54946727 0.047810122 0.071261637
0.54906493 0.047293574 0.071253419
0.54795337 0.047401015 0.071579725
0.54684323 0.047510128 0.071906038
0.54644221 0.046995282 0.071897842
0.54604125 0.046480436 0.071889646
0.54564023 0.045965586 0.071881451
0.54453337 0.04607895 0.072207831
0.54413307 0.045564957 0.07219965
0.5437327 0.04505096 0.072191462
0.5433324 0.044536963 0.072183281
0.54293203 0.044022966 0.0721751
0.54182917 0.044141438 0.072501563
0.54142952 0.043628294 0.072493397
0.54102981 0.043115146 0.072485223
0.53992963 0.043237023 0.072811745
0.52887028 0.048986237 0.0771228
0.50887591 0.063212089 0.085788339
0.50780946 0.063377365 0.086115547
0.50674438 0.063544348 0.086442776
0.50637257 0.063066937 0.086435176
0.5053094 0.063236505 0.086762473
0.50493824 0.062759951 0.086754888
0.5038771 0.062932037 0.0870822
0.5035066 0.062456332 0.08707463
0.50244749 0.062630966 0.087401986
0.50207764 0.062156118 0.087394424
0.50239509 0.061029229 0.087051913
0.50202459 0.060553525 0.087044343
0.50165409 0.060077824 0.087036766
0.50128359 0.059602123 0.087029196
0.50091308 0.059126422 0.087021627
0.50054252 0.058650717 0.087014049
0.50017202 0.058175016 0.08700648
0.49980155 0.057699315 0.08699891
0.49943104 0.057223614 0.086991332
0.49906051 0.05674791 0.086983763
0.49869001 0.056272209 0.086976193
0.49763951 0.056457911 0.08730372
0.49659032 0.056645311 0.087631278
0.53273809 0.018658597 0.069174699
0.5336858 0.016806483 0.068496071
0.53395492 0.015617467 0.068152569
0.53422266 0.01442672 0.067809016
0.53381443 0.013902512 0.067800671
0.53340614 0.013378304 0.067792326
0.5336712 0.012184185 0.067448743
0.53393501 0.010988361 0.067105129
0.53419745 0.0097908406 0.066761494
0.53378713 0.009264078 0.066753104
0.5340476 0.0080640009 0.066409431
0.53363669 0.0075363861 0.066401035
