# .PCD v0.7 - Point Cloud Data file format
VERSION 0.7
FIELDS x y z
SIZE 4 4 4
TYPE F F F
COUNT 1 1 1
WIDTH 1408
HEIGHT 1
VIEWPOINT 0 0 0 1 0 0 0
POINTS 1408
DATA ascii
0.61712635 0.14600483 0.060683649
0.61672539 0.14548998 0.060675453
0.61632437 0.14497513 0.060667258
0.6159234 0.14446029 0.060659062
0.61552238 0.14394544 0.060650866
0.61512142 0.14343059 0.060642671
0.61389971 0.14338286 0.060987629
0.6126793 0.14333683 0.061332613
0.61227965 0.14282368 0.061324444
0.61106128 0.1427802 0.061669465
0.61066228 0.14226791 0.06166131
0.60944581 0.14222702 0.062006399
0.60986423 0.14124332 0.061645001
0.60864913 0.14120413 0.061990116
0.60743541 0.14116661 0.062335234
0.60622299 0.14113079 0.062680379
0.60582596 0.14062105 0.062672265
0.60542893 0.14011131 0.062664151
0.60421914 0.14007889 0.063009351
0.60382283 0.13957 0.063001253
0.602615 0.13954018 0.063346513
0.60221928 0.13903214 0.063338429
0.60182357 0.1385241 0.063330345
0.60061848 0.13849764 0.063675635
0.60022342 0.13799044 0.063667566
0.59982842 0.13748325 0.063659489
0.59943336 0.13697608 0.063651413
0.59823155 0.13695388 0.063996777
0.59783721 0.13644753 0.063988715
0.59744281 0.13594119 0.063980661
0.59704846 0.13543487 0.0639726
0.59665412 0.13492852 0.063964538
0.59545624 0.13491142 0.064309984
0.59506255 0.13440594 0.064301938
0.59466887 0.13390045 0.064293891
0.59427512 0.13339496 0.064285845
0.59388143 0.13288948 0.064277798
0.59348774 0.13238399 0.064269751
0.59309405 0.13187851 0.064261705
0.5927003 0.13137302 0.064253658
0.59230661 0.13086753 0.064245611
0.59191293 0.13036205 0.064237565
0.59072238 0.13035432 0.06458316
0.59032935 0.12984967 0.064575121
0.58993626 0.12934504 0.064567089
0.58954322 0.1288404 0.064559057
0.58835596 0.12883696 0.064904742
0.58796358 0.12833317 0.064896725
0.5875712 0.12782939 0.064888701
0.58717883 0.12732561 0.064880684
0.58678645 0.12682182 0.064872667
0.58639407 0.12631804 0.064864643
0.58600169 0.12581424 0.064856626
0.58560932 0.12531047 0.064848609
0.58521694 0.12480668 0.064840585
0.58482456 0.12430289 0.064832568
0.58443218 0.12379912 0.064824551
0.58403981 0.12329532 0.064816527
0.58364743 0.12279154 0.06480851
0.58325505 0.12228776 0.064800486
0.58286268 0.12178397 0.064792469
0.5824703 0.12128019 0.064784452
0.58207792 0.12077641 0.064776428
0.58168554 0.12027262 0.064768411
0.58129317 0.11976884 0.064760394
0.58011919 0.11978237 0.065106325
0.57972747 0.11927944 0.065098323
0.57933575 0.1187765 0.065090314
0.57894403 0.11827357 0.065082312
0.57855231 0.11777063 0.065074302
0.57816058 0.11726771 0.065066293
0.57776886 0.11676477 0.065058291
0.57737714 0.11626184 0.065050282
0.57620913 0.11628304 0.065396339
0.57581812 0.11578095 0.065388344
0.57542706 0.11527887 0.06538035
0.57503599 0.11477679 0.065372363
0.57464492 0.1142747 0.065364368
0.57425386 0.11377262 0.065356374
0.57386285 0.11327054 0.065348387
0.57270014 0.11329854 0.065694548
0.57230973 0.11279731 0.065686569
0.57114899 0.1128279 0.06603279
0.57075924 0.11232752 0.066024825
0.57036948 0.11182714 0.06601686
0.56997979 0.11132676 0.066008896
0.56959003 0.11082638 0.066000931
0.56920034 0.110326 0.065992966
0.56881058 0.10982562 0.065985002
0.56842089 0.10932525 0.065977037
0.56803113 0.10882486 0.065969072
0.56764144 0.10832448 0.065961108
0.56725168 0.1078241 0.065953143
0.56686199 0.10732372 0.065945178
0.56647223 0.10682334 0.065937214
0.56532079 0.10686581 0.066283606
0.56569278 0.10582258 0.065921277
0.56530303 0.1053222 0.065913312
0.56415361 0.10536722 0.066259749
0.56452358 0.10432144 0.065897383
0.56413388 0.10382105 0.065889418
0.56374413 0.10332067 0.065881453
0.56335443 0.10282029 0.065873489
0.56296468 0.10231992 0.065865524
0.56257498 0.10181954 0.065857559
0.56294036 0.10076776 0.065495081
0.56254995 0.10026653 0.065487102
0.56291336 0.099212229 0.065124601
0.56176919 0.099264063 0.065471143
0.56213123 0.09820807 0.06510862
0.56174016 0.097705983 0.065100625
0.56134915 0.097203903 0.065092631
0.56095809 0.096701823 0.065084636
0.56056702 0.096199736 0.065076649
0.56092513 0.095138632 0.064714044
0.5605334 0.094635703 0.064706035
0.56088948 0.093572043 0.064343385
0.56049711 0.093068264 0.064335369
0.56085122 0.092002019 0.063972659
0.56045818 0.091497384 0.06396462
0.56081027 0.090428621 0.063601896
0.56116104 0.089358158 0.063239135
0.5607667 0.088851817 0.063231081
0.56037235 0.088345483 0.063223019
0.55997795 0.087839149 0.063214958
0.5595836 0.087332807 0.063206896
0.55993038 0.086257242 0.06284406
0.55953538 0.085750051 0.062835991
0.55914032 0.08524286 0.062827915
0.55874532 0.084735677 0.062819839
0.55835027 0.084228486 0.06281177
0.55795527 0.083721295 0.062803693
0.55756021 0.083214112 0.062795617
0.55642867 0.083282106 0.063142419
0.55603427 0.082775772 0.063134357
0.55563992 0.082269438 0.063126296
0.55524558 0.081763096 0.063118242
0.55485117 0.081256762 0.06311018
0.55372363 0.081329867 0.063457057
0.55332989 0.080824383 0.06344901
0.5529362 0.080318891 0.063440964
0.55181128 0.080395408 0.0637879
0.55068761 0.080473654 0.064134881
0.54956532 0.080553569 0.064481869
0.54917365 0.080050632 0.064473867
0.54732478 0.080718502 0.065175928
0.54766226 0.079631016 0.064812899
0.54727125 0.079128936 0.064804912
0.54760677 0.078038901 0.064441845
0.54648912 0.078124769 0.064788923
0.54609805 0.077622689 0.064780936
0.54570699 0.077120602 0.064772941
0.54603988 0.076027162 0.064409822
0.54492491 0.076116443 0.06475696
0.5452565 0.075021297 0.064393811
0.54486477 0.074518368 0.064385802
0.54519433 0.073420666 0.064022616
0.54552263 0.072321236 0.06365937
0.54512954 0.071816601 0.063651338
0.54545581 0.070714653 0.063288085
0.54506212 0.070209168 0.063280039
0.54466844 0.069703676 0.063271992
0.54570931 0.067998454 0.062553413
0.54531431 0.067491271 0.062545344
0.54491925 0.06698408 0.062537268
0.54452425 0.066476896 0.062529191
0.54484385 0.065366432 0.0621658
0.5451622 0.064254239 0.061802361
0.54405248 0.064350352 0.062149625
0.54436952 0.063236453 0.06178616
0.54397315 0.062727563 0.061778057
0.54357678 0.062218674 0.061769959
0.54246968 0.062318195 0.062117279
0.54136401 0.062419385 0.062464606
0.54096895 0.061912198 0.062456533
0.54057395 0.061405011 0.062448457
0.63186598 0.16228208 0.059640229
0.62559336 0.16334984 0.061737604
0.62350786 0.16371255 0.062436823
0.62142491 0.16407868 0.063136116
0.61934471 0.1644482 0.06383545
0.61603308 0.16475698 0.06488055
0.61440867 0.1641916 0.065218277
0.61317801 0.1641317 0.065564044
0.61278695 0.16362962 0.065556049
0.61155832 0.16357227 0.065901861
0.61116791 0.16307104 0.065893881
0.6107775 0.16256981 0.065885901
0.61038715 0.16206858 0.065877929
0.60999674 0.16156735 0.06586995
0.61044067 0.16061713 0.065508097
0.61088324 0.1596652 0.065146223
0.61132455 0.15871158 0.064784318
0.61259687 0.15730467 0.064068459
0.61303484 0.1563468 0.063706487
0.61264044 0.15584046 0.063698426
0.61473715 0.15397181 0.062628493
0.61517048 0.15300797 0.062266424
0.61560243 0.15204243 0.061904334
0.61520475 0.15153185 0.061896205
0.6156348 0.15056375 0.061534073
0.61606354 0.14959393 0.061171889
0.61649084 0.14862244 0.060809702
0.61609119 0.14810929 0.060801536
0.61569154 0.14759615 0.060793366
0.61529183 0.147083 0.060785197
0.61489218 0.14656986 0.060777031
0.61449254 0.14605671 0.060768861
0.61409283 0.14554356 0.060760692
0.61369318 0.14503041 0.060752526
0.61329353 0.14451727 0.060744356
0.61289382 0.14400412 0.060736187
0.61167443 0.14395869 0.061082188
0.61127543 0.1434464 0.061074033
0.61005795 0.14340355 0.061420094
0.60965961 0.14289211 0.061411954
0.60844421 0.14285177 0.061758034
0.60804653 0.14234118 0.061749905
0.6068331 0.14230341 0.06209603
0.60562098 0.14226733 0.062442176
0.60522461 0.14175844 0.062434077
0.60482824 0.14124955 0.062425975
0.60443193 0.14074066 0.062417876
0.60322309 0.14070888 0.062764116
0.60282737 0.14020084 0.062756024
0.60162055 0.14017157 0.063102283
0.60122555 0.13966438 0.063094214
0.6008305 0.13915719 0.063086137
0.59962636 0.13913132 0.063432448
0.59923196 0.138625 0.063424386
0.59883761 0.13811865 0.063416325
0.59844327 0.13761231 0.06340827
0.59724241 0.13759071 0.063754648
0.59684867 0.13708523 0.063746601
0.59645498 0.13657974 0.063738555
0.59606129 0.13607424 0.063730508
0.5956676 0.13556877 0.063722461
0.59447068 0.13555226 0.064068921
0.59407765 0.13504763 0.064060889
0.59368461 0.13454299 0.064052857
0.59329158 0.13403836 0.064044826
0.59289855 0.13353372 0.064036787
0.59250551 0.13302909 0.064028755
0.59211248 0.13252445 0.064020723
0.59171939 0.13201982 0.064012691
0.59132636 0.13151518 0.06400466
0.59093332 0.13101055 0.063996628
0.58974373 0.13100344 0.064343259
0.58935136 0.13049965 0.064335234
0.58895898 0.12999587 0.064327218
0.5885666 0.12949207 0.064319201
0.58738029 0.1294892 0.064665876
0.58698857 0.12898625 0.064657867
0.58659691 0.12848333 0.064649865
0.58620518 0.1279804 0.064641856
0.58581346 0.12747745 0.064633854
0.58542174 0.12697452 0.064625844
0.58503002 0.12647159 0.064617842
0.5846383 0.12596866 0.064609833
0.58424658 0.12546572 0.064601831
0.58385485 0.12496279 0.064593822
0.58346313 0.12445986 0.06458582
0.58307141 0.12395693 0.06457781
0.58267975 0.12345399 0.064569801
0.58228803 0.12295105 0.064561799
0.58189631 0.12244812 0.06455379
0.58150458 0.12194519 0.064545788
0.58111286 0.12144226 0.064537778
0.58072114 0.12093932 0.064529777
0.58032942 0.12043639 0.064521767
0.5799377 0.11993346 0.064513765
0.57954597 0.11943053 0.064505756
0.57837433 0.11944636 0.064852729
0.57798326 0.11894428 0.064844742
0.57759219 0.11844219 0.064836748
0.57720113 0.11794011 0.064828753
0.57681012 0.11743803 0.064820766
0.57641906 0.11693595 0.064812772
0.57602799 0.11643387 0.064804778
0.57563692 0.11593178 0.06479679
0.57524592 0.1154297 0.064788796
0.57485485 0.11492762 0.064780802
0.57369047 0.11495282 0.065127924
0.57330006 0.11445158 0.065119945
0.57290965 0.11395035 0.065111972
0.5717479 0.11397898 0.065459169
0.57135814 0.1134786 0.065451205
0.57096845 0.11297822 0.06544324
0.57057869 0.11247784 0.065435275
0.570189 0.11197747 0.065427311
0.56979924 0.11147708 0.065419346
0.56940949 0.1109767 0.065411381
0.56901979 0.11047632 0.065403417
0.56863004 0.10997594 0.065395445
0.56824034 0.10947556 0.06538748
0.56785059 0.10897518 0.065379515
0.56746089 0.1084748 0.065371551
0.56707114 0.10797442 0.065363586
0.56668144 0.10747404 0.065355621
0.56629169 0.10697366 0.065347657
0.56514055 0.10701588 0.065695055
0.56475151 0.10651635 0.065687098
0.56436241 0.10601681 0.065679148
0.56397337 0.10551728 0.065671198
0.56358433 0.10501776 0.065663248
0.56395334 0.10397138 0.065299869
0.56356359 0.103471 0.065291904
0.56317389 0.10297062 0.065283932
0.56278414 0.10247023 0.065275967
0.56163895 0.10252011 0.065623485
0.56200469 0.10146947 0.065260038
0.56161499 0.10096909 0.065252073
0.56122524 0.10046871 0.065244108
0.56083554 0.099968329 0.065236144
0.56119794 0.098913409 0.064872608
0.56080759 0.098412178 0.064864628
0.56041718 0.097910948 0.064856648
0.56002676 0.09740971 0.064848669
0.55963641 0.09690848 0.064840689
0.55999482 0.095848486 0.064477094
0.55960375 0.095346406 0.064469106
0.55996019 0.094283856 0.064105466
0.55956846 0.09378092 0.064097464
0.55992293 0.092715815 0.063733786
0.55953056 0.092212036 0.063725762
0.55988306 0.091144346 0.063362025
0.56023419 0.090074986 0.06299828
0.5598405 0.089569502 0.062990233
0.55944681 0.089064017 0.062982187
0.55905306 0.088558532 0.06297414
0.55865937 0.08805304 0.062966093
0.55826569 0.087547556 0.062958047
0.557872 0.087042071 0.06295
0.55747825 0.086536586 0.062941954
0.55782342 0.085459568 0.06257809
0.55742908 0.084953226 0.062570028
0.55703473 0.084446892 0.062561966
0.55590343 0.08451464 0.062909767
0.55550975 0.084009148 0.06290172
0.55511606 0.083503664 0.062893674
0.55472237 0.082998179 0.062885627
0.55359441 0.083070181 0.063233502
0.55320138 0.082565546 0.063225463
0.55207539 0.082640134 0.063573398
0.55241525 0.081556275 0.0632094
0.55055904 0.082213454 0.06391333
0.54943639 0.082292259 0.064261302
0.54904532 0.081790179 0.064253315
0.5479247 0.081871539 0.064601332
0.54753429 0.081370309 0.064593352
0.54641563 0.081454255 0.064941436
0.54602587 0.080953874 0.064933471
0.54563612 0.080453493 0.064925499
0.54524642 0.079953112 0.064917535
0.54485667 0.079452731 0.06490957
0.54446697 0.07895235 0.064901605
0.54480159 0.077861689 0.064537503
0.54441118 0.077360459 0.064529523
0.54402077 0.076859228 0.064521544
0.54435271 0.075765185 0.064157404
0.54468328 0.074669451 0.063793242
0.54501253 0.07357201 0.06342905
0.54534054 0.072472833 0.063064806
0.5449475 0.071968198 0.063056774
0.54527342 0.070866503 0.062692516
0.54487973 0.070361018 0.062684469
0.54520369 0.069256775 0.062320169
0.54552633 0.068150818 0.061955839
0.54513133 0.067643635 0.061947767
0.54545194 0.06653513 0.0615834
0.54434127 0.066629261 0.061931621
0.54466057 0.06551905 0.061567225
0.54497862 0.06440711 0.061202779
0.54529524 0.063293502 0.060838331
0.54489827 0.062783763 0.060830217
0.54450125 0.06227402 0.060822103
0.54410422 0.061764281 0.060813986
0.54299682 0.061862659 0.061162274
0.54149503 0.061454736 0.061502527
0.54109931 0.060946699 0.06149444
0.63377512 0.16208868 0.058330618
0.63167959 0.16243726 0.059031624
0.62625283 0.16306747 0.060780328
0.62501049 0.16299203 0.061126877
0.62208426 0.16379359 0.062182825
0.61916202 0.1646003 0.063238874
0.61708504 0.16497271 0.063940264
0.61461896 0.16484562 0.06463372
0.61338794 0.16478461 0.064980477
0.61215824 0.1647253 0.065327264
0.61176783 0.16422407 0.065319285
0.61054009 0.16416734 0.065666132
0.61015034 0.16366698 0.065658167
0.60976064 0.1631666 0.065650202
0.60853559 0.16311324 0.065997086
0.60814649 0.1626137 0.065989137
0.60859144 0.16166545 0.065626308
0.60820174 0.16116507 0.065618344
0.60864472 0.16021422 0.065255456
0.60908633 0.1592617 0.064892568
0.60952663 0.15830748 0.064529642
0.60996562 0.15735157 0.064166702
0.6104033 0.1563939 0.063803703
0.61332774 0.15407051 0.062375803
0.61458951 0.15265137 0.06165773
0.61336446 0.15259801 0.062004611
0.61462289 0.15117463 0.061286494
0.61505193 0.15020595 0.060923345
0.61465359 0.1496945 0.060915202
0.61508065 0.14872323 0.06055199
0.61468166 0.14821094 0.060543835
0.61428267 0.14769866 0.060535681
0.61388367 0.14718635 0.060527526
0.61348462 0.14667407 0.060519371
0.61308563 0.14616176 0.060511217
0.61268663 0.14564948 0.060503062
0.61228764 0.14513718 0.060494907
0.61188859 0.14462487 0.060486753
0.61067015 0.14458008 0.060833789
0.61027181 0.14406863 0.06082565
0.60905534 0.14402634 0.061172705
0.60865766 0.14351575 0.061164577
0.60744321 0.14347602 0.061511677
0.60704619 0.14296629 0.061503563
0.60583371 0.14292909 0.061850701
0.60462254 0.14289366 0.062197886
0.60422683 0.14238562 0.062189799
0.60383117 0.14187758 0.062181711
0.60343546 0.14136954 0.062173624
0.60222763 0.1413383 0.062520854
0.60183257 0.14083113 0.062512785
0.60062677 0.14080244 0.062860057
0.60023236 0.1402961 0.062851995
0.59983802 0.13978978 0.062843934
0.59863484 0.1397645 0.063191265
0.59824115 0.13925901 0.063183218
0.5978474 0.13875353 0.063175172
0.59745371 0.13824806 0.063167125
0.59625381 0.13822703 0.063514523
0.59586078 0.1377224 0.063506484
0.59546775 0.13721776 0.063498452
0.59507471 0.13671313 0.063490421
0.59468168 0.13620849 0.063482389
0.59348571 0.13619262 0.063829884
0.59309334 0.13568884 0.063821867
0.59270096 0.13518505 0.06381385
0.59230858 0.13468127 0.063805826
0.5919162 0.13417748 0.063797809
0.59152383 0.1336737 0.063789792
0.59113145 0.13316992 0.063781768
0.59073907 0.13266613 0.063773751
0.59034669 0.13216235 0.063765734
0.58995432 0.13165855 0.06375771
0.58956194 0.13115478 0.063749693
0.58916956 0.130651 0.063741677
0.58877718 0.1301472 0.063733652
0.58759058 0.13014321 0.064081319
0.58640528 0.13014092 0.064429015
0.58601421 0.12963884 0.06442102
0.58562315 0.12913676 0.064413026
0.58523214 0.12863468 0.064405039
0.58484107 0.1281326 0.064397044
0.58445001 0.12763052 0.06438905
0.58405894 0.12712842 0.064381056
0.58366787 0.12662634 0.064373069
0.58327687 0.12612426 0.064365074
0.5828858 0.12562218 0.06435708
0.58249474 0.12512009 0.064349093
0.58210367 0.12461802 0.064341098
0.58171266 0.12411593 0.064333104
0.5813216 0.12361385 0.064325117
0.58093053 0.12311176 0.064317122
0.58053946 0.12260968 0.064309128
0.5801484 0.1221076 0.064301133
0.57975739 0.12160552 0.064293146
0.57936633 0.12110344 0.064285152
0.57897526 0.12060136 0.064277157
0.57858419 0.12009927 0.06426917
0.57819319 0.11959719 0.064261176
0.57780212 0.11909511 0.064253181
0.57741106 0.11859302 0.064245194
0.57701999 0.11809094 0.0642372
0.57662892 0.11758886 0.064229205
0.57623792 0.11708678 0.064221211
0.57584685 0.1165847 0.064213224
0.57468075 0.11660708 0.064561307
0.57429039 0.11610585 0.064553328
0.57389998 0.11560462 0.064545348
0.57350957 0.11510339 0.064537369
0.57311922 0.11460216 0.064529397
0.57195705 0.11462969 0.064877585
0.57156736 0.1141293 0.06486962
0.57040721 0.11415935 0.065217823
0.57001817 0.11365982 0.065209873
0.56962913 0.11316029 0.065201923
0.56924003 0.11266076 0.065193973
0.56885099 0.11216123 0.065186016
0.56846189 0.1116617 0.065178066
0.56807286 0.11116217 0.065170117
0.56768376 0.11066265 0.065162167
0.56729472 0.11016311 0.06515421
0.56690568 0.10966358 0.06514626
0.56651658 0.10916405 0.06513831
0.56612754 0.10866453 0.06513036
0.56573844 0.108165 0.065122403
0.5653494 0.10766546 0.065114453
0.5649603 0.10716594 0.065106504
0.56457126 0.10666641 0.065098554
0.56418222 0.10616688 0.065090597
0.56379312 0.10566735 0.065082647
0.56340408 0.10516782 0.065074697
0.56225723 0.10521489 0.065423176
0.56262594 0.10416876 0.06505879
0.56223691 0.10366923 0.06505084
0.56184781 0.1031697 0.065042891
0.56145877 0.10267017 0.065034941
0.56106967 0.10217065 0.065026984
0.56068063 0.10167111 0.065019034
0.56029153 0.10117158 0.065011084
0.55990249 0.10067205 0.065003134
0.56026524 0.099618271 0.06463863
0.55987555 0.09911789 0.064630665
0.55948579 0.098617509 0.0646227
0.55909604 0.098117128 0.064614728
0.55870634 0.097616747 0.064606763
0.55906516 0.096557826 0.064242162
0.55867475 0.096056595 0.064234182
0.55903155 0.094995148 0.063869551
0.55864054 0.094493069 0.063861564
0.55899531 0.093429074 0.063496895
0.55860358 0.092926137 0.063488893
0.55895644 0.091859594 0.06312418
0.55930793 0.090791307 0.062759429
0.5589149 0.090286672 0.062751397
0.55852187 0.089782037 0.062743358
0.55812883 0.089277402 0.062735327
0.5577358 0.088772766 0.062727295
0.55734277 0.088268131 0.062719263
0.55694968 0.087763496 0.062711231
0.55655664 0.08725886 0.0627032
0.55616361 0.086754225 0.062695161
0.55650848 0.08567746 0.062330294
0.55537754 0.085744955 0.062679097
0.55498451 0.085240319 0.062671065
0.55385548 0.085310392 0.063019931
0.5534631 0.084806606 0.063011914
0.55307072 0.084302828 0.06300389
0.55194443 0.084376276 0.063352793
0.55042839 0.083949335 0.063693725
0.54891503 0.083525807 0.064034715
0.54706335 0.084187582 0.064740725
0.54740423 0.083105713 0.064375773
0.54701453 0.082605332 0.064367808
0.54589617 0.082688995 0.064716876
0.54550707 0.082189463 0.064708918
0.54511803 0.081689931 0.064700969
0.54472899 0.081190407 0.064693019
0.5443399 0.080690876 0.064685069
0.54395086 0.080191344 0.064677112
0.54356176 0.07969182 0.064669162
0.54389668 0.078602292 0.064304091
0.54350698 0.078101911 0.064296126
0.54383993 0.077009797 0.063930988
0.54417157 0.075916022 0.06356585
0.54450184 0.074820541 0.063200682
0.5448308 0.073723353 0.062835485
0.54515845 0.07262443 0.062470242
0.54476541 0.072119795 0.062462211
0.54509103 0.071018361 0.062096946
0.5454154 0.06991522 0.061731655
0.54573834 0.068810374 0.061366342
0.54606003 0.067703828 0.061000995
0.54566431 0.067195788 0.060992908
0.54526865 0.066687748 0.06098482
0.54630238 0.064975858 0.060262091
0.54447728 0.065671675 0.060968649
0.54479498 0.064559989 0.060603201
0.54582405 0.062842168 0.059880398
0.54542637 0.06233158 0.05987227
0.54502869 0.061820988 0.059864141
0.544631 0.061310396 0.059856012
0.54281318 0.062015537 0.060562696
0.54091603 0.061099317 0.060895864
0.63358814 0.16224436 0.057720009
0.63064754 0.16302562 0.058778673
0.62940091 0.16294393 0.059126113
0.62899995 0.16242908 0.059117917
0.62775528 0.16234995 0.059465393
0.625669 0.16270909 0.060168583
0.62358534 0.16307165 0.060871847
0.61236775 0.16537711 0.064744689
0.611139 0.16531843 0.065092511
0.61074924 0.16481805 0.065084547
0.60952252 0.16476189 0.065432392
0.60913348 0.16426237 0.065424435
0.60874438 0.16376284 0.065416485
0.60752028 0.16371007 0.065764382
0.6071319 0.16321139 0.065756448
0.60674351 0.16271272 0.065748505
0.60635507 0.16221404 0.06574057
0.60679907 0.16126518 0.065376729
0.60641003 0.16076566 0.065368779
0.60602093 0.16026613 0.065360822
0.60563189 0.1597666 0.065352872
0.60524279 0.15926707 0.065344922
0.61274874 0.15371509 0.061769139
0.61069763 0.15411933 0.062473048
0.6127845 0.15224199 0.06139693
0.61321455 0.15127528 0.061032806
0.61281753 0.15076554 0.061024692
0.61407071 0.14933671 0.060304474
0.61367238 0.14882526 0.060296334
0.61327404 0.14831382 0.060288191
0.61287564 0.14780238 0.060280051
0.6124773 0.14729093 0.060271911
0.61207896 0.14677949 0.060263768
0.61168063 0.14626805 0.060255628
0.61128229 0.1457566 0.060247485
0.61088395 0.14524516 0.060239345
0.60966647 0.14520092 0.060587376
0.60926878 0.14469032 0.060579248
0.60805333 0.14464864 0.06092732
0.60683918 0.14460865 0.061275423
0.60644281 0.14409976 0.06126732
0.60523063 0.14406236 0.061615482
0.60483491 0.14355431 0.061607394
0.60362476 0.14351943 0.061955579
0.6032297 0.14301224 0.061947506
0.6028347 0.14250505 0.061939429
0.60243964 0.14199786 0.061931357
0.60123283 0.14196724 0.062279604
0.60083842 0.1414609 0.062271547
0.59963357 0.14143282 0.062619835
0.59923983 0.14092733 0.062611789
0.59884614 0.14042184 0.062603742
0.59764391 0.14039718 0.062952086
0.59725088 0.13989253 0.062944055
0.59685785 0.13938791 0.062936023
0.59646481 0.13888326 0.062927984
0.59526587 0.13886289 0.063276418
0.59487349 0.1383591 0.063268401
0.59448111 0.13785531 0.063260384
0.59408873 0.13735153 0.06325236
0.59369636 0.13684775 0.063244343
0.5925014 0.13683243 0.063592836
0.59210968 0.1363295 0.063584827
0.59171796 0.13582656 0.063576825
0.59132624 0.13532363 0.063568816
0.59093457 0.1348207 0.063560814
0.59054285 0.13431777 0.063552804
0.59015113 0.13381483 0.063544802
0.58975941 0.1333119 0.063536793
0.58936769 0.13280897 0.063528791
0.58897597 0.13230602 0.063520782
0.58858424 0.1318031 0.06351278
0.58819252 0.13130017 0.06350477
0.5878008 0.13079724 0.063496768
0.58740908 0.13029429 0.063488759
0.58701742 0.12979136 0.063480757
0.58583307 0.12978967 0.063829459
0.58544201 0.12928759 0.063821472
0.58505094 0.12878551 0.063813478
0.58465993 0.12828343 0.063805483
0.58426887 0.12778135 0.063797496
0.5838778 0.12727925 0.063789502
0.58348674 0.12677717 0.063781507
0.58309567 0.12627509 0.06377352
0.58270466 0.12577301 0.063765526
0.5823136 0.12527092 0.063757531
0.58192253 0.12476885 0.063749537
0.58153147 0.12426676 0.06374155
0.58114046 0.12376468 0.063733555
0.579575 0.12327367 0.064074479
0.57918459 0.12277243 0.064066499
0.57879424 0.1222712 0.06405852
0.57840383 0.12176997 0.06405054
0.57801342 0.12126874 0.064042561
0.57762307 0.12076751 0.064034581
0.57723266 0.12026627 0.064026602
0.57684225 0.11976504 0.064018622
0.5764519 0.11926381 0.064010642
0.57606149 0.11876258 0.06400267
0.57567108 0.11826135 0.063994691
0.57528073 0.11776012 0.063986711
0.57489032 0.11725889 0.063978732
0.57449991 0.11675766 0.063970752
0.57410955 0.11625642 0.063962772
0.57371914 0.11575519 0.063954793
0.57255596 0.11578076 0.064303957
0.57216626 0.11528038 0.064295992
0.57177651 0.11478 0.064288028
0.57061607 0.11480894 0.064637229
0.57022703 0.11430942 0.064629279
0.56906855 0.11434091 0.06497851
0.56944889 0.11331035 0.064613372
0.56905979 0.11281083 0.064605422
0.56867075 0.1123113 0.064597473
0.56828165 0.11181176 0.064589515
0.56789261 0.11131224 0.064581566
0.56750357 0.11081271 0.064573616
0.56711447 0.11031318 0.064565666
0.56672543 0.10981365 0.064557709
0.56633633 0.10931412 0.064549759
0.56594729 0.10881459 0.064541809
0.56555825 0.10831506 0.064533859
0.56516916 0.10781553 0.064525902
0.56401932 0.10785808 0.06487532
0.56363088 0.10735941 0.064867377
0.5632425 0.10686073 0.064859442
0.56285411 0.10636205 0.0648515
0.56322384 0.10531788 0.064486146
0.5628348 0.10481835 0.064478196
0.5624457 0.10431883 0.064470246
0.56205666 0.1038193 0.064462289
0.56166756 0.10331976 0.064454339
0.56127852 0.10282023 0.06444639
0.56088942 0.10232071 0.06443844
0.56050038 0.10182118 0.064430483
0.56011134 0.10132165 0.064422533
0.55972224 0.10082212 0.064414583
0.55933321 0.10032259 0.064406633
0.55894411 0.099823058 0.064398676
0.55855507 0.099323526 0.064390726
0.55816603 0.098824002 0.064382777
0.55777693 0.09832447 0.064374827
0.55813605 0.097266689 0.064009249
0.55774635 0.096766308 0.064001285
0.55810356 0.095705941 0.063635647
0.55771315 0.095204704 0.063627668
0.55806834 0.094141819 0.063262016
0.55767727 0.093639731 0.063254021
0.55803043 0.092574291 0.062888324
0.55838227 0.091507152 0.062522598
0.5579899 0.091003366 0.062514581
0.55759752 0.09049958 0.062506564
0.55720514 0.089995794 0.062498543
0.55681276 0.089492008 0.062490523
0.55642039 0.08898823 0.062482502
0.55602801 0.088484444 0.062474485
0.55563563 0.087980658 0.062466465
0.55524325 0.087476872 0.062458444
0.55485088 0.086973086 0.062450428
0.5544585 0.086469308 0.062442407
0.55406612 0.085965522 0.062434386
0.5529381 0.086036161 0.062784247
0.55181146 0.086108498 0.063134134
0.55142039 0.085606419 0.063126147
0.55102932 0.085104331 0.063118152
0.54990536 0.085180074 0.063468091
0.54878259 0.08525756 0.063818082
0.54839289 0.084757179 0.063810118
0.54654121 0.085417554 0.064518102
0.54615283 0.084918879 0.064510167
0.54576445 0.084420197 0.064502232
0.545376 0.083921522 0.064494289
0.54498762 0.08342284 0.064486355
0.54459924 0.082924165 0.064478412
0.54421079 0.082425483 0.064470477
0.54382241 0.081926808 0.064462535
0.54343402 0.081428126 0.0644546
0.54304558 0.080929451 0.064446658
0.5426572 0.080430768 0.064438723
0.54371613 0.078752607 0.063714534
0.54332644 0.078252234 0.063706569
0.54365909 0.077160373 0.063340433
0.54399037 0.076066852 0.062974289
0.54432034 0.074971624 0.062608123
0.544649 0.073874697 0.062241923
0.54497641 0.072776027 0.061875675
0.54458332 0.072271392 0.061867643
0.5449087 0.071170211 0.06150138
0.54523271 0.070067324 0.061135087
0.54555535 0.068962738 0.060768768
0.54587674 0.067856453 0.060402419
0.54619682 0.066748425 0.060036022
0.54508537 0.066840373 0.060386244
0.54532444 0.064109504 0.05964528
0.54706472 0.06178711 0.058562081
0.54666573 0.061274819 0.058553927
0.54555559 0.061368465 0.058904175
0.54515719 0.060857024 0.058896035
0.63759774 0.16171512 0.055699505
0.63719147 0.16119348 0.055691201
0.63593918 0.16110387 0.056039516
0.63090456 0.16223106 0.057806198
0.6284132 0.1620689 0.058503121
0.62716949 0.16199037 0.058851615
0.62424308 0.16278788 0.059913561
0.60973138 0.16541149 0.064851791
0.60850561 0.16535592 0.065200649
0.60811716 0.16485724 0.065192714
0.60772878 0.16435856 0.065184772
0.60650563 0.1643064 0.065533683
0.6061179 0.16380857 0.065525763
0.60573018 0.16331075 0.065517835
0.60534245 0.16281292 0.065509915
0.60495472 0.16231509 0.065501988
0.60456693 0.16181727 0.065494061
0.6041792 0.16131943 0.065486141
0.60379148 0.1608216 0.065478213
0.60340375 0.16032378 0.065470293
0.60301602 0.15982595 0.065462366
0.60097206 0.16023822 0.066168435
0.60555029 0.15700676 0.064018495
0.61012053 0.1537651 0.061868414
0.61220455 0.15188599 0.06078925
0.61180818 0.1513771 0.060781151
0.61306137 0.14994964 0.060058944
0.61266369 0.14943905 0.060050815
0.612266 0.14892845 0.060042687
0.61186832 0.14841786 0.060034558
0.61147064 0.14790727 0.06002643
0.61107296 0.14739667 0.060018305
0.61067528 0.14688608 0.060010176
0.61027759 0.14637549 0.060002048
0.60906047 0.14633098 0.060351081
0.60866344 0.14582124 0.060342968
0.60744828 0.1457793 0.060692042
0.60705191 0.14527041 0.060683943
0.60583872 0.14523105 0.061033081
0.605443 0.14472301 0.061024994
0.60423183 0.14468616 0.06137415
0.60383677 0.14417899 0.061366078
0.60262758 0.14414468 0.061715275
0.60223323 0.14363836 0.061707214
0.60183883 0.14313202 0.061699156
0.60144448 0.14262567 0.061691094
0.60023856 0.14259565 0.062040359
0.59984487 0.14209016 0.062032312
0.59864098 0.14206268 0.062381618
0.59824795 0.14155804 0.062373586
0.59785491 0.14105341 0.062365554
0.59665358 0.14102936 0.062714934
0.5962612 0.14052558 0.062706918
0.59586883 0.1400218 0.062698893
0.59547645 0.13951801 0.062690876
0.59427851 0.13949819 0.063040301
0.59388679 0.13899525 0.063032299
0.59349507 0.13849232 0.06302429
0.59310341 0.13798939 0.063016288
0.59271169 0.13748646 0.063008279
0.59151769 0.13747174 0.063357793
0.59112668 0.13696966 0.063349798
0.59073561 0.13646758 0.063341804
0.59034455 0.13596548 0.063333809
0.58995348 0.1354634 0.063325822
0.58956242 0.13496132 0.063317828
0.58917141 0.13445924 0.063309833
0.58878034 0.13395716 0.063301846
0.58838928 0.13345507 0.063293852
0.58799821 0.13295299 0.063285857
0.5876072 0.13245091 0.063277863
0.58721614 0.13194883 0.063269876
0.58682507 0.13144675 0.063261881
0.58643401 0.13094467 0.063253887
0.58604294 0.13044259 0.0632459
0.58485961 0.13044149 0.063595623
0.5844692 0.12994024 0.063587643
0.58407885 0.12943901 0.063579664
0.58368844 0.12893778 0.063571684
0.58329803 0.12843655 0.063563704
0.58290768 0.12793532 0.063555732
0.58251727 0.12743409 0.063547753
0.58212686 0.12693286 0.063539773
0.58173651 0.12643163 0.063531794
0.58134609 0.1259304 0.063523814
0.58095568 0.12542917 0.063515835
0.58056533 0.12492794 0.063507855
0.58017492 0.12442671 0.063499875
0.57978451 0.12392547 0.063491896
0.57939416 0.12342424 0.063483924
0.57822138 0.12343679 0.063833885
0.57783163 0.12293641 0.06382592
0.57744193 0.12243603 0.063817956
0.57705218 0.12193565 0.063809991
0.57666242 0.12143527 0.063802026
0.57627273 0.12093489 0.063794062
0.57588297 0.12043451 0.063786097
0.57549328 0.11993413 0.063778132
0.57510352 0.11943375 0.06377016
0.57471383 0.11893336 0.063762195
0.57432407 0.11843298 0.063754231
0.57393438 0.1179326 0.063746266
0.57354462 0.11743223 0.063738301
0.57315493 0.11693184 0.063730337
0.57276517 0.11643147 0.063722372
0.57237548 0.11593109 0.063714407
0.57121396 0.11595806 0.064064577
0.57082492 0.11545853 0.064056627
0.57043582 0.11495901 0.064048678
0.56927699 0.11498939 0.064398907
0.5688886 0.11449071 0.064390965
0.56850022 0.11399204 0.06438303
0.56811178 0.11349336 0.064375088
0.56772339 0.11299468 0.064367153
0.56733501 0.112496 0.06435921
0.56694657 0.11199732 0.064351276
0.56655818 0.11149865 0.064343341
0.5661698 0.11099996 0.064335398
0.56578141 0.11050129 0.064327464
0.56539297 0.11000261 0.064319521
0.56500459 0.10950393 0.064311586
0.5646162 0.10900525 0.064303644
0.56422776 0.10850658 0.064295709
0.56307888 0.10854972 0.06464614
0.56269115 0.1080519 0.064638212
0.56306255 0.10701054 0.064271897
0.5619157 0.10705624 0.064622365
0.56152791 0.10655841 0.064614438
0.5618974 0.1055145 0.064248078
0.56150895 0.10501582 0.064240143
0.56112057 0.10451715 0.0642322
0.56073219 0.10401846 0.064224266
0.56034374 0.10351979 0.064216331
0.55995536 0.10302111 0.064208388
0.55956697 0.10252243 0.064200453
0.55917853 0.10202375 0.064192511
0.55803829 0.10207797 0.064543121
0.55840176 0.10102639 0.064176634
0.55801338 0.10052772 0.064168699
0.55762494 0.10002904 0.064160764
0.55723655 0.099530362 0.064152822
0.55684817 0.099031679 0.064144887
0.55720764 0.097975001 0.063778318
0.5568186 0.097475477 0.063770369
0.55717605 0.096416242 0.063403763
0.55678636 0.095915869 0.063395798
0.5571419 0.094854049 0.063029133
0.55675155 0.094352819 0.063021153
0.55710506 0.093288481 0.062654473
0.556714 0.092786402 0.062646478
0.55632293 0.092284314 0.062638484
0.55593187 0.091782235 0.062630489
0.55554086 0.091280155 0.062622502
0.55514979 0.090778068 0.062614508
0.55475873 0.090275988 0.062606514
0.55436766 0.089773908 0.062598526
0.5539766 0.089271821 0.062590532
0.55358559 0.088769741 0.062582538
0.55319452 0.088267662 0.062574551
0.55206686 0.08833804 0.062925413
0.55241239 0.087263495 0.062558562
0.55128604 0.087335579 0.062909454
0.550161 0.087409399 0.063260391
0.54977125 0.086909018 0.063252427
0.54864824 0.086985357 0.063603386
0.54825914 0.086485825 0.063595437
0.54713809 0.08656472 0.063946433
0.54674971 0.086066037 0.063938498
0.54563063 0.086147487 0.064289533
0.54451293 0.086230636 0.064640604
0.54485518 0.085151829 0.064273685
0.54446745 0.084654003 0.064265758
0.54407966 0.084156178 0.064257838
0.54369193 0.083658345 0.06424991
0.5433042 0.08316052 0.06424199
0.54291648 0.082662694 0.064234063
0.54252875 0.082164869 0.064226136
0.54286569 0.08107926 0.063859113
0.54247731 0.080580577 0.063851178
0.54353565 0.07890293 0.063124985
0.5431459 0.078402549 0.06311702
0.54347825 0.07731095 0.062749878
0.54380924 0.076217681 0.062382732
0.54413891 0.075122707 0.06201556
0.54446727 0.074026033 0.061648361
0.54479432 0.072927624 0.061281111
0.54512 0.071827553 0.060913857
0.54544437 0.070725776 0.060546573
0.54576743 0.069622293 0.060179267
0.54537237 0.069115102 0.060171194
0.54640955 0.067410193 0.059444547
0.54601318 0.066901304 0.059436444
0.54561687 0.066392407 0.059428345
0.54664868 0.064680725 0.058701612
0.54656607 0.063056439 0.058326013
0.54759198 0.061337058 0.057599135
0.54790372 0.060219109 0.057231598
0.54750341 0.059705112 0.057223413
0.54568285 0.060404126 0.057934027
0.54528385 0.059891831 0.057925873
0.54306954 0.06008539 0.058628462
0.63825655 0.16144174 0.05472729
0.63784957 0.16091923 0.054718971
0.63659698 0.16082853 0.055068277
0.63450056 0.1611722 0.05577527
0.63200325 0.161001 0.056474045
0.62991351 0.16135313 0.05718115
0.62866879 0.16127267 0.057530638
0.62742543 0.16119388 0.057880133
0.61575276 0.16441824 0.062140502
0.60748923 0.16594943 0.064970918
0.6071015 0.1654516 0.064962991
0.60671377 0.16495378 0.064955063
0.60549164 0.16490221 0.065304995
0.60593832 0.16395812 0.064939216
0.60471749 0.16390826 0.06528917
0.60433042 0.16341129 0.065281264
0.60394329 0.16291431 0.065273352
0.60272509 0.16286789 0.06562338
0.60233867 0.16237175 0.065615483
0.60195225 0.16187564 0.065607585
0.60156584 0.1613795 0.065599687
0.60035098 0.1613373 0.065949768
0.59913749 0.1612968 0.066299871
0.59709811 0.16171363 0.067008011
0.60002023 0.15939501 0.065568104
0.59798217 0.15981354 0.06627626
0.60749888 0.15382089 0.06197181
0.61040372 0.15148014 0.060531549
0.61165565 0.15005231 0.059807301
0.61125869 0.14954257 0.059799187
0.61086166 0.14903283 0.059791073
0.61046463 0.14852308 0.05978296
0.60924643 0.14847663 0.060132969
0.60967058 0.1475036 0.059766728
0.60927355 0.14699386 0.059758615
0.60805738 0.14694996 0.060108665
0.60766101 0.14644107 0.060100567
0.6064468 0.14639975 0.060450681
0.60523391 0.1463601 0.060800798
0.60402238 0.14632215 0.061150942
0.60362798 0.1458158 0.061142884
0.60323364 0.14530948 0.061134823
0.60202473 0.14527492 0.061485022
0.60163105 0.14476945 0.061476976
0.6012373 0.14426395 0.061468929
0.60084361 0.14375848 0.061460882
0.60044992 0.14325298 0.061452836
0.59924501 0.14322354 0.061803117
0.59885198 0.14271891 0.061795086
0.59764898 0.14269206 0.062145431
0.5972566 0.14218828 0.06213741
0.59686422 0.14168449 0.062129389
0.59566391 0.141661 0.062479768
0.59527224 0.14115807 0.062471762
0.59488052 0.14065515 0.062463757
0.5944888 0.1401522 0.062455747
0.59329182 0.14013298 0.062806189
0.59290075 0.1396309 0.062798202
0.59250969 0.1391288 0.062790208
0.59211868 0.13862672 0.062782213
0.59172761 0.13812464 0.062774226
0.59053463 0.13811053 0.063124746
0.59014422 0.13760929 0.063116767
0.58975387 0.13710806 0.063108794
0.58936346 0.13660683 0.063100815
0.58897305 0.1361056 0.063092835
0.58858269 0.13560437 0.063084856
0.58819228 0.13510314 0.063076876
0.58780187 0.13460191 0.063068897
0.58741152 0.13410068 0.063060917
0.58702111 0.13359945 0.063052937
0.5866307 0.13309821 0.063044958
0.58624035 0.13259698 0.063036986
0.58584994 0.13209575 0.063029006
0.58545953 0.13159452 0.063021027
0.58506918 0.13109329 0.063013047
0.58388674 0.13109282 0.063363813
0.58349699 0.13059244 0.063355848
0.58310729 0.13009205 0.063347876
0.58271754 0.12959167 0.063339911
0.58232784 0.12909129 0.063331947
0.58193809 0.12859091 0.063323982
0.58154839 0.12809053 0.063316017
0.58115864 0.12759015 0.063308053
0.58076888 0.12708977 0.063300088
0.58037919 0.12658939 0.063292123
0.57998943 0.12608901 0.063284159
0.57959974 0.12558863 0.063276194
0.57920998 0.12508824 0.063268229
0.57882029 0.12458787 0.063260265
0.57843053 0.12408749 0.0632523
0.57804084 0.12358711 0.063244335
0.57765108 0.12308673 0.063236371
0.57726139 0.12258635 0.063228399
0.57687163 0.12208597 0.063220434
0.57648188 0.12158559 0.063212469
0.57609218 0.1210852 0.063204505
0.57570243 0.12058483 0.06319654
0.57531273 0.12008444 0.063188575
0.57492298 0.11958407 0.063180611
0.57375717 0.11960483 0.063531689
0.57336813 0.11910531 0.06352374
0.57297903 0.11860578 0.06351579
0.57258999 0.11810625 0.06350784
0.57220095 0.11760671 0.063499883
0.57181185 0.11710719 0.063491933
0.57142282 0.11660766 0.063483983
0.57103372 0.11610813 0.063476034
0.56987387 0.11613656 0.063827232
0.56948549 0.11563788 0.063819297
0.5690971 0.1151392 0.063811354
0.56870866 0.11464052 0.063803419
0.56832027 0.11414184 0.063795477
0.56793189 0.11364316 0.063787542
0.56754345 0.11314449 0.063779607
0.56715506 0.11264581 0.063771665
0.56676668 0.11214713 0.06376373
0.5663783 0.11164845 0.063755788
0.56598985 0.11114977 0.063747853
0.56560147 0.11065109 0.063739911
0.56521308 0.11015242 0.063731976
0.56482464 0.10965374 0.063724041
0.56443626 0.10915506 0.063716099
0.56404787 0.10865638 0.063708164
0.56289929 0.10869928 0.064059593
0.56251156 0.10820144 0.064051673
0.56288266 0.10716034 0.063684344
0.56173605 0.10720579 0.064035818
0.56134832 0.10670797 0.064027898
0.56171745 0.10566431 0.063660532
0.56132907 0.10516563 0.063652597
0.56094062 0.10466696 0.063644655
0.55979735 0.10471665 0.063996196
0.55940962 0.10421883 0.063988276
0.55902189 0.103721 0.063980348
0.55863416 0.10322317 0.063972421
0.55824643 0.10272534 0.063964501
0.55785865 0.10222752 0.063956574
0.55747092 0.10172969 0.063948654
0.55708319 0.10123187 0.063940726
0.55669546 0.10073403 0.063932799
0.55630773 0.10023621 0.063924879
0.55591995 0.099738382 0.063916951
0.55627984 0.098682813 0.063549399
0.55589139 0.098184131 0.063541465
0.55624926 0.097126007 0.063173868
0.55586022 0.096626483 0.063165918
0.55621606 0.095565803 0.062798284
0.55582637 0.095065422 0.062790319
0.55543661 0.094565041 0.062782355
0.55504692 0.09406466 0.06277439
0.55465716 0.093564279 0.062766425
0.55426747 0.093063898 0.062758453
0.55387771 0.092563525 0.062750489
0.55348802 0.092063144 0.062742524
0.55309826 0.091562763 0.062734559
0.55270857 0.091062382 0.062726595
0.55231881 0.090562001 0.06271863
0.55192906 0.09006162 0.062710665
0.55153936 0.089561239 0.0627027
0.55114961 0.089060858 0.062694736
0.55075991 0.088560477 0.062686771
0.55037016 0.088060096 0.062678806
0.54924613 0.088134483 0.063030742
0.54812336 0.08821056 0.0633827
0.54700196 0.088288344 0.063734688
0.54661423 0.087790519 0.06372676
0.54549479 0.087870859 0.064078793
0.54510772 0.087373883 0.06407088
0.54399025 0.087456807 0.064422973
0.54360384 0.086960681 0.064415075
0.5439465 0.085882954 0.06404715
0.54355943 0.085385978 0.064039238
0.54317236 0.084889002 0.064031325
0.54278529 0.084392026 0.064023413
0.54239821 0.08389505 0.0640155
0.54201114 0.083398074 0.064007595
0.5423491 0.082314417 0.063639596
0.54268575 0.081229061 0.063271567
0.54229736 0.080730386 0.063263632
0.54335511 0.079053245 0.062535435
0.54296535 0.078552872 0.062527463
0.54401916 0.07687059 0.061799169
0.54434919 0.075776726 0.061431006
0.54467785 0.074681163 0.061062817
0.54500526 0.073583856 0.060694579
0.5453313 0.072484888 0.060326334
0.54565603 0.071384221 0.059958063
0.54597944 0.070281841 0.059589766
0.54630148 0.069177769 0.059221443
0.54733872 0.067474216 0.058492802
0.5469417 0.066964477 0.058484688
0.54654467 0.066454738 0.058476575
0.54614764 0.065944992 0.058468461
0.5478065 0.062004358 0.057002712
0.54811865 0.060887516 0.056634184
0.54771829 0.060373519 0.056626003
0.54731798 0.059859522 0.056617819
0.54549801 0.060558025 0.057330437
0.54509902 0.06004573 0.057322282
0.54470003 0.059533436 0.057314128
0.63888192 0.16264372 0.054128304
0.638475 0.16212121 0.054119986
0.63722134 0.16202855 0.054470267
0.63850713 0.16064551 0.053744737
0.63725412 0.16055369 0.054095034
0.63431299 0.16132841 0.055162657
0.63306397 0.1612417 0.055513032
0.63350302 0.16028848 0.055146102
0.63225532 0.16020349 0.055496506
0.63100898 0.16012017 0.055846937
0.63144672 0.15916528 0.055479981
0.6048013 0.16742939 0.065460838
0.60525101 0.16648981 0.065094128
0.6048646 0.16599368 0.065086231
0.60447818 0.16549756 0.065078333
0.60492522 0.16455454 0.064711541
0.60370535 0.1645053 0.065062538
0.60331893 0.16400917 0.06505464
0.60293251 0.16351305 0.065046743
0.60171533 0.16346718 0.065397769
0.60049939 0.16342303 0.065748818
0.60011435 0.16292861 0.06574095
0.59972924 0.16243418 0.065733083
0.59934413 0.16193976 0.065725207
0.59730411 0.16235436 0.066435322
0.59609348 0.16231705 0.066786505
0.59736276 0.16091271 0.066060618
0.59532732 0.16133331 0.066770844
0.59329456 0.16175728 0.067481108
0.5945611 0.16034956 0.06675519
0.60945916 0.14913839 0.05954149
0.60824192 0.14909257 0.059892539
0.60784626 0.14858453 0.059884451
0.60745054 0.14807649 0.059876364
0.60705489 0.14756845 0.059868276
0.60584098 0.14752685 0.06021937
0.60462838 0.14748693 0.060570493
0.60341716 0.14744873 0.060921639
0.60220724 0.14741223 0.061272815
0.60262978 0.14643775 0.060905546
0.60142118 0.14640296 0.061256751
0.60021389 0.14636989 0.061608002
0.60063511 0.14539368 0.061240684
0.60024202 0.14488904 0.061232653
0.59984899 0.14438441 0.061224617
0.59945595 0.14387977 0.061216585
0.59825194 0.14385097 0.061567906
0.59785956 0.14334719 0.061559886
0.59665763 0.14332089 0.061911225
0.59626591 0.14281796 0.061903216
0.59587419 0.14231502 0.06189521
0.59467489 0.14229214 0.062246602
0.59428382 0.14179005 0.062238611
0.59389275 0.14128797 0.062230621
0.59350175 0.14078589 0.062222626
0.59230572 0.14076726 0.062574089
0.59191531 0.14026603 0.062566109
0.59152496 0.1397648 0.062558129
0.59113455 0.13926357 0.06255015
0.59074414 0.13876234 0.06254217
0.5895521 0.13874884 0.062893733
0.58916235 0.13824846 0.062885769
0.58877265 0.13774808 0.062877804
0.5883829 0.1372477 0.062869839
0.5879932 0.13674732 0.062861875
0.58760345 0.13624693 0.06285391
0.58721375 0.13574655 0.062845945
0.586824 0.13524617 0.062837981
0.5864343 0.13474581 0.062830016
0.58604455 0.13424541 0.062822051
0.58565485 0.13374504 0.062814087
0.5852651 0.13324466 0.062806115
0.58487535 0.13274428 0.06279815
0.58448565 0.1322439 0.062790185
0.5840959 0.13174352 0.062782221
0.58291453 0.13174361 0.063133977
0.58252543 0.13124408 0.063126028
0.58213639 0.13074455 0.063118078
0.58174729 0.13024502 0.063110128
0.58135825 0.12974548 0.063102171
0.58096915 0.12924595 0.063094221
0.58058012 0.12874644 0.063086271
0.58019108 0.1282469 0.063078322
0.57980198 0.12774737 0.063070364
0.57941294 0.12724784 0.063062415
0.57902384 0.12674831 0.063054465
0.5786348 0.12624878 0.063046515
0.5782457 0.12574925 0.063038558
0.57785666 0.12524973 0.063030608
0.57746762 0.1247502 0.063022658
0.57707852 0.12425067 0.063014708
0.57668948 0.12375113 0.063006751
0.57630038 0.1232516 0.062998801
0.57591134 0.12275208 0.062990852
0.5755223 0.12225255 0.062982902
0.5751332 0.12175301 0.062974945
0.57474416 0.12125349 0.062966995
0.57435507 0.12075396 0.062959045
0.57396603 0.12025443 0.062951095
0.57357693 0.1197549 0.062943138
0.57318789 0.11925537 0.062935188
0.57279885 0.11875584 0.062927239
0.57240975 0.11825631 0.062919289
0.57202071 0.11775678 0.062911332
0.57163161 0.11725725 0.062903382
0.57124257 0.11675772 0.062895432
0.57008237 0.11678504 0.063247621
0.56969398 0.11628637 0.063239686
0.56930554 0.11578768 0.063231744
0.56891716 0.11528901 0.063223809
0.56852877 0.11479033 0.063215874
0.56814033 0.11429165 0.063207932
0.56698477 0.11432493 0.063560218
0.56659704 0.1138271 0.063552298
0.56620932 0.11332928 0.06354437
0.56582159 0.11283145 0.063536443
0.5654338 0.11233362 0.063528523
0.56504607 0.11183579 0.063520595
0.56465834 0.11133797 0.063512675
0.56427062 0.11084013 0.063504748
0.56388289 0.11034231 0.063496821
0.56349516 0.10984448 0.063488901
0.56310737 0.10934666 0.063480973
0.56271964 0.10884883 0.063473046
0.56233191 0.108351 0.063465126
0.56194419 0.10785317 0.063457198
0.56155646 0.10735535 0.063449278
0.56116873 0.10685752 0.063441351
0.56002438 0.10690526 0.063793868
0.56039321 0.10586186 0.063425504
0.56000549 0.10536403 0.063417576
0.55886316 0.10541433 0.063770138
0.55847609 0.10491735 0.063762225
0.55808902 0.10442038 0.063754313
0.55770195 0.1039234 0.0637464
0.55731487 0.10342643 0.063738488
0.5569278 0.10292945 0.063730583
0.55654073 0.10243247 0.06372267
0.55615366 0.1019355 0.063714758
0.55576658 0.10143852 0.063706845
0.55537951 0.10094155 0.063698933
0.55499244 0.10044457 0.063691027
0.55535263 0.099390104 0.063322484
0.5549649 0.098892279 0.063314557
0.55457711 0.098394454 0.063306637
0.55418938 0.097896621 0.06329871
0.5545463 0.096837908 0.0629301
0.55415791 0.096339226 0.062922165
0.55376947 0.095840551 0.062914222
0.55338109 0.095341869 0.062906288
0.5529927 0.094843194 0.062898345
0.55260426 0.094344512 0.06289041
0.55221587 0.093845837 0.062882468
0.55182749 0.093347155 0.062874533
0.55143905 0.09284848 0.062866598
0.55105066 0.092349797 0.062858656
0.55066228 0.091851123 0.062850721
0.5502739 0.09135244 0.062842779
0.55062217 0.090282664 0.062473997
0.55023307 0.089783132 0.062466044
0.54910868 0.089856409 0.062818967
0.54798555 0.089931384 0.063171916
0.54686379 0.090008065 0.063524894
0.54647672 0.089511082 0.063516982
0.54535693 0.089590348 0.06387002
0.54497051 0.089094222 0.063862123
0.5445841 0.088598102 0.063854225
0.54419768 0.088101976 0.063846327
0.54308122 0.088185459 0.064199418
0.54269546 0.087690189 0.064191535
0.54303843 0.086613595 0.063822635
0.54265201 0.086117476 0.063814737
0.54226559 0.08562135 0.063806839
0.54187918 0.085125223 0.063798949
0.54149276 0.084629096 0.063791052
0.54183185 0.083547369 0.063422054
0.54216951 0.082463972 0.063053049
0.54250586 0.08137887 0.062684022
0.54211742 0.080880195 0.06267608
0.54317456 0.079203568 0.061945878
0.54350698 0.078113332 0.061576746
0.54383796 0.07702142 0.061207607
0.5441677 0.075927816 0.060838446
0.54449612 0.074832506 0.060469251
0.54554266 0.073142231 0.059738811
0.54586774 0.072042666 0.059369553
0.54619145 0.070941396 0.059000265
0.54651392 0.069838427 0.058630951
0.54683506 0.068733722 0.058261588
0.54715478 0.067627348 0.057892222
0.54747325 0.066519275 0.057522826
0.54707557 0.06600868 0.057514697
0.54667789 0.065498091 0.057506572
0.54762137 0.06215851 0.05639812
0.54864466 0.060438484 0.055667225
0.54824364 0.059923638 0.055659033
0.54784268 0.059408791 0.055650838
0.54602265 0.060105931 0.056365445
0.545623 0.059592783 0.056357279
0.54522336 0.05907964 0.05634911
0.63910037 0.16332319 0.053521
0.63869345 0.16280068 0.053512681
0.63828647 0.16227818 0.053504366
0.63787949 0.16175568 0.053496048
0.63747257 0.16123317 0.053487729
0.63706559 0.16071066 0.053479411
0.63581425 0.16062029 0.053830735
0.63625169 0.15966564 0.053462777
0.63584471 0.15914313 0.053454459
0.63375294 0.15949002 0.054165509
0.63250548 0.15940478 0.054516938
0.63294166 0.1584484 0.054148927
0.63253599 0.1579276 0.054140639
0.63213038 0.15740679 0.054132346
0.6308856 0.15732497 0.054483831
0.63215756 0.15592539 0.053756002
0.6309135 0.15584439 0.054107476
0.60385108 0.16658762 0.064861536
0.60346538 0.16609235 0.064853653
0.60474592 0.16470383 0.064126
0.60352635 0.16465434 0.064477995
0.60230809 0.16460653 0.064829998
0.60192233 0.16411124 0.064822115
0.6007061 0.16406599 0.065174155
0.59949124 0.16402242 0.065526225
