# .PCD v0.7 - Point Cloud Data file format
VERSION 0.7
FIELDS x y z
SIZE 4 4 4
TYPE F F F
COUNT 1 1 1
WIDTH 1363
HEIGHT 1
VIEWPOINT 0 0 0 1 0 0 0
POINTS 1363
DATA ascii
0.54326963 -0.070937499 0.073493041
0.54282624 -0.071506813 0.073483981
0.54238284 -0.072076127 0.073474914
0.54086328 -0.072469257 0.073756993
0.54042053 -0.073037714 0.07374794
0.53997779 -0.073606171 0.073738895
0.53953499 -0.074174635 0.073729843
0.53846216 -0.073994197 0.074021049
0.53802007 -0.074561805 0.074012019
0.53757799 -0.07512942 0.074002981
0.5371359 -0.07569702 0.073993944
0.53669381 -0.076264627 0.073984914
0.53625172 -0.076832227 0.073975876
0.53580964 -0.077399842 0.073966838
0.53474206 -0.077212557 0.074258178
0.53430063 -0.077779323 0.074249156
0.53385919 -0.078346081 0.074240133
0.53341776 -0.078912832 0.074231111
0.53297633 -0.079479598 0.074222088
0.53253496 -0.080046348 0.074213065
0.53209352 -0.080613106 0.074204043
0.53165209 -0.081179872 0.074195027
0.53121066 -0.081746623 0.074186005
0.53076923 -0.082313381 0.074176982
0.5303278 -0.082880147 0.074167959
0.52988636 -0.083446898 0.074158937
0.52944493 -0.084013648 0.074149914
0.5290035 -0.084580414 0.074140891
0.52794594 -0.084380403 0.07443241
0.52750516 -0.084946312 0.074423403
0.52706438 -0.085512213 0.074414395
0.52662367 -0.086078122 0.074405387
0.52618289 -0.086644031 0.074396379
0.52574211 -0.08720994 0.074387372
0.52468914 -0.087003969 0.074678987
0.52424908 -0.087569021 0.074669994
0.52319807 -0.087360509 0.074961647
0.52275866 -0.087924711 0.074952662
0.5223192 -0.088488922 0.074943684
0.52127093 -0.08827699 0.075235389
0.52083212 -0.088840351 0.075226419
0.52039337 -0.089403696 0.075217448
0.51995456 -0.08996705 0.075208485
0.51951581 -0.090530403 0.075199515
0.51907706 -0.091093756 0.075190544
0.51803333 -0.090875849 0.075482368
0.51759517 -0.091438368 0.07547342
0.51715708 -0.092000864 0.075464465
0.51671898 -0.092563368 0.075455509
0.51628083 -0.093125865 0.075446554
0.51584274 -0.093688369 0.075437598
0.51540464 -0.094250865 0.07542865
0.51496655 -0.094813369 0.075419694
0.51452839 -0.095375881 0.075410739
0.5140903 -0.095938385 0.075401783
0.51365221 -0.096500881 0.075392835
0.51321405 -0.097063385 0.075383879
0.51277596 -0.097625881 0.075374924
0.51233786 -0.098188385 0.075365968
0.51189971 -0.098750897 0.075357012
0.51146162 -0.099313401 0.075348064
0.51102352 -0.099875897 0.075339109
0.51058543 -0.1004384 0.075330153
0.51014727 -0.1010009 0.075321198
0.50970918 -0.1015634 0.075312242
0.50927109 -0.10212591 0.075303294
0.50883293 -0.10268842 0.075294338
0.50839484 -0.10325091 0.075285383
0.50795674 -0.10381342 0.075276427
0.50751865 -0.10437591 0.075267471
0.5070805 -0.10493842 0.075258523
0.5066424 -0.10550091 0.075249568
0.50620431 -0.10606343 0.075240612
0.50576615 -0.10662593 0.075231656
0.50532806 -0.10718843 0.075222701
0.50899345 -0.12896663 0.069974273
0.50969559 -0.13118094 0.069362357
0.51039505 -0.13339871 0.068750367
0.50994301 -0.13397908 0.068741135
0.50949097 -0.13455945 0.068731897
0.50903893 -0.13513984 0.068722658
0.50858694 -0.13572021 0.068713419
0.5081349 -0.13630058 0.06870418
0.50768286 -0.13688096 0.068694942
0.50723082 -0.13746132 0.068685703
0.50620902 -0.13721536 0.068977945
0.50518852 -0.13696766 0.069270246
0.50473779 -0.13754633 0.069261037
0.50043362 -0.1337252 0.071051881
0.49998692 -0.13429877 0.071042754
0.5006718 -0.13653526 0.070430465
0.50022376 -0.13711052 0.070421308
0.49977571 -0.13768578 0.070412152
0.49989146 -0.13909504 0.07010138
0.49944273 -0.13967118 0.070092209
0.49899402 -0.14024729 0.070083037
0.49854529 -0.14082341 0.070073873
0.49865773 -0.14223692 0.069763035
0.49820834 -0.14281389 0.069753848
0.49775898 -0.14339086 0.069744669
0.4973096 -0.14396784 0.069735482
0.49686021 -0.1445448 0.069726296
0.49696869 -0.14596342 0.069415383
0.49651864 -0.14654124 0.069406182
0.4966251 -0.14796242 0.069095224
0.4961744 -0.14854109 0.069086015
0.49627894 -0.14996485 0.068774998
0.49582756 -0.15054438 0.068765774
0.49593005 -0.15197065 0.068454735
0.49547803 -0.15255103 0.068445496
0.49502599 -0.1531314 0.068436258
0.49512583 -0.15456109 0.068125166
0.49467316 -0.15514231 0.06811592
0.49422047 -0.15572354 0.068106666
0.49431765 -0.15715662 0.067795515
0.4938643 -0.1577387 0.067786254
0.49395955 -0.15917438 0.067475043
0.49350551 -0.1597573 0.06746576
0.4930515 -0.16034022 0.067456484
0.49259749 -0.16092315 0.0674472
0.49214348 -0.16150607 0.067437924
0.49168944 -0.16208901 0.067428641
0.49123544 -0.16267194 0.067419365
0.4907814 -0.16325486 0.067410089
0.49032739 -0.16383779 0.067400806
0.48987338 -0.16442072 0.06739153
0.48941934 -0.16500364 0.067382246
0.48896533 -0.16558656 0.06737297
0.48851132 -0.16616949 0.067363694
0.48805729 -0.16675241 0.067354411
0.48760328 -0.16733535 0.067345135
0.48714927 -0.16791826 0.067335851
0.48669523 -0.1685012 0.067326576
0.48624122 -0.16908412 0.067317292
0.48578721 -0.16966705 0.067308016
0.48533317 -0.17024998 0.067298733
0.48487917 -0.1708329 0.067289457
0.48442513 -0.17141584 0.067280181
0.48397112 -0.17199875 0.067270897
0.48351711 -0.17258167 0.067261621
0.48253039 -0.17229056 0.067554615
0.48260906 -0.17374754 0.067243062
0.48162368 -0.17345475 0.067536078
0.48117033 -0.17403682 0.067526817
0.48018697 -0.17374149 0.067819849
0.47973427 -0.17432271 0.067810595
0.47928157 -0.17490394 0.067801349
0.47830087 -0.17460521 0.068094432
0.47784883 -0.17518559 0.068085194
0.43814355 -0.1233429 0.08794076
0.43773526 -0.12386711 0.087932415
0.43784505 -0.12528403 0.087621532
0.43691871 -0.12491553 0.087915726
0.43651041 -0.12543973 0.087907381
0.43610212 -0.12596394 0.087899044
0.43569383 -0.12648815 0.0878907
0.43528554 -0.12701237 0.087882355
0.43487728 -0.12753657 0.08787401
0.43446898 -0.12806077 0.087865666
0.43354788 -0.12768543 0.088159993
0.43314025 -0.12820879 0.088151664
0.43273264 -0.12873214 0.088143334
0.43232501 -0.1292555 0.088134997
0.43191737 -0.12977886 0.088126667
0.43150976 -0.13030222 0.088118337
0.43110213 -0.13082558 0.088110007
0.43069452 -0.13134892 0.088101678
0.43028688 -0.13187228 0.088093348
0.42937246 -0.13148847 0.088387787
0.42896551 -0.13201098 0.088379472
0.46293181 -0.19433792 0.067780323
0.46298462 -0.19582801 0.067468271
0.46303606 -0.19731981 0.067156188
0.46207923 -0.19699046 0.067449771
0.46212935 -0.19848397 0.067137659
0.461676 -0.19906606 0.067128398
0.46122262 -0.19964813 0.067119129
0.46026844 -0.19931534 0.067412756
0.45981574 -0.19989657 0.06740351
0.45886356 -0.19956125 0.067697182
0.45791265 -0.19922425 0.067990877
0.45596668 -0.19704901 0.068890527
0.45551729 -0.19762598 0.06888134
0.45506793 -0.19820294 0.068872154
0.45461854 -0.19877991 0.068862967
0.45317808 -0.1975136 0.069459796
0.44976071 -0.1925538 0.071268789
0.4444305 -0.18537627 0.073978089
0.44251373 -0.18316363 0.074878313
0.44158536 -0.18279764 0.075172499
0.44016677 -0.18150322 0.075769767
0.43924174 -0.181133 0.076063998
0.43880826 -0.18168956 0.076055139
0.43788522 -0.18131682 0.0763494
0.43696347 -0.18094231 0.07664372
0.43604308 -0.18056615 0.076938041
0.43561158 -0.18112014 0.076929219
0.43469319 -0.18074141 0.077223584
0.43377608 -0.18036102 0.077517971
0.43286029 -0.17997886 0.077812411
0.4324308 -0.18053029 0.077803634
0.43200132 -0.18108173 0.077794857
0.43157181 -0.18163316 0.077786081
0.43114233 -0.18218462 0.077777296
0.43071282 -0.18273605 0.07776852
0.43028334 -0.18328749 0.077759743
0.42985386 -0.18383892 0.077750966
0.42942435 -0.18439038 0.077742189
0.42899483 -0.18494181 0.077733412
0.42856535 -0.18549325 0.077724628
0.42813587 -0.18604468 0.077715851
0.42818403 -0.18754078 0.077403679
0.42823088 -0.18903854 0.077091508
0.42875266 -0.19148435 0.076475903
0.42879623 -0.1929864 0.076163642
0.4288384 -0.19449012 0.075851373
0.43030229 -0.19884221 0.074628741
0.56344724 -0.050825264 0.071982324
0.56300116 -0.051397976 0.071973205
0.56255513 -0.05197069 0.071964093
0.56210905 -0.052543405 0.071954973
0.56166297 -0.053116124 0.071945861
0.56121689 -0.053688832 0.071936741
0.56077087 -0.054261547 0.071927622
0.56032479 -0.054834265 0.07191851
0.55987871 -0.05540698 0.07190939
0.55943263 -0.055979695 0.071900278
0.5589866 -0.056552406 0.071891159
0.55854052 -0.057125121 0.071882039
0.55809444 -0.057697836 0.071872927
0.55699539 -0.057551697 0.072164588
0.55655003 -0.058123559 0.072155483
0.5561046 -0.058695424 0.072146386
0.55565917 -0.059267282 0.072137281
0.55521381 -0.059839144 0.072128177
0.55476838 -0.06041101 0.072119072
0.55432302 -0.060982872 0.072109967
0.55387759 -0.061554737 0.07210087
0.55343217 -0.062126603 0.072091766
0.5529868 -0.062698469 0.072082661
0.55254138 -0.06327033 0.072073556
0.55209595 -0.063842192 0.072064459
0.55165058 -0.064414054 0.072055355
0.55120516 -0.064985916 0.07204625
0.55075979 -0.065557778 0.072037145
0.55031437 -0.06612964 0.072028041
0.54986894 -0.066701509 0.072018944
0.54942358 -0.067273371 0.072009839
0.54897815 -0.067845233 0.072000735
0.54853278 -0.068417102 0.07199163
0.54808736 -0.068988964 0.071982525
0.54655808 -0.06939508 0.072265424
0.54611337 -0.0699661 0.072256334
0.5456686 -0.070537105 0.072247244
0.54522389 -0.071108125 0.072238155
0.54414338 -0.070938155 0.072530203
0.54262084 -0.071335793 0.072813213
0.54217744 -0.071905106 0.072804153
0.54065818 -0.072298482 0.07308723
0.54021543 -0.072866939 0.073078178
0.53977263 -0.073435396 0.073069133
0.53932989 -0.074003868 0.07306008
0.53825736 -0.073823683 0.073352292
0.53781527 -0.074391291 0.073343255
0.53737319 -0.074958906 0.073334225
0.5369311 -0.075526506 0.073325187
0.53648901 -0.076094113 0.073316149
0.53604692 -0.076661713 0.073307119
0.53560483 -0.077229328 0.073298082
0.53516275 -0.077796936 0.073289044
0.53472066 -0.078364544 0.073280007
0.53365475 -0.07817582 0.073572375
0.53321332 -0.078742571 0.073563352
0.53277189 -0.079309337 0.07355433
0.53233045 -0.079876095 0.073545314
0.53188902 -0.080442846 0.073536292
0.53144759 -0.081009611 0.073527269
0.53100616 -0.081576362 0.073518246
0.53056473 -0.08214312 0.073509224
0.53012329 -0.082709886 0.073500201
0.52968186 -0.083276637 0.073491178
0.52924049 -0.083843395 0.073482156
0.52879906 -0.084410153 0.073473141
0.52774173 -0.084210396 0.073765658
0.52730101 -0.084776305 0.07375665
0.52686024 -0.085342214 0.073747635
0.52641946 -0.085908122 0.073738627
0.52597868 -0.086474031 0.073729619
0.52553791 -0.087039933 0.073720612
0.52448529 -0.086834222 0.074013233
0.52404517 -0.087399267 0.074004233
0.52299452 -0.087191015 0.074296892
0.52255511 -0.087755218 0.074287914
0.52211565 -0.088319428 0.074278928
0.52106762 -0.08810775 0.074571639
0.52062887 -0.088671111 0.074562669
0.52019012 -0.089234456 0.074553698
0.51914471 -0.089019366 0.074846491
0.51870656 -0.08958187 0.074837536
0.51826847 -0.090144373 0.07482858
0.51783037 -0.09070687 0.074819624
0.51739222 -0.091269381 0.074810669
0.51695412 -0.091831885 0.074801721
0.51651603 -0.092394382 0.074792765
0.51607788 -0.092956886 0.074783809
0.51563978 -0.09351939 0.074774854
0.51520169 -0.094081886 0.074765898
0.51476359 -0.09464439 0.07475695
0.51432544 -0.095206901 0.074747995
0.51388735 -0.095769398 0.074739039
0.51344925 -0.096331902 0.074730083
0.5130111 -0.096894406 0.074721128
0.512573 -0.097456902 0.07471218
0.51213491 -0.098019406 0.074703224
0.51169676 -0.098581918 0.074694268
0.51125866 -0.099144414 0.074685313
0.51082057 -0.099706918 0.074676357
0.51038247 -0.10026942 0.074667409
0.50994432 -0.10083192 0.074658453
0.50950623 -0.10139442 0.074649498
0.50906813 -0.10195692 0.074640542
0.50862998 -0.10251943 0.074631594
0.50819188 -0.10308193 0.074622639
0.50775379 -0.10364444 0.074613683
0.5073157 -0.10420693 0.074604727
0.50687754 -0.10476944 0.074595772
0.50643945 -0.10533193 0.074586824
0.50600135 -0.10589445 0.074577868
0.5055632 -0.10645695 0.074568912
0.50512511 -0.10701945 0.074559957
0.50468701 -0.10758195 0.074551001
0.50424886 -0.10814445 0.074542053
0.50666493 -0.12217225 0.071135946
0.50506461 -0.12111235 0.071731515
0.50750434 -0.12576614 0.070210718
0.50820923 -0.12797573 0.069596842
0.50833589 -0.12937027 0.069285296
0.5084613 -0.13076651 0.068973735
0.50858539 -0.13216445 0.068662144
0.50870812 -0.13356414 0.068350501
0.50825679 -0.13414365 0.06834127
0.50780541 -0.13472317 0.068332046
0.50735402 -0.13530269 0.068322822
0.50690269 -0.13588223 0.068313599
0.50645131 -0.13646175 0.068304375
0.50599992 -0.13704127 0.068295151
0.49909306 -0.13189393 0.07098119
0.49921381 -0.13329613 0.070669532
0.49933323 -0.13470003 0.070357844
0.4988865 -0.13527359 0.070348717
0.49900392 -0.13668005 0.070036985
0.49912009 -0.13808824 0.069725208
0.49867204 -0.13866352 0.069716051
0.49822396 -0.13923877 0.069706894
0.49777591 -0.13981403 0.069697738
0.49732786 -0.14038931 0.069688581
0.49687982 -0.14096458 0.069679417
0.49699128 -0.14237869 0.069367565
0.49654257 -0.1429548 0.069358401
0.49609384 -0.14353092 0.069349229
0.49564514 -0.14410704 0.069340058
0.49575329 -0.14552541 0.069028139
0.4958601 -0.14694548 0.068716191
0.49541008 -0.1475233 0.068706997
0.4955149 -0.14894593 0.068395011
0.4950642 -0.14952458 0.068385795
0.49516711 -0.15094981 0.06807375
0.49471572 -0.15152933 0.068064526
0.49426436 -0.15210885 0.068055302
0.49436456 -0.15353742 0.067743219
0.49391255 -0.15411781 0.067733981
0.49346051 -0.15469818 0.067724742
0.49355805 -0.15613015 0.067412607
0.49310535 -0.15671138 0.067403354
0.49320093 -0.15814592 0.067091182
0.49274758 -0.15872799 0.067081913
0.49229422 -0.15931007 0.067072645
0.49184087 -0.15989214 0.067063384
0.49138749 -0.16047421 0.067054115
0.49093413 -0.1610563 0.067044854
0.49048078 -0.16163836 0.067035586
0.49002743 -0.16222045 0.067026317
0.48957407 -0.16280252 0.067017056
0.48912072 -0.16338459 0.067007788
0.48866737 -0.16396666 0.066998526
0.48821399 -0.16454874 0.066989258
0.48776063 -0.16513082 0.066979989
0.48730728 -0.16571289 0.066970728
0.48685393 -0.16629496 0.06696146
0.48640057 -0.16687705 0.066952191
0.48594722 -0.16745913 0.06694293
0.48549387 -0.1680412 0.066933662
0.48504052 -0.16862327 0.066924401
0.48458716 -0.16920534 0.066915132
0.48413381 -0.16978742 0.066905864
0.48368046 -0.17036949 0.066896603
0.48322707 -0.17095158 0.066887334
0.48224071 -0.17066075 0.067181304
0.48178804 -0.17124198 0.06717205
0.48080364 -0.17094861 0.067466065
0.48035163 -0.171529 0.067456827
0.47936922 -0.17123307 0.067750871
0.47891784 -0.17181261 0.067741647
0.47899553 -0.17327012 0.06742911
0.47801512 -0.17297164 0.0677232
0.477036 -0.17267144 0.068017341
0.47455546 -0.1711846 0.068909027
0.47147807 -0.16734947 0.070416801
0.43743527 -0.12229463 0.087626681
0.43754613 -0.12370963 0.087314792
0.4376556 -0.1251263 0.087002896
0.43672955 -0.12475804 0.087298103
0.43632126 -0.12528226 0.087289758
0.435913 -0.12580647 0.087281413
0.4355047 -0.12633067 0.087273069
0.43509641 -0.12685488 0.087264724
0.43468812 -0.12737909 0.087256379
0.43427983 -0.1279033 0.087248035
0.43335906 -0.12752821 0.087543368
0.43295142 -0.12805156 0.087535039
0.43254381 -0.12857492 0.087526709
0.43213618 -0.12909828 0.087518372
0.43172854 -0.12962164 0.087510042
0.43132094 -0.130145 0.087501712
0.4309133 -0.13066836 0.087493382
0.43050569 -0.1311917 0.087485053
0.43009806 -0.13171506 0.087476723
0.42918393 -0.1313315 0.087772168
0.42877698 -0.13185401 0.087763853
0.46171203 -0.19234627 0.067704156
0.46176589 -0.19383444 0.067391098
0.46232221 -0.19623463 0.066774212
0.46186951 -0.19681585 0.066764966
0.46091428 -0.19648504 0.067059569
0.46096411 -0.1979783 0.066746458
0.46051142 -0.19855954 0.066737205
0.45955822 -0.19822617 0.067031853
0.45910618 -0.19880654 0.067022614
0.45815492 -0.19847064 0.0673173
0.45670643 -0.19721584 0.067915976
0.45376694 -0.1932037 0.069426566
0.45332021 -0.19377726 0.069417439
0.45337003 -0.19527051 0.069104329
0.45093903 -0.19216274 0.070311181
0.44851336 -0.18904819 0.071518123
0.44373432 -0.18428335 0.073619395
0.4423117 -0.18299541 0.074218579
0.44138363 -0.18262967 0.074513763
0.44045693 -0.18226229 0.074808948
0.43953153 -0.18189317 0.07510417
0.43860745 -0.18152237 0.075399414
0.43768471 -0.18114989 0.07569468
0.43676326 -0.18077564 0.075989999
0.4358432 -0.18039972 0.076285318
0.43541169 -0.18095371 0.076276504
0.4344936 -0.18057525 0.076571867
0.43357682 -0.18019509 0.07686726
0.43266132 -0.17981321 0.077162698
0.43223184 -0.18036464 0.077153921
0.43180236 -0.18091607 0.077145144
0.43137285 -0.1814675 0.077136368
0.43094337 -0.18201897 0.077127591
0.43051386 -0.1825704 0.077118814
0.43008438 -0.18312183 0.077110037
0.4296549 -0.18367326 0.077101253
0.42922539 -0.18422472 0.077092476
0.42879587 -0.18477616 0.077083699
0.42836639 -0.18532759 0.077074923
0.42793691 -0.18587902 0.077066146
0.42798477 -0.18737487 0.076752968
0.4280313 -0.18887237 0.07643979
0.42855248 -0.19131766 0.075822189
0.42859572 -0.19281946 0.075508915
0.42863759 -0.19432293 0.075195648
0.4296262 -0.19772533 0.074273467
0.56234848 -0.051798642 0.071289316
0.5619024 -0.052371357 0.071280196
0.56145632 -0.052944072 0.071271077
0.5610103 -0.053516783 0.071261965
0.56056422 -0.054089498 0.071252845
0.56011814 -0.054662216 0.071243726
0.55967206 -0.055234931 0.071234614
0.55922604 -0.055807646 0.071225494
0.55877995 -0.056380358 0.071216382
0.55833387 -0.056953073 0.071207263
0.55788779 -0.057525788 0.071198143
0.5567891 -0.057379901 0.071490817
0.55634367 -0.057951767 0.071481712
0.55589825 -0.058523629 0.071472608
0.55545288 -0.059095487 0.07146351
0.55500746 -0.059667353 0.071454406
0.55456209 -0.060239218 0.071445301
0.55411667 -0.06081108 0.071436197
0.55367124 -0.061382946 0.071427099
0.55322587 -0.061954807 0.071417995
0.55278045 -0.062526673 0.07140889
0.55233502 -0.063098535 0.071399786
0.55188966 -0.063670397 0.071390681
0.55144423 -0.064242266 0.071381584
0.55099887 -0.064814121 0.071372479
0.55055344 -0.06538599 0.071363375
0.55010802 -0.065957852 0.07135427
0.54966265 -0.066529714 0.071345165
0.54921722 -0.067101575 0.071336068
0.54877186 -0.067673445 0.071326964
0.54832643 -0.068245307 0.071317859
0.54788101 -0.068817168 0.071308754
0.54743564 -0.069389038 0.07129965
0.54699022 -0.0699609 0.071290553
0.54654479 -0.070532762 0.071281448
0.54546261 -0.070365563 0.071574472
0.54501784 -0.070936583 0.071565382
0.54393768 -0.070766874 0.071858428
0.54349363 -0.071337037 0.071849354
0.54304951 -0.071907192 0.071840279
0.54197198 -0.071734078 0.072133385
0.54152858 -0.072303385 0.072124325
0.54001033 -0.072696172 0.072408415
0.53956753 -0.073264629 0.072399363
0.53912479 -0.0738331 0.072390318
0.53805256 -0.073653169 0.072683528
0.53761047 -0.074220777 0.072674498
0.53716838 -0.074788392 0.07266546
0.5367263 -0.075355984 0.072656423
0.53628421 -0.075923599 0.072647385
0.53584212 -0.076491199 0.072638355
0.53540003 -0.077058807 0.072629318
0.53495795 -0.077626422 0.07262028
0.53451586 -0.07819403 0.07261125
0.53345025 -0.07800556 0.072904617
0.53300881 -0.078572318 0.072895594
0.53256738 -0.079139084 0.072886571
0.53212595 -0.079705834 0.072877549
0.53168452 -0.080272585 0.072868533
0.53124309 -0.080839351 0.072859511
0.53080165 -0.081406109 0.072850488
0.53036028 -0.08197286 0.072841465
0.52991885 -0.082539625 0.072832443
0.52947742 -0.083106376 0.07282342
0.52903599 -0.083673134 0.072814398
0.52859455 -0.0842399 0.072805375
0.52753758 -0.084040396 0.073098898
0.52709681 -0.084606297 0.07308989
0.52665603 -0.085172206 0.073080882
0.52621526 -0.085738115 0.073071875
0.52577454 -0.086304024 0.073062867
0.52533376 -0.086869933 0.073053859
0.52428144 -0.086664476 0.073347479
0.52384132 -0.08722952 0.073338479
0.52279097 -0.087021522 0.073632143
0.5223515 -0.087585732 0.073623158
0.5219121 -0.088149935 0.07361418
0.52086437 -0.087938517 0.073907889
0.52042562 -0.088501871 0.073898919
0.51998687 -0.089065224 0.073889948
0.51894176 -0.088850386 0.07418374
0.51850361 -0.08941289 0.074174784
0.51806551 -0.089975387 0.074165836
0.51762742 -0.090537891 0.07415688
0.51718926 -0.091100402 0.074147925
0.51675117 -0.091662906 0.074138969
0.51631308 -0.092225403 0.074130021
0.51587492 -0.092787907 0.074121065
0.51543683 -0.093350403 0.07411211
0.51499873 -0.093912907 0.074103154
0.51456064 -0.094475403 0.074094199
0.51412249 -0.095037922 0.07408525
0.51368439 -0.095600419 0.074076295
0.5132463 -0.096162923 0.074067339
0.51280814 -0.096725419 0.074058384
0.51237005 -0.097287923 0.074049428
0.51193196 -0.09785042 0.07404048
0.5114938 -0.098412938 0.074031524
0.51105571 -0.098975435 0.074022569
0.51061761 -0.099537939 0.074013613
0.51017952 -0.10010044 0.074004658
0.50974137 -0.10066294 0.073995709
0.50930327 -0.10122544 0.073986754
0.50886518 -0.10178794 0.073977798
0.50842702 -0.10235045 0.073968843
0.50798893 -0.10291295 0.073959887
0.50755084 -0.10347545 0.073950939
0.50711274 -0.10403796 0.073941983
0.50667459 -0.10460045 0.073933028
0.50623649 -0.10516296 0.073924072
0.5057984 -0.10572547 0.073915116
0.50536025 -0.10628797 0.073906168
0.50492215 -0.10685047 0.073897213
0.50448406 -0.10741297 0.073888257
0.5040459 -0.10797547 0.073879302
0.50419098 -0.10934594 0.073567115
0.50375217 -0.1099093 0.073558152
0.50331342 -0.11047266 0.073549181
0.50287461 -0.11103601 0.073540218
0.50243586 -0.11159936 0.073531248
0.50199705 -0.11216271 0.073522277
0.50271648 -0.1143522 0.07290674
0.50343329 -0.11654507 0.072291136
0.50472522 -0.11955614 0.071372144
0.50428182 -0.12012546 0.071363077
0.50499129 -0.12232769 0.070747323
0.50627393 -0.12535068 0.069828145
0.50812775 -0.12919694 0.068605512
0.5082528 -0.13059293 0.068292938
0.5083766 -0.13199061 0.067980342
0.50849903 -0.13339004 0.0676677
0.5080477 -0.13396956 0.067658477
0.50759631 -0.13454908 0.067649253
0.50714493 -0.1351286 0.067640021
0.5066936 -0.13570812 0.067630798
0.50567234 -0.13546264 0.067925073
0.50294501 -0.13273802 0.06912984
0.49819773 -0.12949349 0.070923612
0.49832019 -0.13089287 0.070610985
0.49844134 -0.132294 0.070298314
0.49856111 -0.13369679 0.069985636
0.49755052 -0.13343772 0.070280112
0.49766898 -0.13484223 0.069967404
0.4977861 -0.13624842 0.069654673
0.49733937 -0.13682199 0.069645539
0.49689263 -0.13739555 0.069636412
0.49644592 -0.13796912 0.069627285
0.49599919 -0.13854268 0.069618151
0.49555245 -0.13911626 0.069609024
0.49566495 -0.1405284 0.069296196
0.49521756 -0.14110282 0.069287054
0.49477017 -0.14167723 0.069277912
0.49488005 -0.14309283 0.068965003
0.49443197 -0.1436681 0.068955846
0.49453983 -0.14508621 0.068642929
0.49464634 -0.14650603 0.068329982
0.49475154 -0.14792754 0.068017006
0.4943015 -0.14850536 0.068007804
0.4944047 -0.14992942 0.067694791
0.493954 -0.15050809 0.067685574
0.4935033 -0.15108678 0.067676365
0.49360391 -0.15251426 0.067363277
0.49315253 -0.1530938 0.067354053
0.49270117 -0.15367332 0.067344822
0.49279907 -0.15510419 0.067031704
0.49234703 -0.15568458 0.067022465
0.49244297 -0.15711799 0.066709295
0.49199027 -0.15769923 0.066700049
0.49153757 -0.15828045 0.066690795
0.49108487 -0.15886168 0.066681542
0.49063218 -0.15944289 0.066672288
0.49017948 -0.16002412 0.066663034
0.48972681 -0.16060534 0.066653788
0.48927411 -0.16118658 0.066644534
0.48882142 -0.1617678 0.066635281
0.48836872 -0.16234902 0.066626027
0.48791602 -0.16293025 0.066616781
0.48746333 -0.16351147 0.066607527
0.48701063 -0.16409269 0.066598274
0.48655793 -0.16467391 0.06658902
0.48610526 -0.16525514 0.066579767
0.48565257 -0.16583636 0.06657052
0.48519987 -0.16641758 0.066561267
0.48474717 -0.1669988 0.066552013
0.48429447 -0.16758004 0.06654276
0.48384178 -0.16816126 0.066533506
0.48338908 -0.16874248 0.06652426
0.48293638 -0.16932371 0.066515006
0.4814983 -0.16961353 0.066800743
0.48104629 -0.1701939 0.066791505
0.48006287 -0.16989994 0.067086525
0.47908074 -0.16960424 0.067381598
0.47863004 -0.17018293 0.067372389
0.47659117 -0.16813095 0.068276092
0.47614244 -0.16870706 0.068266921
0.47463757 -0.16752596 0.068866447
0.47313535 -0.16634153 0.069465995
0.47013888 -0.16396236 0.07066527
0.46864465 -0.16276768 0.071264982
0.46820256 -0.16333531 0.071255952
0.43817356 -0.12250374 0.08671385
0.43776527 -0.12302795 0.086705506
0.43735701 -0.12355215 0.086697169
0.43746617 -0.12496857 0.086384267
0.43654042 -0.12460057 0.086680479
0.43613213 -0.12512478 0.086672135
0.43572384 -0.12564899 0.08666379
0.43531555 -0.1261732 0.086655445
0.43490726 -0.12669741 0.086647101
0.434499 -0.12722161 0.086638756
0.4340907 -0.12774582 0.086630411
0.43317023 -0.12737098 0.086926743
0.43276259 -0.12789434 0.086918414
0.43235499 -0.1284177 0.086910084
0.43194735 -0.12894106 0.086901754
0.43153971 -0.12946442 0.086893424
0.43113211 -0.12998778 0.086885095
0.43072447 -0.13051113 0.086876757
0.43031687 -0.13103449 0.086868428
0.42990923 -0.13155784 0.086860098
0.42950162 -0.1320812 0.086851768
0.42909399 -0.13260455 0.086843438
0.45802727 -0.18729575 0.068842091
0.46110541 -0.19423988 0.06669908
0.46115693 -0.19573031 0.066385008
0.46020269 -0.19539891 0.066680625
0.46025285 -0.19689107 0.066366531
0.45929995 -0.19655795 0.066662177
0.45884857 -0.19713749 0.066652954
0.45739803 -0.19588661 0.067253582
0.4559502 -0.19463237 0.067854241
0.45400673 -0.19245782 0.068759918
0.45107207 -0.18844271 0.07027559
0.45013174 -0.18809342 0.070571497
0.44869646 -0.18682298 0.071172439
0.44682375 -0.18611425 0.07176441
0.44588941 -0.18575731 0.072060443
0.44396913 -0.18355297 0.072966591
0.44303873 -0.18319093 0.073262699
0.44161737 -0.18190262 0.073863924
0.44069031 -0.18153633 0.074160106
0.43976456 -0.18116832 0.074456312
0.43884015 -0.18079862 0.074752547
0.43840668 -0.18135518 0.074743681
0.43748423 -0.18098295 0.075039953
0.43656307 -0.18060896 0.075336277
0.43564332 -0.18023328 0.075632602
0.43521184 -0.18078728 0.075623788
0.43429404 -0.18040909 0.07592015
0.43337756 -0.18002918 0.076216549
0.43246236 -0.17964754 0.076512992
0.43203288 -0.18019898 0.076504216
0.4316034 -0.18075041 0.076495439
0.43117389 -0.18130185 0.076486655
0.43074441 -0.18185329 0.076477878
0.4303149 -0.18240474 0.076469101
0.42988542 -0.18295617 0.076460324
0.42945594 -0.18350761 0.076451547
0.42902642 -0.18405905 0.076442771
0.42859691 -0.1846105 0.076433986
0.42816743 -0.18516193 0.07642521
0.42773795 -0.18571337 0.076416433
0.42778549 -0.18720897 0.076102257
0.42783171 -0.1887062 0.075788073
0.4283523 -0.19115098 0.075168461
0.42839521 -0.19265252 0.074854195
0.42843679 -0.19415574 0.074539922
0.42895076 -0.19660901 0.073920175
0.42946211 -0.19906573 0.073300354
0.56124967 -0.052772027 0.0705963
0.56080365 -0.053344734 0.070587188
0.56035757 -0.053917449 0.070578068
0.55991149 -0.054490168 0.070568956
0.55946547 -0.055062883 0.070559837
0.55901939 -0.055635598 0.070550717
0.55857331 -0.056208309 0.070541605
0.55747354 -0.056064382 0.070835248
0.55702817 -0.056636244 0.070826143
0.55658275 -0.05720811 0.070817038
0.55613732 -0.057779972 0.070807941
0.55569196 -0.058351837 0.070798837
0.55524653 -0.058923695 0.070789732
0.55480117 -0.059495561 0.070780627
0.55435574 -0.060067423 0.070771523
0.55391032 -0.060639288 0.070762426
0.55346495 -0.06121115 0.070753321
0.55301952 -0.061783016 0.070744216
0.5525741 -0.062354878 0.070735112
0.55212873 -0.062926739 0.070726015
0.55168331 -0.063498609 0.07071691
0.55123794 -0.064070471 0.070707805
0.55079252 -0.064642332 0.070698701
0.55034709 -0.065214194 0.070689596
0.54990172 -0.065786056 0.070680499
0.5494563 -0.066357918 0.070671394
0.54901093 -0.066929787 0.07066229
0.54856551 -0.067501649 0.070653185
0.54812008 -0.068073511 0.070644081
0.54767472 -0.068645373 0.070634983
0.54722929 -0.069217242 0.070625879
0.54678386 -0.069789104 0.070616774
0.5463385 -0.070360966 0.07060767
0.54525656 -0.070194028 0.070901699
0.54481184 -0.070765048 0.07089261
0.54373199 -0.070595592 0.071186662
0.54328787 -0.071165755 0.071177587
0.54284382 -0.071735911 0.071168512
0.54176658 -0.07156305 0.071462616
0.54132318 -0.072132356 0.071453556
0.54087979 -0.07270167 0.071444489
0.53980517 -0.072525404 0.071738653
0.53936243 -0.073093861 0.0717296
0.53891969 -0.073662326 0.071720555
0.53784776 -0.073482648 0.072014764
0.53740567 -0.074050263 0.072005734
0.53696358 -0.07461787 0.071996696
0.53652149 -0.07518547 0.071987659
0.53607941 -0.075753085 0.071978629
0.53563732 -0.076320685 0.071969591
0.53519523 -0.076888293 0.071960554
0.53475314 -0.077455908 0.071951523
0.53431106 -0.078023516 0.071942486
0.53386897 -0.078591131 0.071933448
0.53280431 -0.078402057 0.072227836
0.53236288 -0.078968823 0.072218813
0.53192145 -0.079535574 0.07220979
0.53148001 -0.080102324 0.072200768
0.53103858 -0.08066909 0.072191752
0.53059721 -0.081235848 0.07218273
0.53015578 -0.081802599 0.072173707
0.52971435 -0.082369365 0.072164685
0.52927291 -0.082936116 0.072155662
0.52883148 -0.083502874 0.072146639
0.52839005 -0.084069639 0.072137617
0.52733338 -0.083870389 0.072432145
0.5268926 -0.084436297 0.072423138
0.52645189 -0.085002206 0.07241413
0.52601111 -0.085568115 0.072405115
0.52557033 -0.086134017 0.072396107
0.52512956 -0.086699925 0.072387099
0.52407753 -0.086494721 0.072681725
0.52363747 -0.087059774 0.072672732
0.52258742 -0.086852029 0.072967388
0.52214795 -0.087416239 0.07295841
0.52170849 -0.087980442 0.072949424
0.52066112 -0.087769277 0.07324414
0.52022237 -0.088332638 0.073235177
0.51978356 -0.088895984 0.073226206
0.51873881 -0.088681407 0.073520996
0.51830065 -0.089243904 0.07351204
0.51786256 -0.089806408 0.073503084
0.51742446 -0.090368912 0.073494136
0.51698631 -0.090931423 0.073485181
0.51654822 -0.091493919 0.073476225
0.51611012 -0.092056423 0.07346727
0.51567203 -0.09261892 0.073458314
0.51523387 -0.093181424 0.073449366
0.51479578 -0.093743928 0.07344041
0.51435769 -0.094306424 0.073431455
0.51391953 -0.094868936 0.073422499
0.51348144 -0.09543144 0.073413543
0.51304334 -0.095993936 0.073404595
0.51260519 -0.09655644 0.07339564
0.5121671 -0.097118944 0.073386684
0.511729 -0.09768144 0.073377728
0.51129085 -0.098243952 0.07336878
0.51085275 -0.098806456 0.073359825
0.51041466 -0.099368952 0.073350869
0.50997657 -0.099931456 0.073341914
0.50953841 -0.10049396 0.073332958
0.50910032 -0.10105646 0.07332401
0.50866222 -0.10161896 0.073315054
0.50822407 -0.10218147 0.073306099
0.50778598 -0.10274397 0.073297143
0.50734788 -0.10330647 0.073288187
0.50690979 -0.10386897 0.073279239
0.50647163 -0.10443147 0.073270284
0.50603354 -0.10499398 0.073261328
0.50559545 -0.10555649 0.073252372
0.50515729 -0.10611898 0.073243417
0.5047192 -0.10668149 0.073234469
0.5042811 -0.10724398 0.073225513
0.50384295 -0.10780649 0.073216558
0.50398767 -0.10917671 0.072903372
0.50354892 -0.10974006 0.072894402
0.50311011 -0.11030342 0.072885439
0.50209051 -0.1100565 0.073180743
0.50223261 -0.11143013 0.072867505
0.5017938 -0.11199348 0.072858535
0.50135505 -0.11255684 0.072849564
0.50336486 -0.11775611 0.071310014
0.50349957 -0.11913908 0.070996642
0.50305682 -0.11970753 0.070987597
0.507218 -0.12681253 0.06854362
0.50734478 -0.1282057 0.068230093
0.50689602 -0.12878183 0.068220921
0.50702083 -0.13017756 0.067907348
0.50714427 -0.13157499 0.067593753
0.5072664 -0.13297412 0.067280121
0.50738722 -0.13437499 0.066966452
0.50636494 -0.13413146 0.067261703
0.50591427 -0.13471013 0.067252487
0.50375503 -0.13281465 0.068156727
0.50159973 -0.13091403 0.069061063
0.49616596 -0.12544292 0.07147903
0.49742517 -0.12849408 0.070556372
0.49754795 -0.12989236 0.070242763
0.49710387 -0.13046253 0.070233688
0.49722469 -0.13186336 0.069920033
0.49621573 -0.13160285 0.070215538
0.49633521 -0.13300538 0.069901854
0.49645337 -0.13440967 0.069588132
0.49600798 -0.13498153 0.069579028
0.49556258 -0.13555339 0.069569923
0.49511719 -0.13612525 0.069560818
0.49467176 -0.13669711 0.069551714
0.49422637 -0.13726899 0.069542617
0.49433988 -0.13867918 0.069228813
0.4938938 -0.13925189 0.069219694
0.49344775 -0.1398246 0.069210581
0.49355859 -0.14123821 0.068896726
0.49366814 -0.14265351 0.06858284
0.49377638 -0.14407055 0.068268903
0.49332833 -0.14464581 0.068259746
0.49343455 -0.14606537 0.067945801
0.49353942 -0.14748664 0.067631818
0.49364299 -0.1489096 0.067317814
0.49319294 -0.14948742 0.06730862
0.4927429 -0.15006523 0.067299418
0.49284381 -0.1514916 0.066985361
0.49239311 -0.15207027 0.066976145
0.49194241 -0.15264894 0.066966936
0.49204069 -0.15407875 0.066652805
0.49158934 -0.15465827 0.066643573
0.4916856 -0.15609059 0.066329427
0.49123359 -0.15667096 0.066320188
0.49078155 -0.15725134 0.06631095
0.49032953 -0.15783171 0.066301711
0.48987749 -0.15841208 0.066292472
0.48942545 -0.15899247 0.066283233
0.48897344 -0.15957284 0.066273995
0.4885214 -0.16015321 0.066264756
0.48806939 -0.16073357 0.066255517
0.48761734 -0.16131395 0.066246279
0.4871653 -0.16189432 0.06623704
0.48671329 -0.16247469 0.066227801
0.48626125 -0.16305508 0.066218562
0.48580921 -0.16363545 0.066209324
0.4853572 -0.16421582 0.066200085
0.48490515 -0.16479619 0.066190846
0.48445311 -0.16537656 0.066181608
0.48346472 -0.16508968 0.06647753
0.48354906 -0.16653731 0.06616313
0.48256198 -0.16624871 0.066459075
0.48157617 -0.16595837 0.066755071
0.48165923 -0.16740777 0.066440627
0.48120788 -0.16798729 0.066431403
0.48075652 -0.16856681 0.066422179
0.48030514 -0.16914633 0.066412956
0.47932267 -0.16885173 0.066709019
0.47781116 -0.16768055 0.067310371
0.47630227 -0.16650598 0.067911774
0.47373784 -0.1635747 0.069123872
0.47223556 -0.16239156 0.069725432
0.47073597 -0.16120507 0.070327029
0.469239 -0.16001512 0.0709287
0.46827114 -0.15970185 0.07122504
0.46783036 -0.16026776 0.071216032
0.46633941 -0.15907021 0.0718178
0.46537551 -0.15875182 0.072114222
0.43798444 -0.12234626 0.086096227
0.43757614 -0.12287048 0.086087883
0.43716785 -0.12339468 0.086079538
0.43727672 -0.12481083 0.085765645
0.4363513 -0.12444309 0.086062849
0.43594301 -0.12496731 0.086054504
0.43553472 -0.1254915 0.086046159
0.43512642 -0.12601572 0.086037815
0.43471813 -0.12653993 0.08602947
0.43430984 -0.12706414 0.086021125
0.43390158 -0.12758835 0.086012781
0.4329814 -0.12721376 0.086310118
0.43257377 -0.12773712 0.086301789
0.43216616 -0.12826048 0.086293459
0.43175852 -0.12878384 0.086285129
0.43135089 -0.1293072 0.086276799
0.43094328 -0.12983055 0.08626847
0.43053564 -0.13035391 0.086260132
0.43012804 -0.13087727 0.086251803
0.4297204 -0.13140061 0.086243473
0.4293128 -0.13192397 0.086235143
0.42890516 -0.13244733 0.086226813
0.4563086 -0.18439651 0.069083802
0.44639117 -0.18001434 0.072358489
0.4479402 -0.18424931 0.071125641
0.4465082 -0.18297602 0.071728617
0.4455741 -0.18261933 0.072025672
0.44414675 -0.18134008 0.072628744
0.44370997 -0.18190086 0.072619818
0.44228655 -0.18061648 0.073222987
0.44185111 -0.18117557 0.073214091
0.44092366 -0.18081038 0.073511258
0.43999758 -0.1804435 0.073808454
0.43907282 -0.1800749 0.074105673
0.43814936 -0.17970461 0.074402921
0.43771654 -0.1802603 0.074394077
0.43679506 -0.17988741 0.074691385
0.43636289 -0.18044227 0.074682549
0.43544343 -0.18006687 0.074979886
0.43501195 -0.18062086 0.074971065
0.43409446 -0.18024291 0.075268432
0.43317828 -0.17986327 0.07556583
0.4322634 -0.17948188 0.075863279
0.43183392 -0.18003331 0.075854503
0.43140444 -0.18058474 0.075845718
0.43097493 -0.18113619 0.075836942
0.43054542 -0.18168764 0.075828165
0.43011594 -0.18223907 0.075819388
0.42968646 -0.18279052 0.075810611
0.42925695 -0.18334195 0.075801834
0.42882746 -0.1838934 0.07579305
0.42839795 -0.18444483 0.075784273
0.42796847 -0.18499628 0.075775497
0.42753899 -0.18554771 0.07576672
0.42758623 -0.18704306 0.075451545
0.42763215 -0.18854003 0.075136356
0.42767671 -0.19003873 0.074821152
0.42771995 -0.19153914 0.07450591
0.42776191 -0.19304128 0.074190624
0.42780253 -0.19454508 0.073875338
0.42878729 -0.19794853 0.072947092
0.42882395 -0.19945745 0.072631702
0.56015092 -0.0537454 0.069903292
0.55904883 -0.053605132 0.070197888
0.55860347 -0.054176997 0.070188783
0.55881274 -0.055463549 0.069875941
0.55771261 -0.055320725 0.070170581
0.55726725 -0.055892587 0.070161477
0.55682182 -0.056464452 0.070152372
0.5563764 -0.057036318 0.070143268
0.55593103 -0.05760818 0.070134163
0.55548561 -0.058180045 0.070125066
0.55504024 -0.058751903 0.070115961
0.55459481 -0.059323765 0.070106857
0.55414939 -0.059895631 0.070097752
0.55370402 -0.060467493 0.070088655
0.5532586 -0.061039358 0.07007955
0.55281317 -0.061611224 0.070070446
0.55236781 -0.062183086 0.070061341
0.55192238 -0.062754951 0.070052236
0.55147702 -0.063326813 0.070043139
0.55103159 -0.063898675 0.070034035
0.55058616 -0.064470537 0.07002493
0.5501408 -0.065042399 0.070015825
0.54969537 -0.065614261 0.070006721
0.54925001 -0.06618613 0.069997624
0.54880458 -0.066757992 0.069988519
0.54835916 -0.067329854 0.069979414
0.54791379 -0.067901723 0.06997031
0.54746836 -0.068473585 0.069961205
0.54702294 -0.069045447 0.069952108
0.54657757 -0.069617309 0.069943003
0.54613215 -0.070189178 0.069933899
0.54505056 -0.070022494 0.070228927
0.54460579 -0.070593506 0.070219837
0.54308218 -0.070994474 0.07050582
0.54263812 -0.07156463 0.070496745
0.54156119 -0.071392022 0.070791848
0.54111779 -0.071961328 0.070782788
0.54067439 -0.072530642 0.070773728
0.53960007 -0.07235463 0.07106889
0.53915733 -0.072923087 0.071059838
0.53871459 -0.073491558 0.071050793
0.53764302 -0.073312134 0.071346007
0.53720087 -0.073879749 0.07133697
0.53675878 -0.074447356 0.07132794
0.53631675 -0.075014956 0.071318902
0.53587461 -0.075582571 0.071309865
0.53543258 -0.076150171 0.071300834
0.53499049 -0.076717779 0.071291797
0.53454834 -0.077285394 0.071282759
0.53410625 -0.077853002 0.071273729
0.53366417 -0.078420617 0.071264692
0.53322208 -0.078988209 0.071255654
0.53215837 -0.078798562 0.071551055
0.531717 -0.079365313 0.071542032
0.53127557 -0.079932071 0.071533009
0.53083414 -0.080498837 0.071523987
0.53039271 -0.081065588 0.071514972
0.52995127 -0.081632338 0.071505949
0.52950984 -0.082199104 0.071496926
0.52906841 -0.082765862 0.071487904
0.52862698 -0.083332613 0.071478881
0.52818555 -0.083899379 0.071469858
0.52712923 -0.083700389 0.071765386
0.52668846 -0.08426629 0.071756378
0.52624768 -0.084832199 0.07174737
0.5258069 -0.085398108 0.071738362
0.52536613 -0.085964017 0.071729355
0.52492541 -0.086529925 0.071720347
0.52387369 -0.086324975 0.072015971
0.52343357 -0.086890027 0.072006978
0.52238381 -0.086682543 0.072302639
0.5219444 -0.087246746 0.072293662
0.52150494 -0.087810948 0.072284676
0.52045786 -0.087600045 0.07258039
0.52001911 -0.088163398 0.072571427
0.5195803 -0.088726744 0.072562456
0.51853585 -0.088512428 0.072858252
0.5180977 -0.089074925 0.072849296
0.5176596 -0.089637429 0.07284034
0.51722151 -0.090199925 0.072831385
0.51678336 -0.090762436 0.072822437
0.51634526 -0.09132494 0.072813481
0.51590717 -0.091887444 0.072804525
0.51546907 -0.092449941 0.07279557
0.51503092 -0.093012445 0.072786614
0.51459283 -0.093574941 0.072777666
0.51415473 -0.094137445 0.072768711
0.51371658 -0.094699956 0.072759755
0.51327848 -0.09526246 0.072750799
0.51284039 -0.095824957 0.072741844
0.51240224 -0.096387461 0.072732896
0.51196414 -0.096949957 0.07272394
0.51152605 -0.097512461 0.072714984
0.51108789 -0.098074973 0.072706029
0.5106498 -0.098637477 0.072697073
0.51021171 -0.099199973 0.072688125
0.50977361 -0.099762477 0.072679169
0.50933546 -0.10032497 0.072670214
0.50889736 -0.10088748 0.072661258
0.50845927 -0.10144997 0.072652303
0.50802112 -0.10201249 0.072643355
0.50758302 -0.10257499 0.072634399
0.50714493 -0.10313749 0.072625443
0.50670683 -0.10369999 0.072616488
0.50626868 -0.10426249 0.07260754
0.50583059 -0.10482499 0.072598584
0.50539249 -0.1053875 0.072589628
0.50495434 -0.10595001 0.072580673
0.50451624 -0.10651251 0.072571717
0.50407815 -0.10707501 0.072562769
0.50364006 -0.10763751 0.072553813
0.50378442 -0.10900747 0.072239622
0.50334567 -0.10957083 0.072230652
0.50290686 -0.11013418 0.072221689
0.50188756 -0.10988753 0.072517999
0.5020293 -0.11126089 0.072203755
0.50159055 -0.11182424 0.072194785
0.5011518 -0.1123876 0.072185814
0.50071299 -0.11295094 0.072176851
0.50085139 -0.11432856 0.071862563
0.50098842 -0.11570786 0.071548246
0.50311524 -0.12230898 0.069688983
0.50439274 -0.12533469 0.068763718
0.50451988 -0.12672676 0.068449199
0.50464565 -0.12812054 0.068134651
0.50419825 -0.12869495 0.068125509
0.50432211 -0.13009131 0.067810893
0.50387406 -0.13066658 0.067801736
0.5051356 -0.13371268 0.066876166
0.50240868 -0.13099262 0.068088934
0.49968711 -0.12826575 0.069301799
0.49608666 -0.12666732 0.070496686
0.49621046 -0.12806365 0.0701821
0.49576771 -0.12863211 0.070173055
0.49532497 -0.12920056 0.070164002
0.4948822 -0.12976903 0.070154957
0.49500269 -0.1311696 0.069840297
0.49512187 -0.13257189 0.069525614
0.49467778 -0.13314205 0.06951654
0.4942337 -0.13371222 0.069507465
0.49378961 -0.13428238 0.06949839
0.49334553 -0.13485254 0.069489308
0.49346074 -0.13625993 0.06917455
0.493016 -0.13683094 0.069165461
0.49257126 -0.13740195 0.069156371
0.49268383 -0.13881278 0.068841532
0.49279505 -0.14022528 0.068526685
0.49234897 -0.14079799 0.068517566
0.49245819 -0.14221303 0.068202682
0.49256611 -0.14362979 0.067887768
0.49267271 -0.14504826 0.06757281
0.49277794 -0.14646842 0.067257836
0.49288186 -0.14789027 0.066942848
0.4924325 -0.14846724 0.066933662
0.49198312 -0.14904422 0.066924475
0.49208438 -0.15046947 0.066609427
0.49163434 -0.15104729 0.066600226
0.49118429 -0.15162511 0.066591032
0.49128291 -0.15305378 0.066275932
0.49083221 -0.15363245 0.066266716
0.49092889 -0.1550637 0.065951556
0.4904775 -0.15564322 0.065942332
0.49002615 -0.15622273 0.065933101
0.48957479 -0.15680227 0.065923877
0.4891234 -0.15738179 0.065914653
0.48867205 -0.15796131 0.065905429
0.48822066 -0.15854083 0.065896206
0.48776931 -0.15912035 0.065886982
0.48731792 -0.15969987 0.065877751
0.48686656 -0.16027941 0.065868527
0.48641521 -0.16085891 0.065859303
0.48596382 -0.16143844 0.065850079
0.48551247 -0.16201796 0.065840855
0.48506111 -0.16259749 0.065831631
0.48460972 -0.16317701 0.065822408
0.48362091 -0.16289119 0.066119336
0.48317021 -0.16346985 0.066110127
0.48218346 -0.16318151 0.066407077
0.48173341 -0.16375934 0.066397876
0.48181811 -0.16520588 0.066082492
0.48029923 -0.16404541 0.066685684
0.48091668 -0.16636322 0.066064067
0.48046598 -0.16694188 0.066054858
0.47948319 -0.16664843 0.066351883
0.4779703 -0.16548033 0.066955201
0.47592926 -0.16343495 0.067864865
0.47132969 -0.15845339 0.069990709
0.47141638 -0.15989737 0.069675364
0.47044551 -0.15958862 0.069972642
0.46894848 -0.15840004 0.070576303
0.46798092 -0.15808703 0.070873648
0.4664886 -0.15689252 0.071477376
0.46604982 -0.15745588 0.071468413
0.46456137 -0.15625626 0.072072253
0.46412393 -0.1568179 0.072063312
0.44214514 -0.12593569 0.083664775
0.43768403 -0.12077626 0.085793465
0.43779528 -0.12218878 0.085478604
0.43738699 -0.122713 0.085470259
0.43697873 -0.1232372 0.085461915
0.43708727 -0.1246531 0.085147016
0.43616214 -0.12428562 0.085445225
0.43575385 -0.12480982 0.085436881
0.43534559 -0.12533402 0.085428536
0.4349373 -0.12585825 0.085420191
0.43452901 -0.12638246 0.085411847
0.43412071 -0.12690666 0.085403502
0.43371242 -0.12743087 0.085395157
0.43279257 -0.12705654 0.085693493
0.43238494 -0.1275799 0.085685164
0.43197733 -0.12810326 0.085676834
0.4315697 -0.12862661 0.085668504
0.43116206 -0.12914997 0.085660174
0.43075445 -0.12967333 0.085651845
0.43034682 -0.13019669 0.085643508
0.43044615 -0.13162453 0.0853284
0.43003786 -0.13214873 0.085320055
0.42912397 -0.13176675 0.085618518
0.42871633 -0.13229011 0.085610189
0.45213732 -0.17842902 0.070549838
0.44407365 -0.17322917 0.073556259
0.44413781 -0.17470208 0.073240452
0.44469759 -0.17709394 0.072617657
0.44525477 -0.17948921 0.071994781
0.44481799 -0.18004999 0.071985856
0.44388622 -0.17969102 0.072283931
0.44295576 -0.1793303 0.072582059
0.44252029 -0.17988943 0.072573155
0.44109887 -0.17860387 0.073178343
0.44115704 -0.18008442 0.072862417
0.43973893 -0.17879462 0.073467664
0.43930545 -0.17935118 0.073458806
0.43838167 -0.17898199 0.073757045
0.43745914 -0.17861107 0.074055329
0.43702701 -0.1791659 0.074046493
0.4361065 -0.17879245 0.074344799
0.43567502 -0.17934644 0.074335985
0.43475652 -0.17897047 0.074634328
0.4343257 -0.1795236 0.074625522
0.43340918 -0.17914505 0.07492391
0.43297902 -0.17969736 0.074915119
0.43206444 -0.17931622 0.075213566
0.43163496 -0.17986766 0.07520479
0.43120548 -0.18041909 0.075196013
0.43077597 -0.18097053 0.075187236
0.43034646 -0.18152198 0.075178459
0.42991698 -0.18207341 0.075169675
0.4294875 -0.18262485 0.075160898
0.42905799 -0.18317629 0.075152121
0.4286285 -0.18372774 0.075143345
0.42819899 -0.18427917 0.075134568
0.42776951 -0.18483061 0.075125791
0.42734003 -0.18538205 0.075117007
0.42738697 -0.18687713 0.074800827
0.42743257 -0.18837386 0.074484646
0.42747682 -0.18987231 0.074168429
0.42751977 -0.19137247 0.073852189
0.42756143 -0.19287434 0.073535897
0.42760172 -0.19437788 0.073219612
0.42811313 -0.19683184 0.072595827
0.42815009 -0.19833966 0.072279461
0.42771465 -0.19889875 0.072270565
0.55816007 -0.055864211 0.069192052
0.5570609 -0.055720795 0.069487698
0.55661547 -0.056292661 0.069478594
0.55617011 -0.056864522 0.069469497
0.55572468 -0.057436388 0.069460392
0.55527925 -0.05800825 0.069451287
0.55483389 -0.058580108 0.069442183
0.55438846 -0.059151974 0.069433078
0.5539431 -0.059723835 0.069423981
0.55349767 -0.060295701 0.069414876
0.55305225 -0.060867563 0.069405772
0.55260688 -0.061439428 0.069396667
0.55216146 -0.062011294 0.06938757
0.55171609 -0.062583156 0.069378465
0.55127066 -0.063155018 0.069369361
0.55082524 -0.063726887 0.069360256
0.55037987 -0.064298742 0.069351152
0.54993445 -0.064870603 0.069342054
0.54948908 -0.065442473 0.06933295
0.54904366 -0.066014335 0.069323845
0.54859823 -0.066586196 0.069314741
0.54815286 -0.067158066 0.069305636
0.54770744 -0.067729928 0.069296539
0.54726201 -0.068301789 0.069287434
0.54681665 -0.068873651 0.06927833
0.54637122 -0.069445521 0.069269225
0.5459258 -0.070017383 0.06926012
0.54484451 -0.069850951 0.069556162
0.5443998 -0.070421971 0.069547072
0.54287648 -0.070823193 0.069834046
0.54243237 -0.071393348 0.069824971
0.54091239 -0.0717903 0.07011202
0.54046893 -0.072359614 0.07010296
0.54002553 -0.072928928 0.0700939
0.53895223 -0.072752319 0.070390075
0.53850949 -0.073320784 0.070381023
0.53806674 -0.073889241 0.070371978
0.53699613 -0.073709235 0.070668213
0.53655404 -0.074276842 0.070659176
0.53611195 -0.074844442 0.070650138
0.53566986 -0.075412057 0.070641108
0.53522778 -0.07597965 0.07063207
0.53478569 -0.076547265 0.070623033
0.5343436 -0.077114873 0.070613995
0.53390151 -0.077682488 0.070604965
0.53345937 -0.078250095 0.070595928
0.53301734 -0.078817695 0.07058689
0.53195393 -0.078628302 0.070883296
0.5315125 -0.079195052 0.070874274
0.53107107 -0.079761811 0.070865251
0.53062963 -0.080328576 0.070856228
0.5301882 -0.080895327 0.070847206
0.52974677 -0.081462078 0.070838191
0.52930534 -0.082028843 0.070829168
0.52886391 -0.082595602 0.070820145
0.52842253 -0.083162352 0.070811123
0.5279811 -0.083729118 0.0708021
0.52692503 -0.083530381 0.071098633
0.52648425 -0.08409629 0.071089625
0.52604347 -0.084662199 0.071080618
0.52560276 -0.085228108 0.07107161
0.52516198 -0.085794009 0.071062595
0.52472121 -0.086359918 0.071053587
0.52366978 -0.086155228 0.071350217
0.52322972 -0.08672028 0.071341224
0.52218026 -0.08651305 0.071637891
0.52174079 -0.087077253 0.071628913
0.52130139 -0.087641455 0.071619928
0.52025461 -0.087430805 0.071916647
0.5198158 -0.087994166 0.071907677
0.51937705 -0.088557512 0.071898714
0.5183329 -0.088343441 0.072195508
0.51789474 -0.088905945 0.072186552
0.51745665 -0.089468449 0.072177596
0.51701856 -0.090030946 0.072168648
0.5165804 -0.090593457 0.072159693
0.51614231 -0.091155961 0.072150737
0.51570421 -0.091718458 0.072141781
0.51526612 -0.092280962 0.072132826
0.51482797 -0.092843466 0.072123878
0.51438987 -0.093405962 0.072114922
0.51395178 -0.093968466 0.072105967
0.51351362 -0.094530977 0.072097011
0.51307553 -0.095093474 0.072088055
0.51263744 -0.095655978 0.072079107
0.51219928 -0.096218474 0.072070152
0.51176119 -0.096780978 0.072061196
0.51132309 -0.097343482 0.07205224
0.510885 -0.097905993 0.072043285
0.51044685 -0.09846849 0.072034337
0.51000875 -0.099030994 0.072025381
0.50957066 -0.09959349 0.072016425
0.5091325 -0.10015599 0.07200747
0.50869441 -0.1007185 0.071998514
