# .PCD v0.7 - Point Cloud Data file format
VERSION 0.7
FIELDS x y z
SIZE 4 4 4
TYPE F F F
COUNT 1 1 1
WIDTH 1426
HEIGHT 1
VIEWPOINT 0 0 0 1 0 0 0
POINTS 1426
DATA ascii
0.472188 0.08751291 0.005278552
0.47182214 0.087043159 0.0052710744
0.48628733 0.10597407 0.0050167162
0.48592144 0.10550433 0.0050092386
0.48489001 0.10561521 0.005489625
0.48385999 0.10572775 0.0059700166
0.48349544 0.10525971 0.005962566
0.48246738 0.10537481 0.0064430051
0.48144063 0.10549162 0.0069234646
0.48107743 0.10502527 0.006916041
0.48005268 0.10514463 0.0073965411
0.4796901 0.10467914 0.007389131
0.47932756 0.10421365 0.0073817214
0.47830543 0.10433644 0.0078623043
0.47794354 0.1038718 0.0078549078
0.47758165 0.10340716 0.0078475121
0.47721976 0.10294252 0.0078401156
0.47685787 0.10247788 0.007832719
0.47649598 0.10201324 0.0078253234
0.47613409 0.1015486 0.0078179268
0.4757722 0.10108396 0.0078105307
0.47541031 0.10061932 0.0078031346
0.47504842 0.10015468 0.0077957381
0.47468653 0.09969005 0.007788342
0.47432464 0.099225409 0.0077809459
0.47396275 0.098760769 0.0077735493
0.47360086 0.098296128 0.0077661532
0.47323897 0.097831488 0.0077587571
0.47287709 0.097366847 0.007751361
0.4725152 0.096902214 0.0077439644
0.47215331 0.096437573 0.0077365683
0.47179142 0.095972933 0.0077291722
0.47142953 0.095508292 0.0077217757
0.47171396 0.094438352 0.007226116
0.47199702 0.093366742 0.0067304578
0.47163382 0.092900403 0.0067230347
0.47191492 0.091826245 0.0062273359
0.47219467 0.090750381 0.0057316031
0.47183013 0.090282343 0.005724153
0.47210789 0.089203924 0.0052283863
0.47174269 0.088735029 0.0052209222
0.4836911 0.10586836 0.0054185647
0.48332655 0.10540032 0.0054111145
0.48229882 0.10551516 0.0058925566
0.48193493 0.10504796 0.00588512
0.48090917 0.10516536 0.0063665961
0.48054594 0.10469902 0.0063591725
0.47952217 0.10481897 0.0068406891
0.47915962 0.10435348 0.0068332795
0.47879705 0.10388799 0.0068258699
0.4784345 0.1034225 0.0068184598
0.47807196 0.10295701 0.0068110502
0.47770941 0.10249152 0.0068036402
0.47734684 0.10202603 0.0067962306
0.47698429 0.10156054 0.006788821
0.47662175 0.10109505 0.0067814109
0.4762592 0.10062956 0.0067740013
0.47589663 0.10016407 0.0067665912
0.47553408 0.099698581 0.0067591816
0.47517154 0.099233091 0.006751772
0.47480899 0.098767601 0.0067443619
0.47444645 0.098302111 0.0067369523
0.47408387 0.097836621 0.0067295427
0.47372133 0.097371131 0.0067221327
0.47335878 0.096905641 0.0067147231
0.47299623 0.096440151 0.0067073135
0.47263366 0.095974661 0.0066999034
0.47227111 0.095509171 0.0066924938
0.47190857 0.095043682 0.0066850837
0.47219199 0.093973182 0.0061884359
0.47182879 0.093506835 0.0061810128
0.47211021 0.09243378 0.0056843241
0.47239032 0.091359027 0.0051876018
0.47202581 0.090890989 0.0051801517
0.48213026 0.10565551 0.0053421082
0.48176637 0.10518832 0.0053346716
0.4807409 0.10530546 0.0058171507
0.4803777 0.10483912 0.0058097276
0.48001447 0.10437278 0.005802304
0.47899166 0.10449332 0.0062848376
0.47862911 0.10402783 0.006277428
0.47826657 0.10356234 0.0062700179
0.47790399 0.10309685 0.0062626083
0.47754145 0.10263136 0.0062551987
0.4771789 0.10216587 0.0062477887
0.47681636 0.10170038 0.0062403791
0.47645381 0.10123489 0.006232969
0.47609124 0.1007694 0.0062255594
0.47572869 0.10030391 0.0062181498
0.47536615 0.099838421 0.0062107397
0.4750036 0.099372931 0.0062033301
0.47464103 0.098907441 0.0061959201
0.47427848 0.098441951 0.0061885105
0.47391593 0.097976461 0.0061811008
0.47355339 0.097510971 0.0061736908
0.47319081 0.097045481 0.0061662812
0.47282827 0.096579991 0.0061588716
0.47246572 0.096114501 0.0061514615
0.47210318 0.095649011 0.0061440519
0.4717406 0.095183522 0.0061366418
0.47202373 0.094113275 0.005638991
0.47230554 0.093041323 0.0051413127
0.48057264 0.10544555 0.0052676988
0.48020944 0.10497921 0.0052602752
0.47984621 0.10451287 0.0052528521
0.47948301 0.10404653 0.0052454285
0.47846115 0.10416767 0.0057289791
0.4780986 0.10370218 0.0057215691
0.47773606 0.10323669 0.0057141595
0.47737351 0.1027712 0.0057067499
0.47701097 0.10230571 0.0056993398
0.47664839 0.10184022 0.0056919302
0.47628585 0.10137473 0.0056845206
0.4759233 0.10090924 0.0056771105
0.47556075 0.10044375 0.0056697009
0.47519818 0.099978261 0.0056622913
0.47483563 0.099512771 0.0056548812
0.47447309 0.099047281 0.0056474716
0.47411054 0.098581791 0.0056400616
0.47374797 0.098116301 0.005632652
0.47338542 0.097650804 0.0056252424
0.47302288 0.097185321 0.0056178323
0.47266033 0.096719831 0.0056104227
0.47229776 0.096254341 0.0056030126
0.47193521 0.095788851 0.005595603
0.47221869 0.094719708 0.0050969622
0.47185549 0.094253369 0.0050895386
0.47793067 0.10384202 0.0051731206
0.47756809 0.10337652 0.0051657106
0.47720554 0.10291104 0.005158301
0.476843 0.10244555 0.0051508914
0.47648045 0.10198006 0.0051434813
0.47611788 0.10151457 0.0051360717
0.47575533 0.10104907 0.0051286616
0.47539279 0.10058358 0.005121252
0.47503024 0.1001181 0.0051138424
0.4746677 0.099652611 0.0051064324
0.47430512 0.099187121 0.0050990228
0.47394258 0.098721623 0.0050916132
0.47358003 0.098256133 0.0050842031
0.47321749 0.097790644 0.0050767935
0.47285491 0.097325161 0.0050693834
0.47249237 0.096859671 0.0050619738
0.48719412 0.099874958 0.12767459
0.48751429 0.10091516 0.12769131
0.48611599 0.10291284 0.12715931
0.48557785 0.1044349 0.1269017
0.48504043 0.10595899 0.12664416
0.48450354 0.10748519 0.12638661
0.48482531 0.10853057 0.12640344
0.48428938 0.11005984 0.12614594
0.48546883 0.1106213 0.12643705
0.48579061 0.11166666 0.12645386
0.48696911 0.112225 0.12674493
0.48729056 0.11326933 0.12676172
0.49048221 0.093286492 0.1279283
0.4908008 0.094321519 0.12794495
0.49025908 0.095831104 0.1276861
0.48971811 0.097342722 0.12742729
0.49003735 0.098379813 0.12744398
0.48863798 0.10037221 0.12690978
0.48809883 0.10189006 0.12665106
0.4875603 0.10340998 0.12639236
0.48616412 0.10541269 0.12585834
0.48562729 0.10693775 0.12559976
0.48594874 0.10798208 0.12561655
0.48541275 0.10951029 0.125358
0.48659164 0.11007077 0.12565014
0.48691308 0.1111151 0.12566695
0.4880909 0.11167248 0.12595901
0.48926818 0.1122278 0.12625107
0.49044472 0.11278106 0.12654307
0.49162075 0.11333222 0.12683508
0.49194092 0.11437242 0.12685181
0.49314645 0.084680319 0.12816006
0.49346346 0.085710175 0.12817663
0.49378043 0.086740032 0.12819318
0.49323586 0.088239178 0.12793313
0.49355316 0.08927007 0.12794971
0.49300954 0.090772353 0.1276897
0.49332717 0.091804273 0.12770629
0.4919242 0.093783073 0.12716977
0.49138242 0.09529157 0.12690985
0.4908413 0.096802123 0.12664996
0.49116021 0.097838178 0.12666662
0.48976105 0.099829391 0.12613031
0.48922193 0.10134613 0.12587056
0.48868334 0.10286494 0.1256108
0.48814541 0.10438583 0.12535107
0.48760819 0.10590877 0.1250914
0.48707151 0.10743379 0.12483175
0.48739263 0.10847709 0.12484853
0.48771378 0.10952038 0.12486531
0.48889145 0.11007784 0.12515846
0.49006838 0.11063324 0.12545155
0.49124476 0.11118653 0.12574463
0.49242052 0.11173777 0.12603767
0.49359551 0.11228696 0.12633066
0.49476999 0.11283404 0.12662365
0.49594373 0.11337912 0.12691656
0.49626264 0.11441518 0.12693323
0.49658155 0.11545125 0.12694989
0.49690044 0.1164873 0.12696655
0.4925186 0.071922913 0.12776512
0.49283466 0.072949663 0.12778163
0.49315068 0.073976412 0.12779814
0.49346673 0.075003184 0.12781467
0.49378276 0.076029934 0.12783118
0.49409881 0.077056684 0.12784769
0.49441484 0.078083433 0.1278642
0.49473089 0.079110205 0.12788071
0.49418369 0.080599979 0.12761945
0.49450004 0.081627771 0.12763597
0.49481639 0.082655564 0.12765251
0.49513277 0.083683357 0.12766904
0.49458712 0.085178331 0.12740785
0.4949038 0.086207166 0.12742439
0.49435917 0.087705232 0.12716326
0.49467614 0.088735089 0.12717983
0.49413246 0.090236247 0.12691875
0.49444976 0.091267131 0.12693533
0.49390706 0.092771411 0.12667431
0.4933649 0.094277769 0.1264133
0.49282351 0.095786147 0.12615235
0.49228266 0.09729664 0.1258914
0.4917424 0.098809198 0.1256305
0.49120292 0.10032377 0.12536965
0.49066398 0.10184048 0.12510881
0.49012575 0.10335921 0.12484804
0.48958805 0.10488003 0.12458726
0.48905101 0.10640293 0.12432652
0.48937151 0.10744415 0.12434326
0.489692 0.10848539 0.12436001
0.49086875 0.10904082 0.12465417
0.4920449 0.1095942 0.12494831
0.49322027 0.11014552 0.12524238
0.49439514 0.11069474 0.12553644
0.49556923 0.11124194 0.12583046
0.49674281 0.11178704 0.12612444
0.4970614 0.11282206 0.1261411
0.49908796 0.11287106 0.12671232
0.5011133 0.11291587 0.1272835
0.50313735 0.11295659 0.12785459
0.50516015 0.11299315 0.12842563
0.50547618 0.11401991 0.12844214
0.49387974 0.068899654 0.12724674
0.49419513 0.06992434 0.12726322
0.49451056 0.070949025 0.1272797
0.49396077 0.072429463 0.12701723
0.49427649 0.073455177 0.12703373
0.49459222 0.074480899 0.12705024
0.49404371 0.075965472 0.12678784
0.49435973 0.076992221 0.12680435
0.49467579 0.078018971 0.12682086
0.49499181 0.079045735 0.12683737
0.49530786 0.080072492 0.12685388
0.49562389 0.081099242 0.12687039
0.49593994 0.082126006 0.1268869
0.49625596 0.083152756 0.12690343
0.49571031 0.084646612 0.12664118
0.49602666 0.085674405 0.12665771
0.49548194 0.087171383 0.12639551
0.49579862 0.088200219 0.12641205
0.49525487 0.089700289 0.12614991
0.49557185 0.090730146 0.12616646
0.49588886 0.091760002 0.12618303
0.4953464 0.0932642 0.12592095
0.49480456 0.094770469 0.12565891
0.49426332 0.096278831 0.12539688
0.49372283 0.097789206 0.12513492
0.49318284 0.099301703 0.12487296
0.49350142 0.10033673 0.1248896
0.49296242 0.10185234 0.12462769
0.49242416 0.10336995 0.12436585
0.49188641 0.1048897 0.12410401
0.49220595 0.10592782 0.1241207
0.49252549 0.10696595 0.1241374
0.49370104 0.10751835 0.12443256
0.49402025 0.10855544 0.12444925
0.49519473 0.10910477 0.12474433
0.49636871 0.109652 0.12503941
0.49754202 0.11019713 0.12533447
0.49786028 0.11123114 0.1253511
0.49903253 0.11177324 0.12564607
0.50105798 0.11182026 0.12621938
0.50222874 0.11235717 0.12651429
0.50425196 0.11239696 0.12708747
0.50627387 0.11243262 0.12766059
0.50658953 0.11345835 0.12767708
0.49193236 0.061662506 0.12609015
0.49224776 0.062687188 0.12610662
0.49256316 0.063711874 0.1261231
0.49287856 0.064736567 0.12613958
0.49319395 0.065761261 0.12615606
0.49350935 0.066785946 0.12617254
0.49382475 0.06781064 0.12618902
0.49414015 0.068835326 0.1262055
0.49445558 0.069860011 0.12622198
0.49477097 0.070884697 0.12623847
0.49508637 0.071909383 0.12625495
0.49540177 0.072934084 0.12627143
0.49485287 0.074416503 0.12600794
0.4951686 0.075442225 0.12602444
0.49548432 0.076467954 0.12604094
0.49580005 0.077493668 0.12605743
0.49611577 0.078519389 0.12607393
0.49643147 0.079545118 0.12609042
0.4967472 0.080570847 0.12610692
0.49706292 0.081596553 0.12612341
0.49737865 0.082622282 0.12613991
0.49683294 0.084115051 0.12587661
0.49714899 0.085141815 0.12589312
0.49746501 0.086168565 0.12590963
0.49692059 0.087665446 0.12564638
0.49723694 0.088693239 0.12566291
0.49755329 0.089721031 0.12567945
0.49786967 0.090748824 0.12569597
0.49732676 0.092250921 0.12543279
0.49678457 0.093755059 0.12516966
0.49710158 0.094784915 0.12518623
0.49656031 0.096292138 0.12492315
0.49601972 0.097801462 0.1246601
0.49633732 0.098833382 0.1246767
0.49579763 0.10034581 0.12441369
0.49525866 0.10186028 0.12415075
0.49557692 0.10289426 0.12416738
0.49589521 0.10392825 0.124184
0.49621347 0.10496226 0.12420063
0.49653172 0.10599624 0.12421726
0.49684998 0.10703024 0.12423389
0.49802327 0.10757654 0.12452998
0.49919599 0.10812072 0.12482607
0.49951363 0.10915264 0.12484267
0.50068533 0.10969374 0.12513869
0.50185645 0.11023279 0.12543467
0.5030269 0.11076976 0.12573062
0.50504994 0.1108107 0.12630594
0.50707161 0.11084755 0.12688117
0.50823951 0.11137624 0.12717699
0.51025903 0.11140583 0.12775211
0.51227725 0.11143129 0.12832716
0.51429421 0.1114526 0.12890215
0.51545864 0.11196992 0.12919779
0.51662242 0.11248518 0.12949339
0.51693493 0.11350057 0.12950972
0.49274552 0.060129263 0.12531365
0.49306062 0.061152924 0.12533012
0.49337569 0.06217657 0.12534659
0.49369079 0.063200228 0.12536305
0.49400586 0.064223878 0.12537952
0.49345437 0.065696932 0.12511483
0.49376976 0.066721618 0.12513131
0.49408516 0.067746304 0.12514779
0.49440059 0.06877099 0.12516427
0.49558127 0.069342151 0.12546183
0.49589637 0.070365809 0.12547828
0.49621144 0.071389452 0.12549475
0.49652654 0.072413117 0.12551121
0.49597758 0.073894434 0.12524667
0.49629298 0.074919119 0.12526315
0.49660838 0.075943805 0.12527962
0.49692377 0.076968491 0.1252961
0.49723917 0.077993177 0.12531258
0.4975546 0.079017878 0.12532906
0.49787 0.080042563 0.12534554
0.4981854 0.081067249 0.12536202
0.49850079 0.082091935 0.1253785
0.49881619 0.083116621 0.12539499
0.49913159 0.084141307 0.12541147
0.49944699 0.085166007 0.12542795
0.4989022 0.086660773 0.12516361
0.49921793 0.087686501 0.12518011
0.49953362 0.088712208 0.12519661
0.49984935 0.089737937 0.1252131
0.5001651 0.090763666 0.1252296
0.4996222 0.092264637 0.12496537
0.49993822 0.093291394 0.12498189
0.49939629 0.094795458 0.1247177
0.49885494 0.096301615 0.12445354
0.49917161 0.097330444 0.12447009
0.49863127 0.098839685 0.12420599
0.49809155 0.10035099 0.12394194
0.49840885 0.10138189 0.12395851
0.49872616 0.10241278 0.12397509
0.49904349 0.10344367 0.12399168
0.4993608 0.10447456 0.12400825
0.49967811 0.10550545 0.12402483
0.5008502 0.1060487 0.12432193
0.50116718 0.10707856 0.12433849
0.50233835 0.10761869 0.12463555
0.50350893 0.10815673 0.12493259
0.50467879 0.10869274 0.12522958
0.50584805 0.10922666 0.12552653
0.50701666 0.10975851 0.12582345
0.5090372 0.10979341 0.12640077
0.51020426 0.11032011 0.1266976
0.51222253 0.11034776 0.12727478
0.51338798 0.11086928 0.12757154
0.51540411 0.11088968 0.12814862
0.51656795 0.11140605 0.12844528
0.51773113 0.11192032 0.12874192
0.51889372 0.11243252 0.12903854
0.51920563 0.11344584 0.12905484
0.51951754 0.11445914 0.12907115
0.49269059 0.059041332 0.12425701
0.49300566 0.060064994 0.12427348
0.49332076 0.061088655 0.12428994
0.49363583 0.062112302 0.1243064
0.49395093 0.063135959 0.12432287
0.494266 0.064159609 0.12433933
0.49371478 0.065632597 0.1240736
0.49403018 0.066657282 0.12409008
0.49434558 0.067681968 0.12410656
0.49552634 0.068254232 0.12440518
0.49584141 0.069277883 0.12442164
0.49702129 0.06984701 0.12472022
0.49733603 0.070869625 0.12473667
0.4976508 0.071892247 0.12475312
0.49710175 0.073372506 0.1244875
0.49741685 0.074396148 0.12450396
0.49773192 0.075419813 0.12452042
0.49890986 0.075982727 0.12481891
0.49922463 0.077005349 0.12483535
0.49953941 0.078027971 0.12485179
0.49985415 0.079050586 0.12486824
0.50016892 0.080073208 0.12488469
0.50048369 0.08109583 0.12490114
0.50079846 0.082118452 0.12491758
0.50111324 0.083141066 0.12493403
0.50142801 0.084163688 0.12495048
0.50088274 0.08565636 0.12468505
0.50205749 0.086208932 0.12498336
0.50237226 0.087231547 0.12499981
0.50182801 0.08872731 0.12473444
0.50214309 0.089750968 0.1247509
0.50245816 0.090774626 0.12476736
0.50277328 0.091798276 0.12478383
0.50223064 0.093299173 0.12451855
0.50168866 0.094802156 0.1242533
0.50200438 0.095827878 0.1242698
0.50146329 0.097333953 0.1240046
0.50177938 0.098360717 0.12402111
0.5020954 0.099387467 0.12403763
0.50241143 0.10041422 0.12405414
0.50272745 0.10144099 0.12407065
0.50304353 0.10246774 0.12408717
0.50335956 0.10349449 0.12410368
0.50367558 0.10452125 0.12412019
0.5039916 0.10554801 0.12413671
0.50516152 0.1060851 0.12443475
0.50633085 0.10662012 0.12473278
0.50749952 0.1071531 0.12503077
0.50866759 0.10768396 0.12532873
0.50898236 0.10870659 0.12534519
0.51100171 0.10873954 0.12592454
0.51216781 0.10926423 0.1262224
0.51248163 0.11028375 0.12623881
0.51364678 0.11080534 0.12653661
0.51566237 0.11082587 0.12711579
0.51682597 0.1113423 0.12741351
0.51798892 0.11185663 0.12771121
0.51915121 0.1123689 0.12800887
0.51946312 0.11338222 0.12802517
0.51977503 0.11439552 0.12804146
0.49263567 0.057953417 0.12320037
0.49295074 0.058977064 0.12321684
0.49326584 0.060000725 0.1232333
0.49358091 0.061024386 0.12324976
0.49389601 0.062048033 0.12326622
0.49421108 0.06307169 0.12328269
0.49452615 0.064095341 0.12329915
0.49484125 0.065118998 0.12331561
0.49515632 0.066142656 0.12333208
0.49547142 0.067166306 0.12334853
0.49665165 0.067737564 0.1236482
0.49696639 0.068760179 0.12366465
0.49814561 0.069328383 0.12396426
0.49846005 0.070349962 0.12398069
0.49877453 0.071371555 0.12399712
0.49822545 0.072850659 0.12373044
0.49940342 0.073414713 0.12402998
0.49971786 0.074436314 0.12404641
0.50089484 0.074997246 0.12434589
0.50120896 0.076017797 0.1243623
0.50152308 0.077038355 0.12437872
0.50183725 0.078058906 0.12439513
0.50215137 0.079079464 0.12441155
0.50246549 0.0801 0.12442796
0.5027796 0.081120558 0.12444437
0.50309372 0.082141109 0.12446079
0.5034079 0.083161667 0.12447719
0.50372201 0.084182218 0.12449361
0.50403613 0.085202776 0.12451002
0.50435024 0.086223327 0.12452643
0.50466436 0.08724387 0.12454285
0.50497854 0.088264421 0.12455926
0.50529265 0.089284979 0.12457567
0.50560677 0.09030553 0.12459209
0.50506347 0.091803275 0.12432571
0.50537789 0.092824869 0.12434214
0.50569236 0.093846448 0.12435857
0.50515026 0.095348306 0.12409225
0.50546503 0.096370928 0.12410869
0.5057798 0.09739355 0.12412515
0.50609457 0.098416165 0.12414159
0.50640935 0.099438787 0.12415804
0.50672412 0.10046141 0.12417448
0.50703889 0.10148403 0.12419093
0.50393653 0.10445679 0.12307686
0.50425255 0.10548354 0.12309337
0.50542223 0.1060207 0.12339248
0.50659126 0.10655578 0.12369155
0.50775963 0.10708883 0.12399059
0.50892746 0.10761975 0.12428961
0.50924224 0.10864238 0.12430605
0.51126111 0.10867546 0.12488752
0.51242691 0.10920022 0.12518643
0.51444358 0.10922607 0.1257678
0.51560783 0.10974564 0.12606661
0.5167715 0.11026316 0.12636541
0.51793444 0.11077861 0.12666416
0.51909685 0.11129197 0.1269629
0.52025861 0.11180329 0.12726159
0.52141964 0.11231252 0.12756024
0.52342927 0.11231562 0.12814122
0.52373987 0.11332481 0.12815747
0.52489913 0.11382783 0.12845604
0.52520943 0.11483598 0.12847225
0.49289581 0.057889149 0.12216019
0.49321088 0.058912795 0.12217665
0.49352598 0.059936456 0.12219311
0.49384105 0.060960114 0.12220958
0.49415615 0.06198376 0.12222604
0.49447122 0.063007422 0.1222425
0.49478632 0.064031065 0.12225897
0.49510139 0.06505473 0.12227543
0.49628198 0.065628119 0.12257618
0.49659675 0.066650741 0.12259263
0.49777636 0.067221068 0.12289332
0.4980908 0.068242647 0.12290975
0.49926943 0.068809859 0.12321039
0.49958357 0.06983041 0.1232268
0.49989769 0.070850968 0.12324321
0.50021183 0.071871519 0.12325963
0.50052595 0.072892077 0.12327604
0.50170267 0.073453076 0.12357658
0.50287879 0.074012019 0.12387709
0.50319225 0.075030506 0.12389346
0.50436747 0.075586319 0.12419394
0.50468063 0.076603763 0.1242103
0.5049938 0.077621229 0.12422666
0.50530696 0.078638673 0.12424302
0.50562012 0.079656124 0.12425938
0.50593328 0.080673575 0.12427575
0.50624651 0.081691019 0.12429211
0.50655967 0.082708471 0.12430847
0.50687283 0.083725922 0.12432484
0.507186 0.084743366 0.1243412
0.50749916 0.085760832 0.12435757
0.50781238 0.086778276 0.12437393
0.50812554 0.087795727 0.12439029
0.50586611 0.090241455 0.12355506
0.50532305 0.091739133 0.12328763
0.50563753 0.092760727 0.12330406
0.50595194 0.093782306 0.12332049
0.50541019 0.095284104 0.12305312
0.50572497 0.096306719 0.12306957
0.50603968 0.097329341 0.12308601
0.50635445 0.098351963 0.12310246
0.50666922 0.099374585 0.12311891
0.506984 0.1003972 0.12313535
0.50729877 0.10141982 0.1231518
0.50761354 0.10244244 0.12316824
0.50792831 0.10346507 0.12318469
0.50909644 0.10399817 0.12348478
0.50941086 0.10501976 0.12350121
0.51057804 0.10554975 0.12380125
0.51174462 0.10607766 0.12410126
0.51205838 0.10709717 0.12411766
0.51322401 0.107622 0.12441761
0.51438898 0.10814472 0.12471755
0.51640445 0.10816865 0.12530097
0.51756781 0.10868622 0.12560081
0.51873058 0.10920171 0.12590063
0.51989269 0.10971517 0.12620041
0.52105415 0.11022654 0.12650014
0.52221495 0.11073584 0.12679985
0.52337509 0.1112431 0.12709953
0.5245347 0.11174824 0.12739919
0.524845 0.11275639 0.1274154
0.52685189 0.11275239 0.12799837
0.52716154 0.11375847 0.12801455
0.52747124 0.11476455 0.12803073
0.493709 0.05636033 0.12138903
0.49402377 0.057382952 0.12140548
0.49347106 0.058848526 0.12113647
0.49378613 0.059872188 0.12115294
0.49410123 0.060895845 0.1211694
0.4944163 0.061919492 0.12118586
0.4947314 0.062943153 0.12120233
0.49504647 0.063966796 0.12121879
0.49622712 0.064541295 0.1215206
0.49740708 0.065113753 0.12182238
0.49772152 0.066135332 0.12183881
0.49890053 0.066704676 0.12214053
0.50007892 0.067271948 0.12244222
0.50039274 0.068291463 0.12245862
0.50070655 0.069310993 0.12247501
0.50102031 0.070330508 0.12249141
0.50219715 0.070892625 0.12279302
0.50251061 0.071911111 0.1228094
0.50368649 0.072470091 0.12311096
0.50486171 0.073027022 0.12341249
0.50517452 0.074043445 0.12342884
0.50634879 0.074597284 0.12373031
0.50752234 0.075149044 0.12403175
0.50783461 0.076163404 0.12404806
0.50556552 0.078574799 0.12320914
0.50587869 0.079592243 0.12322551
0.50619191 0.080609694 0.12324187
0.50650507 0.081627138 0.12325823
0.50681823 0.082644589 0.12327459
0.5071314 0.083662041 0.12329096
0.50744456 0.084679484 0.12330732
0.50775778 0.085696951 0.12332369
0.50807095 0.086714402 0.12334005
0.50838411 0.087731846 0.12335641
0.50869727 0.088749297 0.12337278
0.50901043 0.089766741 0.12338914
0.5093236 0.090784192 0.1234055
0.50963682 0.091801643 0.12342186
0.50909394 0.093299285 0.12315337
0.50940746 0.094317757 0.12316975
0.50972092 0.095336251 0.12318613
0.51003444 0.096354738 0.12320251
0.5103479 0.09737321 0.12321889
0.51066142 0.098391697 0.12323527
0.51097488 0.099410191 0.12325165
0.5112884 0.10042866 0.12326803
0.51160187 0.10144715 0.12328441
0.51276851 0.10197616 0.12358549
0.51308173 0.1029936 0.12360186
0.51339489 0.10401105 0.12361822
0.51456022 0.10453593 0.12391923
0.51487303 0.10555235 0.12393558
0.5160374 0.10607413 0.12423653
0.51720119 0.10659384 0.12453746
0.51836431 0.10711147 0.12483837
0.51952678 0.10762706 0.12513922
0.52068859 0.10814057 0.12544005
0.52184975 0.10865199 0.12574084
0.52301031 0.10916138 0.12604159
0.52417028 0.10966866 0.12634234
0.52448058 0.1106768 0.12635855
0.52563953 0.11118101 0.12665923
0.52679789 0.11168316 0.12695988
0.52795559 0.11218321 0.12726048
0.52826494 0.11318825 0.12727664
0.52942163 0.11368522 0.1275772
0.53057778 0.1141801 0.12787774
0.53088653 0.11518308 0.12789387
0.53119522 0.11618605 0.12791
0.49396887 0.056296129 0.12034991
0.49428365 0.057318747 0.12036635
0.4937312 0.058784258 0.12009629
0.49404627 0.059807915 0.12011275
0.49436137 0.060831577 0.12012922
0.49467644 0.061855223 0.12014568
0.49585748 0.06243185 0.12044858
0.49617225 0.063454472 0.12046503
0.49735227 0.064028032 0.12076787
0.49853164 0.064599507 0.12107068
0.49884579 0.065620057 0.12108709
0.5000242 0.066188425 0.12138985
0.50120199 0.066754736 0.12169257
0.50151551 0.067773223 0.12170895
0.50096565 0.069246985 0.12143904
0.50127941 0.070266493 0.12145543
0.50245595 0.070828676 0.12175809
0.50276947 0.071847163 0.12177447
0.50394505 0.07240621 0.12207709
0.50511998 0.072963208 0.12237967
0.50543284 0.073979631 0.12239601
0.50660682 0.074533537 0.12269853
0.50778013 0.075085357 0.12300102
0.5080924 0.076099716 0.12301733
0.50840461 0.077114061 0.12303365
0.50871682 0.078128397 0.12304996
0.50902903 0.079142757 0.12306628
0.50934124 0.080157101 0.12308259
0.50965345 0.08117146 0.1230989
0.50996572 0.082185797 0.12311522
0.51027793 0.083200142 0.12313153
0.51059014 0.084214501 0.12314785
0.51090235 0.085228845 0.12316415
0.51207191 0.085768238 0.12346646
0.51238382 0.086781554 0.12348276
0.51269573 0.087794878 0.12349906
0.51300764 0.088808194 0.12351535
0.51331949 0.08982151 0.12353165
0.51277566 0.091314942 0.12326203
0.51308787 0.092329286 0.12327835
0.51340008 0.093343623 0.12329466
0.51371235 0.094357982 0.12331098
0.51402456 0.095372327 0.12332729
0.51433676 0.096386686 0.1233436
0.51464897 0.097401023 0.12335991
0.51496118 0.098415367 0.12337623
0.51527339 0.099429727 0.12339254
0.51643854 0.09995465 0.12369461
0.51675045 0.10096797 0.12371092
0.51706231 0.10198128 0.12372721
0.51737422 0.10299458 0.1237435
0.5185377 0.10351438 0.12404548
0.51884925 0.10452666 0.12406176
0.52001178 0.10504334 0.12436369
0.52117366 0.10555793 0.12466558
0.52148461 0.10656814 0.12468182
0.52264553 0.10707966 0.12498367
0.52380586 0.10758907 0.12528549
0.52496552 0.10809644 0.12558727
0.52612454 0.10860176 0.12588902
0.52643424 0.10960783 0.12590519
0.5275923 0.11011002 0.12620689
0.5287497 0.11061016 0.12650853
0.52905875 0.11161415 0.12652469
0.52936774 0.11261817 0.12654084
0.53052396 0.11311416 0.12684244
0.53167951 0.11360808 0.12714399
0.53198791 0.11461003 0.12716012
0.53314245 0.11510085 0.12746163
0.53429639 0.11558962 0.12776311
0.53460413 0.11658949 0.12777919
0.53491187 0.11758936 0.12779526
0.49454355 0.057254542 0.11932722
0.49485829 0.058277164 0.11934367
0.49430645 0.059743647 0.11907257
0.49462152 0.060767308 0.11908903
0.49493659 0.061790954 0.1191055
0.49611735 0.062367644 0.11940945
0.49643213 0.063390262 0.1194259
0.49761188 0.063963898 0.11972979
0.49879101 0.064535432 0.12003364
0.49910513 0.065555982 0.12005006
0.5002833 0.066124417 0.12035387
0.50146085 0.066690795 0.12065765
0.50177431 0.067709282 0.12067402
0.50295097 0.068272524 0.12097776
0.50326413 0.069289982 0.12099412
0.50443971 0.069850139 0.1212978
0.50475258 0.070866562 0.12131415
0.50592726 0.071423635 0.12161777
0.5071013 0.071978629 0.12192136
0.50741351 0.072992973 0.12193767
0.50858665 0.07354486 0.12224123
0.50975907 0.074094698 0.12254474
0.5109309 0.074642457 0.12284821
0.51124215 0.075653695 0.12286448
0.51155341 0.076664947 0.12288074
0.51186466 0.077676192 0.12289701
0.51217592 0.078687429 0.12291326
0.51248717 0.079698682 0.12292953
0.51279849 0.080709934 0.12294579
0.51310974 0.081721172 0.12296206
0.513421 0.082732424 0.12297832
0.51373225 0.083743669 0.12299459
0.51490057 0.084280044 0.12329788
0.51521146 0.085290261 0.12331412
0.51552242 0.08630047 0.12333037
0.51583338 0.087310679 0.12334661
0.51614434 0.088320889 0.12336286
0.51645529 0.089331113 0.12337911
0.51676625 0.09034133 0.12339535
0.51707715 0.091351539 0.1234116
0.51738811 0.092361748 0.12342785
0.51769906 0.093371958 0.1234441
0.51801002 0.094382174 0.12346034
0.51832098 0.095392384 0.12347659
0.51863188 0.096402593 0.12349284
0.51894283 0.097412802 0.12350908
0.52010638 0.097933695 0.12381212
0.52041698 0.098942876 0.12382835
0.52072763 0.09995205 0.12384459
0.52103823 0.10096123 0.12386081
0.52134889 0.1019704 0.12387705
0.52251053 0.10248506 0.12418
0.52282083 0.10349321 0.12419622
0.52398151 0.10400476 0.1244991
0.52429152 0.10501189 0.1245153
0.52460152 0.10601899 0.1245315
0.52576089 0.10652644 0.12483433
0.52691966 0.1070318 0.12513712
0.52807778 0.10753509 0.12543988
0.52838677 0.1085391 0.12545604
0.529544 0.10903929 0.12575875
0.52985275 0.11004227 0.12577489
0.5310089 0.11053936 0.12607755
0.53131735 0.11154129 0.12609366
0.53162575 0.11254324 0.12610976
0.53278065 0.11303619 0.12641236
0.53308874 0.1140371 0.12642846
0.53424269 0.11452697 0.12673101
0.53455049 0.11552684 0.12674709
0.53570354 0.11601357 0.1270496
0.53685594 0.11649828 0.12735206
0.53800768 0.11698088 0.12765448
0.53915882 0.11746142 0.12795688
0.53946531 0.11845717 0.12797289
0.49480343 0.05719034 0.11828809
0.4951182 0.058212958 0.11830454
0.49543297 0.05923558 0.11832098
0.49574772 0.060258199 0.11833743
0.49606249 0.061280821 0.11835387
0.49637726 0.062303439 0.11837032
0.49755707 0.062878162 0.11867528
0.49873623 0.063450798 0.1189802
0.49905038 0.064471357 0.11899661
0.50022858 0.065040894 0.11930149
0.50140619 0.065608375 0.11960634
0.50258321 0.066173747 0.11991116
0.50289637 0.067191191 0.11992752
0.50407237 0.067753494 0.12023228
0.50524771 0.06831374 0.12053701
0.5064224 0.0688719 0.12084169
0.50673467 0.069886245 0.12085801
0.50790846 0.070441291 0.12116267
0.5090816 0.070994295 0.12146728
0.50939316 0.072006576 0.12148356
0.51056534 0.072556466 0.12178811
0.51173687 0.073104285 0.12209264
0.5129078 0.073650055 0.12239713
0.51407808 0.074193716 0.12270161
0.51438838 0.075201862 0.12271782
0.51469874 0.076210007 0.12273403
0.51500905 0.077218153 0.12275025
0.51531935 0.078226298 0.12276646
0.51562965 0.079234444 0.12278268
0.51593995 0.080242589 0.12279889
0.51625025 0.081250735 0.1228151
0.51656055 0.08225888 0.12283131
0.51772767 0.082792222 0.1231356
0.51803762 0.083799332 0.1231518
0.51834762 0.084806435 0.123168
0.51865762 0.085813552 0.1231842
0.51896763 0.086820662 0.12320039
0.51927763 0.087827779 0.12321658
0.51958758 0.088834882 0.12323278
0.51989758 0.089841992 0.12324898
0.52020758 0.090849109 0.12326518
0.52051759 0.091856211 0.12328137
0.52082759 0.092863321 0.12329757
0.52113754 0.093870439 0.12331377
0.52144754 0.094877549 0.12332997
0.52261019 0.095396429 0.12363403
0.52291983 0.096402511 0.12365021
0.52322954 0.097408593 0.12366639
0.52439088 0.097923316 0.12397038
0.52470022 0.098928355 0.12398654
0.52500957 0.099933393 0.12400271
0.52531892 0.10093845 0.12401887
0.52562827 0.10194349 0.12403504
0.52678776 0.10245202 0.12433892
0.52709675 0.10345602 0.12435507
0.5274058 0.10446003 0.12437122
0.52771485 0.10546405 0.12438737
0.52887273 0.1059674 0.1246912
0.53002995 0.10646869 0.12499497
0.53033835 0.10747062 0.12501109
0.53149462 0.10796881 0.12531482
0.53180271 0.10896972 0.12533091
0.53295803 0.10946483 0.12563458
0.53326577 0.1104647 0.12565067
0.53357351 0.11146457 0.12566675
0.53472763 0.11195551 0.12597038
0.53503507 0.11295433 0.12598644
0.53534251 0.11395318 0.12600251
0.53649527 0.11444001 0.12630606
0.53680241 0.11543781 0.12632209
0.53795421 0.11592152 0.12662558
0.53910536 0.11640317 0.12692904
0.5402559 0.11688276 0.12723248
0.54140586 0.11736026 0.12753588
0.54171169 0.11835393 0.12755187
0.4950633 0.057126135 0.11724896
0.49537808 0.058148753 0.1172654
0.49569285 0.059171375 0.11728185
0.49600762 0.060193993 0.1172983
0.49718779 0.060770847 0.11760435
0.49750224 0.061792441 0.11762077
0.49868149 0.062366173 0.11792676
0.49986008 0.062937841 0.11823272
0.50017387 0.063957348 0.11824912
0.50135154 0.06452594 0.11855502
0.50252861 0.065092415 0.11886092
0.50370497 0.065656848 0.11916676
0.50488067 0.066219226 0.11947257
0.50605577 0.066779517 0.11977834
0.50723028 0.067337729 0.12008411
0.50840408 0.0678939 0.12038981
0.50871569 0.068906173 0.12040609
0.50988853 0.069459237 0.12071175
0.51106077 0.07001023 0.12101738
0.51137173 0.071020439 0.12103362
0.51254302 0.07156834 0.12133919
0.51371372 0.072114147 0.12164476
0.5148837 0.072657883 0.12195027
0.51605308 0.073199593 0.12225575
0.51722181 0.073739201 0.12256119
0.51753116 0.074744239 0.12257735
0.5178405 0.075749278 0.12259351
0.51814985 0.076754332 0.12260967
0.5184592 0.07775937 0.12262584
0.51876855 0.078764409 0.122642
0.5190779 0.079769447 0.12265817
0.51938725 0.080774494 0.12267433
0.51969659 0.081779547 0.12269049
0.52086216 0.082308814 0.12299577
0.52117121 0.083312824 0.12301192
0.52148026 0.08431682 0.12302806
0.52178925 0.085320838 0.12304422
0.5220983 0.086324848 0.12306036
0.52240735 0.087328851 0.12307651
0.5227164 0.088332862 0.12309265
0.52302539 0.089336865 0.1231088
0.52333444 0.090340875 0.12312495
0.52364349 0.091344893 0.1231411
0.52395254 0.092348889 0.12315724
0.52426153 0.093352906 0.12317339
0.52542305 0.093868732 0.12347846
0.52658379 0.094382495 0.12378349
0.52689219 0.095384434 0.12379961
0.52720058 0.09638638 0.12381572
0.52750897 0.097388312 0.12383183
0.52781737 0.098390259 0.12384795
0.52812582 0.099392198 0.12386406
0.52843422 0.10039414 0.12388018
0.52959239 0.10089963 0.12418506
0.52990049 0.10190054 0.12420116
0.53020859 0.10290144 0.12421726
0.53051668 0.10390235 0.12423336
0.53082472 0.10490326 0.12424945
0.53198105 0.10540257 0.12455425
0.53313679 0.10589976 0.12485903
0.53344423 0.10689861 0.12487509
0.53375167 0.10789745 0.12489115
0.53490609 0.10839054 0.12519585
0.53521323 0.10938834 0.12521189
0.53552037 0.11038616 0.12522794
0.53667349 0.11087511 0.12553257
0.53698027 0.11187187 0.1255486
0.53728712 0.11286864 0.12556463
0.53843898 0.11335345 0.1258692
0.53874546 0.11434918 0.1258852
0.53989637 0.11483092 0.12618972
0.5402025 0.11582562 0.12620573
0.54135251 0.1163042 0.12651019
0.5416584 0.11729787 0.12652618
0.5428074 0.11777338 0.12683059
0.54311293 0.11876602 0.12684655
0.49532321 0.057061929 0.11620983
0.49563798 0.058084551 0.11622627
0.49595273 0.05910717 0.11624272
0.4962675 0.060129791 0.11625917
0.49744743 0.060706705 0.11656626
0.49862671 0.061281543 0.11687332
0.49980536 0.061854314 0.11718035
0.50098336 0.062425017 0.11748734
0.50129688 0.063443504 0.11750372
0.50247401 0.06401109 0.11781067
0.50365043 0.064576618 0.11811759
0.50482619 0.065140091 0.11842446
0.50600135 0.065701492 0.11873131
0.50717592 0.066260792 0.11903813
0.50834978 0.066818066 0.11934491
0.50952303 0.067373253 0.11965165
0.51069564 0.067926377 0.11995836
0.51186758 0.068477437 0.12026504
0.51303899 0.069026411 0.1205717
0.51334929 0.070034556 0.12058792
0.51451963 0.07058043 0.1208945
0.51568937 0.071124263 0.12120107
0.51685852 0.07166601 0.12150759
0.51802695 0.072205693 0.12181409
0.51919484 0.072743304 0.12212057
0.52036202 0.073278844 0.12242699
0.52067041 0.074280776 0.1224431
0.52097887 0.075282723 0.12245922
0.52128726 0.076284662 0.12247533
0.52159566 0.077286609 0.12249144
0.52190405 0.07828854 0.12250756
0.52221245 0.079290487 0.12252367
0.52252084 0.080292426 0.12253978
0.52368516 0.080818661 0.12284606
0.52399325 0.081819572 0.12286216
0.52430135 0.082820475 0.12287825
0.52460939 0.083821386 0.12289435
0.52491748 0.084822297 0.12291045
0.52522558 0.085823201 0.12292655
0.52553368 0.086824097 0.12294264
0.52584171 0.087825 0.12295874
0.52614981 0.088825911 0.12297484
0.52645791 0.089826815 0.12299094
0.526766 0.090827726 0.12300703
0.52707404 0.091828637 0.12302313
0.52823424 0.092341438 0.12332919
0.52939385 0.092852145 0.12363523
0.52970129 0.093850985 0.1236513
0.53000873 0.094849832 0.12366736
0.53031617 0.095848672 0.12368342
0.53062361 0.096847497 0.12369949
0.53093106 0.097846344 0.12371555
0.53123856 0.098845184 0.12373162
0.53239554 0.099347658 0.12403751
0.53270268 0.10034546 0.12405356
0.53300977 0.10134327 0.12406961
0.53331691 0.10234106 0.12408565
0.53362405 0.10333887 0.1241017
0.53477913 0.10383512 0.12440749
0.53508598 0.1048319 0.12442353
0.53539276 0.10582867 0.12443956
0.53569955 0.10682543 0.12445559
0.53685308 0.10731651 0.1247613
0.53715956 0.10831225 0.12477731
0.53746605 0.10930798 0.12479333
0.53861827 0.10979494 0.12509897
0.53892446 0.11078966 0.12511498
0.53923064 0.11178435 0.12513097
0.54038167 0.11226715 0.12543656
0.5406875 0.11326082 0.12545253
0.54183751 0.11374051 0.12575807
0.54214305 0.11473316 0.12577404
0.54244858 0.11572579 0.12579
0.54275411 0.11671842 0.12580596
0.54474539 0.11667488 0.12640089
0.54673547 0.11662717 0.12699577
0.54703975 0.11761567 0.12701167
0.49558309 0.056997724 0.11517069
0.49589786 0.058020346 0.11518715
0.49621263 0.059042964 0.11520359
0.4965274 0.060065586 0.11522003
0.49770704 0.060642567 0.11552818
0.49888608 0.061217468 0.11583629
0.50006443 0.061790302 0.11614437
0.50124222 0.062361073 0.11645241
0.50241935 0.062929757 0.11676043
0.50359583 0.063496381 0.11706842
0.50477171 0.064060956 0.11737636
0.50594687 0.064623445 0.11768427
0.5071215 0.065183856 0.11799216
0.50829548 0.065742232 0.11830001
0.50946873 0.066298515 0.11860782
0.5106414 0.066852741 0.11891559
0.51181346 0.067404903 0.11922333
0.51298487 0.067954972 0.11953107
0.51501608 0.068042874 0.1201302
0.51532573 0.069048956 0.12014639
0.51649523 0.069592826 0.120454
0.51766407 0.070134632 0.12076157
0.51883233 0.070674382 0.12106913
0.51999986 0.071212061 0.12137664
0.5211668 0.071747668 0.12168412
0.52233309 0.072281219 0.12199157
0.52264088 0.073281087 0.12200765
0.52380627 0.073811509 0.12231506
0.52411371 0.074810348 0.12233112
0.52442116 0.075809196 0.12234718
0.5247286 0.07680802 0.12236325
0.52503604 0.07780686 0.12237931
0.52534348 0.078805707 0.12239537
0.5265066 0.079328917 0.12270266
0.52681369 0.080326721 0.1227187
0.52712083 0.081324525 0.12273475
0.52742797 0.082322337 0.1227508
0.52773511 0.083320141 0.12276684
0.5280422 0.084317945 0.12278289
0.52834934 0.085315742 0.12279894
0.52865648 0.086313546 0.12281498
0.52896363 0.08731135 0.12283103
0.52927071 0.088309161 0.12284708
0.52957785 0.089306965 0.12286313
0.52988499 0.09030477 0.12287918
0.53104395 0.090814531 0.12318624
0.5322023 0.091322213 0.12349326
0.53250879 0.092317954 0.12350928
0.53281528 0.093313687 0.12352529
0.53312176 0.094309427 0.1235413
0.53342825 0.09530516 0.12355732
0.53373474 0.0963009 0.12357333
0.53404123 0.097296633 0.12358934
0.53519702 0.097796068 0.12389625
0.53550321 0.098790765 0.12391225
0.53580934 0.099785477 0.12392824
0.53611553 0.10078017 0.12394424
0.53642172 0.10177488 0.12396023
0.53757566 0.10226807 0.12426704
0.53788149 0.10326175 0.12428302
0.53818733 0.10425542 0.124299
0.53849322 0.10524908 0.12431499
0.53879905 0.10624275 0.12433097
0.53910488 0.10723641 0.12434694
0.54025656 0.10772239 0.12465362
0.54056209 0.10871503 0.12466959
0.54086763 0.10970765 0.12468556
0.54117316 0.1107003 0.12470151
0.54232323 0.11118112 0.12500812
0.54262847 0.11217272 0.12502407
0.54377753 0.11265042 0.12533061
0.54408246 0.11364099 0.12534654
0.54438734 0.11463156 0.12536247
0.54469228 0.11562212 0.1253784
0.54583985 0.11609464 0.12568489
0.54867131 0.11552699 0.12657234
0.55150092 0.11495312 0.12745972
0.55180359 0.11593644 0.12747554
0.49379572 0.056791738 0.11352944
0.49584299 0.056933518 0.11413157
0.49615774 0.05795614 0.11414801
0.49647251 0.058978759 0.11416446
0.49678728 0.060001381 0.11418091
0.49796668 0.060578428 0.1144901
0.49914545 0.061153393 0.11479926
0.50032353 0.061726294 0.11510839
0.50150102 0.062297128 0.11541748
0.50267798 0.062865883 0.11572656
0.50471723 0.062981822 0.11632825
0.50589246 0.063545421 0.11663722
0.50706714 0.064106919 0.11694619
0.50824112 0.06466639 0.1172551
0.50941449 0.065223783 0.11756398
0.51058722 0.06577909 0.11787282
0.51175928 0.066332363 0.11818163
0.51293075 0.066883534 0.11849043
0.51410156 0.067432642 0.11879917
0.51613194 0.06751965 0.1194004
0.51730114 0.068063587 0.11970906
0.51846975 0.068605468 0.12001771
0.5196377 0.06914527 0.1203263
0.520805 0.069683008 0.12063486
0.5219717 0.070218697 0.12094339
0.52313775 0.070752285 0.1212519
0.52430314 0.07128384 0.12156036
0.52461028 0.072281644 0.12157641
0.52577472 0.072810084 0.12188482
0.5260815 0.073806845 0.12190086
0.52724504 0.074332185 0.12220921
0.52755153 0.075327925 0.12222523
0.52785802 0.076323658 0.12224124
0.52816451 0.077319391 0.12225726
0.52932638 0.077839568 0.12256554
0.52963257 0.078834265 0.12258153
0.5299387 0.07982897 0.12259753
0.53024489 0.080823667 0.12261353
0.53055108 0.081818379 0.12262953
0.53085726 0.082813077 0.12264553
0.53116339 0.083807789 0.12266152
0.53146958 0.084802479 0.12267752
0.53177577 0.085797191 0.12269352
0.5320819 0.086791888 0.12270951
0.53238809 0.087786585 0.12272551
0.53269428 0.088781297 0.12274151
0.5338521 0.089288004 0.12304958
0.53500921 0.089792646 0.12335761
0.53531474 0.090785287 0.12337358
0.53562027 0.091777921 0.12338954
0.53592581 0.092770547 0.1234055
0.53623134 0.093763195 0.12342147
0.53653687 0.094755821 0.12343743
0.53684241 0.095748454 0.12345339
0.53799701 0.096244849 0.1237613
0.53830218 0.097236454 0.12377724
0.53860742 0.09822806 0.12379319
0.53891265 0.09921965 0.12380914
0.53921783 0.10021126 0.12382509
0.54037052 0.10070144 0.12413288
0.5406754 0.101692 0.12414881
0.54098028 0.10268256 0.12416475
0.54128522 0.10367313 0.12418067
0.54159009 0.10466369 0.1241966
0.54189503 0.10565425 0.12421253
0.54219991 0.10664484 0.12422846
0.54250479 0.1076354 0.1242444
0.54280972 0.10862596 0.12426033
0.5431146 0.10961653 0.12427626
0.54426384 0.11009531 0.12458389
0.54456842 0.11108485 0.12459981
0.54571658 0.11156056 0.12490737
0.54602087 0.11254906 0.12492327
0.54632515 0.11353756 0.12493916
0.54747206 0.11400913 0.12524666
0.54777598 0.11499659 0.12526254
0.548922 0.11546506 0.12556998
0.55175084 0.11489137 0.12646052
0.55205351 0.1158747 0.12647633
0.49287444 0.05614204 0.11217783
0.49405614 0.056727402 0.11248822
0.49610287 0.056869317 0.11309244
0.49641764 0.057891935 0.11310888
0.49673241 0.058914557 0.11312533
0.49704716 0.059937175 0.11314178
0.49822631 0.060514286 0.11345202
0.49940479 0.061089318 0.11376223
0.50058264 0.061662283 0.11407241
0.50175989 0.062233184 0.11438256
0.50293654 0.062802002 0.11469268
0.50497526 0.062918074 0.11529648
0.50615025 0.063481733 0.1156065
0.5073247 0.064043298 0.11591651
0.50936019 0.064149044 0.11652014
0.51053298 0.064705454 0.11683005
0.5117051 0.065259829 0.11713993
0.51287669 0.065812089 0.11744979
0.5140475 0.066362306 0.11775961
0.51521778 0.066910468 0.11806939
0.51724726 0.066996545 0.1186727
0.51841593 0.067539521 0.11898241
0.5204432 0.067618355 0.1195856
0.52161026 0.068156168 0.11989521
0.52277672 0.068691894 0.12020481
0.52394247 0.06922558 0.12051436
0.52510762 0.069757186 0.12082387
0.52627212 0.070286714 0.12113335
0.52657861 0.071282446 0.12114936
0.52688509 0.072278187 0.12116537
0.52804834 0.072803609 0.1214748
0.52921093 0.073326916 0.12178418
0.52951682 0.074320585 0.12180016
0.53067845 0.074840814 0.12210949
0.53098398 0.07583344 0.12212545
0.53128952 0.076826088 0.12214142
0.53159505 0.077818714 0.12215738
0.53190058 0.078811347 0.12217335
0.53220612 0.079803973 0.12218931
0.53336549 0.080316991 0.12249853
0.53367072 0.081308596 0.12251447
0.53397596 0.082300186 0.12253042
0.53428119 0.083291791 0.12254637
0.53458637 0.084283397 0.12256232
0.53489161 0.085274987 0.12257826
0.53519684 0.086266592 0.12259421
0.53550202 0.087258197 0.12261016
0.53665859 0.087761879 0.12291922
0.5378145 0.088263474 0.12322827
0.53811908 0.089253001 0.12324418
0.53842366 0.090242542 0.1232601
0.5387283 0.091232076 0.12327601
0.53903282 0.092221603 0.12329192
0.53933746 0.093211144 0.12330784
0.53964198 0.094200663 0.12332375
0.54079539 0.094694033 0.12363265
0.54109961 0.095682532 0.12364855
0.54140389 0.09667103 0.12366445
0.54170817 0.097659528 0.12368035
0.54201239 0.098648027 0.12369625
0.54316384 0.099135153 0.12400503
0.54346782 0.10012263 0.12402092
0.54377174 0.10111009 0.1240368
0.54407567 0.10209756 0.12405268
0.54437965 0.10308502 0.12406856
0.54468358 0.10407249 0.12408444
0.5449875 0.10505995 0.12410032
0.54529148 0.10604741 0.1241162
0.54559541 0.10703488 0.12413208
0.54589933 0.10802234 0.12414797
0.54620332 0.10900981 0.12416384
0.54650724 0.10999727 0.12417973
0.54765457 0.11047097 0.12448831
0.5479582 0.11145739 0.12450418
0.54826182 0.11244383 0.12452004
0.55025029 0.11239652 0.12512122
0.55055326 0.11338088 0.12513706
0.49400115 0.05563838 0.1114305
0.496048 0.055782489 0.11203685
0.49636275 0.056805111 0.1120533
0.49667752 0.05782773 0.11206975
0.49699229 0.058850352 0.11208619
0.49730706 0.05987297 0.11210264
0.49848592 0.060450148 0.11241394
0.49966416 0.061025243 0.1127252
0.50084174 0.061598275 0.11303643
0.50201875 0.062169239 0.11334763
0.50319511 0.062738121 0.1136588
0.50523329 0.062854327 0.1142647
0.50727028 0.062966362 0.11487054
0.50844407 0.063527003 0.11518157
0.50961721 0.064085558 0.11549257
0.51165098 0.064187281 0.11609823
0.51282257 0.06474065 0.11640916
0.5139935 0.065291971 0.11672004
0.51516378 0.06584122 0.11703088
0.5163334 0.066388391 0.1173417
0.5183621 0.066473573 0.11794711
0.5203895 0.066554606 0.11855244
0.52155662 0.067093529 0.11886312
0.52272314 0.067630351 0.11917378
0.52388895 0.068165131 0.11948439
0.5250541 0.068697825 0.11979497
0.52621865 0.069228455 0.12010552
0.52738261 0.069757037 0.12041604
0.52854592 0.070283517 0.12072653
0.52885175 0.071277194 0.12074251
0.5300141 0.071800582 0.12105294
0.53117579 0.072321929 0.12136334
0.53148103 0.073313534 0.12137929
0.53264171 0.073831752 0.12168963
0.53294665 0.074822322 0.12170556
0.53325152 0.075812884 0.12172149
0.5335564 0.076803446 0.12173742
0.53386134 0.077794023 0.12175336
0.53502017 0.078306019 0.12206362
0.53532475 0.079295561 0.12207954
0.53562933 0.08028508 0.12209545
0.53678691 0.080792986 0.12240563
0.5370912 0.081781492 0.12242153
0.53739542 0.08276999 0.12243742
0.5376997 0.083758488 0.12245332
0.53800398 0.084746987 0.12246922
0.5383082 0.085735485 0.12248512
0.53946352 0.086236127 0.12279518
0.54061824 0.086734697 0.12310521
0.54092187 0.087721132 0.12312108
0.54122549 0.088707566 0.12313695
0.54152912 0.089694001 0.12315281
0.54183275 0.090680428 0.12316867
0.54213637 0.091666847 0.12318453
0.54244 0.092653282 0.1232004
0.5435921 0.093143612 0.12351029
0.54389542 0.094129004 0.12352614
0.54419875 0.09511441 0.12354199
0.54450202 0.096099801 0.12355784
0.54480535 0.097085193 0.12357368
0.5459556 0.097569279 0.1238835
0.54625863 0.098553643 0.12389933
0.5465616 0.099538013 0.12391517
0.54686457 0.10052236 0.123931
0.5471676 0.10150673 0.12394682
0.54747057 0.1024911 0.12396266
0.54777354 0.10347545 0.12397849
0.54807657 0.10445981 0.12399432
0.54837954 0.10544419 0.12401015
0.54868251 0.10642854 0.12402598
0.54898554 0.1074129 0.12404181
0.54928851 0.10839728 0.12405764
0.54959148 0.10938162 0.12407348
0.54989451 0.11036599 0.12408931
0.55103993 0.11083459 0.12439885
0.55218476 0.11130112 0.12470837
0.55501264 0.11072991 0.12560523
0.55531406 0.1117091 0.12562098
0.57001323 0.11067183 0.13013454
0.57030988 0.11163551 0.13015004
0.57090312 0.11356288 0.13018104
0.57119972 0.11452656 0.13019654
0.57149637 0.11549024 0.13021204
0.57179296 0.11645392 0.13022754
0.57125252 0.11795095 0.1299496
0.49426156 0.055574048 0.11038927
0.49630788 0.055718288 0.11099773
0.49662265 0.056740906 0.11101417
0.49693742 0.057763528 0.11103062
0.49725217 0.058786146 0.11104707
0.49756694 0.059808768 0.11106351
0.49874556 0.06038601 0.11137586
0.49992353 0.060961168 0.11168817
0.50110084 0.061534263 0.11200045
0.50227755 0.062105294 0.1123127
0.50345367 0.062674239 0.11262492
0.50549138 0.062790573 0.11323293
0.50752783 0.062902741 0.11384087
0.50870132 0.063463442 0.11415295
0.51073551 0.063568391 0.11476076
0.51190746 0.064123921 0.11507276
0.51393944 0.064221621 0.11568047
0.51510978 0.064771973 0.11599239
0.51627946 0.065320253 0.11630426
0.51744854 0.065866463 0.11661611
0.51947641 0.065950736 0.11722361
0.52150297 0.066030882 0.11783102
0.52266949 0.066568799 0.11814275
0.52383542 0.067104682 0.11845443
0.52500063 0.067638487 0.11876608
0.52616525 0.068170205 0.1190777
0.52732921 0.068699889 0.11938928
0.52849257 0.069227464 0.11970083
0.52879846 0.070221134 0.11971682
0.52996081 0.070745632 0.12002831
0.53112257 0.071268067 0.12033978
0.53228366 0.07178843 0.12065121
0.53344423 0.0723067 0.12096263
0.53460401 0.072822936 0.12127399
0.53490829 0.073811434 0.12128989
0.53521258 0.074799933 0.12130579
0.5355168 0.075788431 0.12132169
0.53667504 0.076299481 0.12163296
0.53697902 0.077286944 0.12164884
0.53728294 0.078274414 0.12166473
0.53843993 0.078781337 0.12197594
0.53874356 0.079767749 0.12199181
0.53904718 0.080754183 0.12200767
0.54020286 0.081256986 0.12231882
0.54050618 0.082242377 0.12233467
0.54080945 0.083227769 0.12235051
0.54111278 0.084213175 0.12236636
0.54226691 0.084710762 0.12267745
0.54342037 0.085206307 0.12298848
0.54372305 0.086189635 0.12300429
0.54402572 0.087172963 0.12302011
0.54432839 0.08815629 0.12303592
0.54463106 0.089139618 0.12305173
0.54493374 0.090122946 0.12306754
0.54523641 0.091106273 0.12308336
0.54638737 0.091593556 0.12339426
0.54668969 0.092575856 0.12341005
0.54699206 0.093558148 0.12342586
0.54729438 0.094540447 0.12344165
0.54759675 0.095522746 0.12345745
0.54789913 0.096505038 0.12347325
0.54904783 0.096985072 0.12378404
0.54934984 0.097966328 0.12379982
0.54965186 0.098947592 0.1238156
0.54995388 0.099928856 0.12383138
0.55025595 0.10091011 0.12384716
0.55055797 0.10189138 0.12386294
0.55085999 0.10287263 0.12387872
0.55116206 0.1038539 0.1238945
0.55146408 0.10483515 0.12391028
0.55092263 0.10632797 0.12363122
