# .PCD v0.7 - Point Cloud Data file format
VERSION 0.7
FIELDS x y z
SIZE 4 4 4
TYPE F F F
COUNT 1 1 1
WIDTH 1369
HEIGHT 1
VIEWPOINT 0 0 0 1 0 0 0
POINTS 1369
DATA ascii
0.50443029 -0.0087294523 0.06296853
0.50466025 -0.0099616088 0.062613264
0.50488877 -0.011195468 0.062257975
0.50448382 -0.011715417 0.062249698
0.50471044 -0.012951866 0.06189435
0.50430483 -0.013472667 0.061886057
0.5032689 -0.013275282 0.062224869
0.50286394 -0.013795231 0.062216591
0.50308794 -0.015035081 0.061861187
0.50268227 -0.015555881 0.061852898
0.50227666 -0.016076688 0.061844606
0.55999058 0.072161689 0.065663047
0.55885893 0.072235398 0.066000871
0.55845988 0.071723104 0.06599272
0.55806088 0.071210809 0.065984562
0.55693185 0.071287952 0.066322468
0.55653352 0.070776507 0.066314325
0.55540645 0.070856169 0.066652253
0.55428076 0.070937537 0.066990204
0.55315638 0.071020603 0.067328177
0.55203331 0.071105406 0.06766621
0.55091155 0.071191877 0.068004236
0.54979116 0.071280047 0.068342298
0.54867208 0.071369924 0.068680383
0.54755431 0.071461499 0.069018498
0.54643786 0.07155481 0.069356658
0.54532272 0.07164979 0.069694832
0.54420894 0.071746476 0.070033021
0.54309654 0.071844853 0.070371248
0.54198533 0.071944974 0.070709519
0.54087555 0.072046764 0.07104779
0.53976709 0.072150253 0.071386099
0.53865993 0.072255448 0.07172443
0.53755409 0.072362341 0.072062783
0.53644955 0.07247097 0.072401188
0.53534639 0.072581269 0.072739601
0.53424454 0.072693273 0.073078036
0.53314406 0.072806977 0.073416509
0.53166109 0.072429657 0.073747158
0.53056383 0.072547644 0.074085712
0.52946794 0.072667308 0.074424274
0.52837342 0.072788663 0.074762858
0.52728015 0.072911732 0.075101472
0.52618819 0.073036529 0.075440139
0.52509767 0.073162995 0.075778805
0.52400839 0.07329116 0.076117501
0.52292049 0.073421031 0.076456226
0.5218339 0.073552608 0.076794975
0.52074856 0.073685914 0.077133775
0.51966459 0.073820889 0.077472582
0.51928812 0.073337533 0.077464886
0.51820618 0.073475063 0.077803731
0.51712555 0.073614292 0.078142606
0.51604617 0.073755257 0.078481525
0.51496822 0.073897898 0.078820452
0.51459438 0.073417939 0.078812808
0.51351839 0.073563129 0.079151779
0.51244372 0.073710017 0.079490773
0.51137036 0.073858611 0.07982979
0.51099855 0.073381208 0.07982219
0.51062667 0.072903804 0.079814591
0.51025486 0.072426401 0.079806991
0.50988305 0.071948998 0.079799391
0.50951123 0.071471594 0.079791792
0.50913936 0.070994191 0.079784192
0.50876755 0.070516787 0.079776593
0.50839573 0.070039384 0.079768993
0.50802386 0.069561981 0.079761393
0.50765204 0.069084577 0.079753794
0.50728023 0.068607174 0.079746194
0.50690836 0.06812977 0.079738602
0.50653654 0.067652367 0.079731002
0.50616473 0.067174956 0.079723403
0.50579292 0.066697553 0.079715803
0.50542104 0.066220149 0.079708204
0.50504923 0.065742746 0.079700604
0.50467741 0.06526535 0.079693004
0.50430554 0.064787939 0.079685405
0.50393373 0.064310536 0.079677805
0.50424886 0.063188411 0.079323284
0.50387633 0.062710159 0.07931567
0.50418943 0.061585486 0.078961112
0.50381631 0.06110638 0.07895349
0.50412738 0.059979148 0.078598887
0.5037536 0.059499193 0.07859125
0.50406271 0.058369413 0.07823661
0.50437057 0.057237897 0.077881917
0.50467706 0.056104712 0.077527225
0.50430125 0.055622201 0.077519543
0.50392544 0.055139691 0.077511862
0.50422925 0.054003105 0.077157117
0.50385278 0.053519741 0.077149421
0.50347632 0.053036384 0.077141725
0.5037775 0.05189639 0.076786928
0.50340039 0.051412176 0.076779217
0.5036996 0.0502696 0.076424353
0.5039975 0.049125355 0.076069482
0.50361902 0.048639439 0.076061748
0.50391489 0.047492635 0.075706832
0.50353581 0.047005877 0.075699084
0.50382966 0.045856517 0.075344138
0.50344986 0.045368906 0.075336374
0.50307012 0.044881288 0.075328611
0.50336134 0.043728527 0.074973606
0.50298089 0.043240063 0.074965827
0.50260043 0.042751599 0.074958056
0.5028891 0.041595399 0.074602976
0.50250798 0.041106082 0.074595183
0.50212687 0.040616769 0.074587397
0.5024128 0.039457202 0.07423228
0.50203103 0.038967036 0.074224479
0.50164926 0.038476866 0.074216679
0.5019325 0.037313893 0.07386151
0.50155008 0.036822874 0.073853694
0.50183135 0.03565735 0.07349848
0.50144827 0.035165485 0.073490649
0.50172764 0.033997372 0.073135383
0.50200564 0.032827597 0.072780102
0.50228226 0.031656116 0.072424799
0.50255758 0.030482931 0.072069474
0.50217187 0.029987659 0.072061583
0.50244522 0.028811928 0.071706213
0.5020588 0.028315797 0.071698315
0.50233018 0.027137475 0.071342885
0.50194311 0.026640501 0.071334973
0.50155604 0.026143525 0.07132706
0.50182474 0.024961837 0.070971593
0.50143701 0.024464009 0.070963673
0.50170368 0.023279764 0.070608161
0.5019691 0.022093823 0.070252627
0.50223315 0.020906171 0.069897071
0.50184345 0.020405795 0.069889106
0.50210553 0.01921556 0.069533482
0.5023663 0.018023657 0.069177851
0.50197524 0.017521571 0.069169857
0.50223398 0.016327117 0.068814188
0.50249147 0.01513096 0.06845849
0.5027476 0.013933066 0.068102747
0.50300241 0.012733502 0.067746997
0.50260866 0.012228015 0.06773895
0.5028615 0.011025902 0.067383163
0.50311297 0.0098220855 0.067027338
0.50336307 0.0086165657 0.066671498
0.50361198 0.0074093137 0.066315599
0.50450331 0.0055003539 0.065611899
0.50410563 0.0049897623 0.06560377
0.50435042 0.0037774341 0.065247819
0.50459403 0.0025633743 0.064891815
0.5048362 0.0013476451 0.064535812
0.50443655 0.00083449826 0.064527638
0.50467676 -0.00038378595 0.06417159
0.50427639 -0.00089778448 0.064163409
0.50451463 -0.0021186185 0.063807324
0.5047515 -0.0033411558 0.063451201
0.50434983 -0.0038568578 0.063442998
0.50458479 -0.0050819842 0.063086815
0.50481838 -0.0063087745 0.062730633
0.50441539 -0.006826174 0.0627224
0.50464696 -0.0080555128 0.062366169
0.50424331 -0.0085737649 0.062357921
0.50447291 -0.0098056654 0.062001657
0.5047012 -0.011039269 0.061645363
0.50492817 -0.012274605 0.061289024
0.50452256 -0.012795411 0.061280731
0.50411695 -0.013316212 0.061272442
0.50308132 -0.013119083 0.061612256
0.50267637 -0.013639032 0.061603978
0.5029 -0.014878626 0.061247572
0.50249439 -0.015399427 0.06123928
0.50208873 -0.015920233 0.061230991
0.56013745 0.071216106 0.064703286
0.55900609 0.071289554 0.065042116
0.55787605 0.071364708 0.065380976
0.55747706 0.070852414 0.065372817
0.55634898 0.070930153 0.065711737
0.55522221 0.071009554 0.066050664
0.55409682 0.071090668 0.06638962
0.55297279 0.071173474 0.066728599
0.55184996 0.071258023 0.067067631
0.55072856 0.071344241 0.067406669
0.54960847 0.071432158 0.06774573
0.54848969 0.071521774 0.068084814
0.54737222 0.071613096 0.068423934
0.54625607 0.071706153 0.0687631
0.54514128 0.071800873 0.069102272
0.54402781 0.071897306 0.069441468
0.5429157 0.07199543 0.069780692
0.54180479 0.072095297 0.070119962
0.54069531 0.072196826 0.070459247
0.53958714 0.072300062 0.070798546
0.53848034 0.072405003 0.071137883
0.53737479 0.072511643 0.071477242
0.53627056 0.072620012 0.071816653
0.53516769 0.072730057 0.072156064
0.53406614 0.072841801 0.072495505
0.53296596 0.072955251 0.072834976
0.53148329 0.072577678 0.073166624
0.53109956 0.072084956 0.073158786
0.5292908 0.072814815 0.073845744
0.52819657 0.072935916 0.074185342
0.5271036 0.073058724 0.074524954
0.526012 0.073183268 0.074864618
0.52492172 0.073309481 0.07520429
0.5238328 0.073437393 0.075543992
0.52274513 0.07356701 0.075883716
0.52165884 0.073698327 0.07622347
0.52057385 0.073831379 0.076563276
0.52019674 0.073347166 0.076555565
0.51911372 0.073482737 0.076895386
0.51803207 0.073620014 0.077235237
0.51695174 0.07375899 0.07757511
0.51657659 0.073277332 0.077567443
0.51549822 0.073418893 0.077907376
0.51442122 0.073562123 0.078247324
0.51334554 0.073707059 0.078587294
0.51227117 0.073853694 0.078927286
0.51189864 0.073375441 0.078919671
0.51082629 0.073524624 0.079259709
0.51045448 0.073047221 0.079252109
0.5100826 0.072569817 0.079244509
0.50971079 0.072092414 0.07923691
0.50933897 0.07161501 0.07922931
0.5089671 0.071137607 0.079221711
0.50859529 0.070660204 0.079214111
0.50822347 0.0701828 0.079206511
0.50785166 0.069705397 0.079198919
0.50747979 0.069227993 0.07919132
0.50710797 0.06875059 0.07918372
0.50673616 0.068273187 0.07917612
0.50636429 0.067795783 0.079168521
0.50599247 0.067318372 0.079160921
0.50562066 0.066840969 0.079153322
0.50524879 0.066363566 0.079145722
0.50487697 0.06588617 0.079138122
0.50450516 0.065408766 0.079130523
0.50482124 0.064288594 0.078775026
0.50444877 0.063810341 0.078767411
0.5040763 0.063332088 0.078759804
0.50370377 0.062853828 0.07875219
0.50401658 0.061729413 0.078396626
0.50364345 0.061250307 0.078389004
0.50395423 0.060123332 0.078033395
0.50358045 0.059643377 0.078025758
0.50388926 0.058513854 0.07767012
0.50419682 0.057382591 0.077314422
0.50450295 0.05624966 0.076958731
0.50412714 0.055767152 0.076951049
0.50375134 0.055284642 0.076943368
0.5040549 0.054148313 0.076587617
0.50367838 0.053664949 0.076579921
0.50397992 0.052526064 0.076224133
0.5036028 0.052041851 0.076216422
0.50390238 0.050900377 0.075860567
0.5035246 0.050415315 0.075852849
0.50382215 0.049271327 0.075496972
0.50411838 0.048125632 0.075141072
0.5037393 0.047638863 0.075133324
0.50403351 0.046490621 0.074777387
0.50365371 0.046003003 0.074769624
0.50327396 0.045515388 0.07476186
0.50289416 0.04502777 0.074754097
0.50318509 0.04387527 0.074398093
0.50280464 0.043386806 0.074390315
0.50242418 0.042898338 0.074382536
0.50271255 0.041742396 0.074026458
0.50233144 0.041253079 0.074018665
0.50261772 0.040094621 0.073662564
0.50223595 0.039604452 0.073654763
0.50185418 0.039114285 0.073646955
0.50213778 0.037952419 0.073290803
0.50175536 0.0374614 0.073282987
0.50203699 0.036296982 0.07292679
0.50165391 0.035805114 0.072918959
0.50193363 0.034638114 0.072562695
0.50154984 0.034145389 0.072554849
0.50182754 0.032975867 0.072198577
0.50210387 0.031804644 0.071842268
0.50237888 0.030631717 0.071485937
0.50265259 0.029457092 0.071129575
0.50226617 0.028960967 0.071121678
0.50253797 0.027783753 0.070765249
0.50215089 0.027286772 0.070757344
0.5024206 0.026107043 0.070400901
0.50203288 0.025609216 0.070392974
0.50164509 0.025111388 0.070385054
0.50191218 0.023928251 0.070028551
0.50152379 0.023429573 0.070020616
0.50178885 0.022243885 0.069664083
0.50205261 0.02105649 0.069307514
0.5023151 0.019867364 0.068950906
0.50192469 0.019366136 0.068942927
0.50218517 0.018174486 0.06858629
0.50244427 0.016981134 0.068229638
0.50270206 0.015786085 0.067872949
0.50230968 0.015282302 0.067864932
0.5025655 0.014084663 0.067508183
0.50282001 0.012885355 0.067151427
0.50242633 0.012379868 0.067143381
0.50267881 0.011178011 0.066786587
0.50292993 0.0099744499 0.066429764
0.50317979 0.0087691853 0.066072918
0.50342834 0.0075621894 0.065716021
0.50431907 0.0056537408 0.065010317
0.50456429 0.0044425195 0.064653374
0.50480819 0.0032295678 0.06429638
0.50440919 0.0027172726 0.064288229
0.50465107 0.0015017989 0.063931219
0.50489163 0.00028462199 0.06357418
0.50449127 -0.00022937656 0.063565999
0.50472987 -0.0014491091 0.063208915
0.50432885 -0.0019639535 0.063200727
0.50456542 -0.0031862352 0.062843606
0.50480074 -0.0044102543 0.062486436
0.50439841 -0.0049268077 0.062478215
0.5046317 -0.0061533423 0.062121026
0.50486362 -0.0073815743 0.061763812
0.50445998 -0.0078998255 0.061755564
0.50468993 -0.0091306185 0.061398309
0.50491858 -0.010363115 0.061041027
0.50451362 -0.010883071 0.06103275
0.5047403 -0.01211815 0.060675405
0.50433463 -0.012638957 0.060667116
0.50392902 -0.013159757 0.060658827
0.50289369 -0.012962883 0.060999643
0.50248873 -0.013482832 0.060991365
0.50271213 -0.014722171 0.060633954
0.50230646 -0.015242972 0.060625665
0.50190085 -0.015763778 0.060617376
0.55995202 0.071370512 0.064097688
0.55809021 0.072030902 0.06478554
0.55842131 0.070930563 0.064429358
0.55729222 0.071006313 0.064769231
0.55689323 0.070494018 0.064761072
0.55576611 0.070572346 0.065101013
0.55464035 0.070652351 0.065440953
0.55351591 0.070734054 0.065780923
0.55239278 0.070817463 0.066120923
0.55127096 0.070902608 0.066460967
0.55015051 0.070989415 0.066801019
0.54903138 0.071077928 0.067141093
0.54791361 0.07116814 0.067481205
0.5467971 0.071260057 0.067821331
0.54568195 0.071353711 0.068161517
0.54456812 0.071449026 0.068501703
0.5434556 0.071546055 0.068841912
0.54234445 0.071644776 0.069182158
0.54123455 0.071745232 0.069522448
0.54012603 0.071847364 0.069862738
0.53901881 0.071951196 0.070203066
0.53791296 0.072056726 0.070543416
0.53680843 0.072163962 0.070883788
0.53570515 0.072272927 0.071224213
0.53460324 0.072383568 0.071564645
0.5335027 0.072495908 0.071905099
0.53240347 0.072609946 0.072245583
0.53092176 0.072232969 0.072578251
0.52982581 0.072351299 0.072918832
0.52873117 0.072471298 0.073259406
0.5276379 0.072593004 0.073600017
0.52654594 0.072716407 0.07394065
0.5254553 0.07284154 0.074281327
0.52436602 0.072968349 0.07462202
0.523278 0.073096856 0.074962735
0.52219135 0.073227063 0.075303473
0.52110606 0.073358983 0.075644247
0.52002203 0.073492631 0.075985059
0.51893932 0.073627941 0.076325886
0.51856285 0.073144585 0.07631819
0.51748216 0.07328245 0.076659054
0.51640284 0.073422022 0.076999947
0.51532477 0.07356333 0.077340886
0.51424801 0.073706307 0.077681832
0.51317263 0.073850989 0.0780228
0.5127995 0.07337188 0.078015178
0.51172608 0.073519111 0.078356192
0.51135361 0.073040858 0.078348577
0.51028222 0.073190637 0.078689627
0.50991035 0.072713234 0.078682028
0.50953853 0.07223583 0.078674428
0.50916672 0.071758427 0.078666829
0.5087949 0.071281023 0.078659229
0.50842303 0.07080362 0.078651637
0.50805122 0.070326217 0.078644037
0.5076794 0.069848813 0.078636438
0.50730753 0.06937141 0.078628838
0.50693572 0.068894006 0.078621238
0.5065639 0.068416603 0.078613639
0.50619203 0.0679392 0.078606039
0.50582021 0.067461789 0.07859844
0.5054484 0.066984393 0.07859084
0.50507659 0.066506989 0.078583241
0.50470471 0.066029586 0.078575641
0.50502121 0.064910524 0.078219153
0.50464869 0.064432271 0.078211546
0.50427622 0.063954011 0.078203931
0.50390375 0.063475758 0.078196317
0.50353122 0.062997505 0.078188702
0.50384372 0.061873339 0.07783214
0.50347054 0.061394237 0.077824511
0.50378108 0.060267515 0.077467911
0.50340724 0.05978756 0.077460267
0.50371575 0.058658294 0.077103622
0.50402302 0.057527289 0.076746933
0.50364786 0.057045627 0.076739267
0.5039531 0.055912104 0.076382548
0.50357723 0.055429593 0.076374866
0.5038805 0.054293517 0.076018117
0.5041824 0.053155735 0.075661331
0.50380522 0.052671526 0.075653628
0.50410521 0.051531155 0.075296782
0.50372738 0.051046096 0.075289063
0.50402528 0.04990321 0.074932203
0.50364685 0.049417298 0.074924469
0.50394279 0.048271861 0.074567564
0.50356364 0.047785092 0.074559815
0.50385761 0.046637103 0.074202873
0.50347781 0.046149485 0.074195109
0.50309801 0.045661874 0.074187346
0.50271821 0.045174256 0.074179582
0.50300884 0.044022009 0.073822573
0.50262839 0.043533545 0.073814802
0.50291711 0.042378712 0.073457725
0.502536 0.041889392 0.073449939
0.50282264 0.040732037 0.073092841
0.50244087 0.040241871 0.07308504
0.50272548 0.039081968 0.072727911
0.50234306 0.038590945 0.072720096
0.50196064 0.038099926 0.072712272
0.50224262 0.036936618 0.072355092
0.50185955 0.036444746 0.072347261
0.50147647 0.035952874 0.07233943
0.50175583 0.034786131 0.071982168
0.5013721 0.034293409 0.071974322
0.50164944 0.033124145 0.071617045
0.50192547 0.031953175 0.07125973
0.50220019 0.030780502 0.0709024
0.50247359 0.029606134 0.070545033
0.50208718 0.029110009 0.070537135
0.50235862 0.02793305 0.070179708
0.50197154 0.027436068 0.070171803
0.50224096 0.026256595 0.069814354
0.50185323 0.025758768 0.069806434
0.50212067 0.024576733 0.069448948
0.50173223 0.02407806 0.069441006
0.50199771 0.022893481 0.069083482
0.50160861 0.022393949 0.069075532
0.50187206 0.021206809 0.068717964
0.50213426 0.020017939 0.068360351
0.50239503 0.018827397 0.068002731
0.50200397 0.018325318 0.067994736
0.50226283 0.017132221 0.067637078
0.50252026 0.015937427 0.067279384
0.50212789 0.015433644 0.067271367
0.50238347 0.014236261 0.066913612
0.50263762 0.013037208 0.066555858
0.50289047 0.011836458 0.066198073
0.503142 0.010634004 0.065840267
0.50274694 0.010126814 0.06583219
0.5029965 0.0089218058 0.065474339
0.50324476 0.007715065 0.065116443
0.50413483 0.0058071273 0.064408734
0.50437975 0.0045961621 0.064050786
0.50462335 0.0033834658 0.063692793
0.50486559 0.0021690936 0.063334793
0.50446594 0.0016559527 0.063326627
0.50470614 0.00043903117 0.062968582
0.50430584 -7.4967371e-05 0.062960401
0.50454408 -0.0012944441 0.062602319
0.50478101 -0.0025156182 0.062244214
0.50501668 -0.00373853 0.061886057
0.50461435 -0.0042550778 0.061877836
0.504848 -0.0054805106 0.061519656
0.50508028 -0.0067076352 0.061161455
0.50467664 -0.0072258865 0.061153203
0.50490695 -0.0084555726 0.060794961
0.50450265 -0.0089746751 0.060786698
0.504731 -0.010206916 0.060428414
0.50495803 -0.011440889 0.060070079
0.50455236 -0.011961696 0.06006179
0.50414675 -0.012482502 0.060053501
0.50374109 -0.013003303 0.060045209
0.50270611 -0.012806685 0.06038703
0.50230116 -0.013326634 0.060378753
0.5025242 -0.014565716 0.060020339
0.50211859 -0.015086518 0.06001205
0.50171292 -0.015607324 0.060003757
0.55976659 0.071524926 0.063492097
0.55863583 0.071597859 0.063832931
0.55823612 0.071084715 0.063824765
0.55783647 0.070571572 0.063816592
0.5567084 0.07064791 0.064157486
0.55558157 0.070725992 0.064498425
0.55445611 0.070805736 0.064839371
0.55333197 0.070887186 0.065180339
0.5522092 0.070970342 0.065521345
0.55108768 0.071055226 0.065862387
0.54996753 0.071141779 0.066203445
0.54884869 0.071230039 0.066544525
0.54773122 0.071319997 0.066885635
0.54661506 0.071411654 0.067226768
0.54550016 0.071505047 0.067567952
0.54438663 0.071600117 0.067909144
0.54327446 0.071696885 0.068250358
0.54216361 0.071795352 0.068591602
0.54105401 0.071895555 0.068932891
0.53994578 0.071997426 0.069274195
0.53883892 0.072100997 0.069615513
0.53773332 0.072206281 0.069956869
0.53662908 0.072313257 0.070298247
0.53552616 0.072421968 0.070639677
0.53442454 0.072532348 0.070981108
0.5333243 0.072644435 0.071322568
0.53222537 0.07275822 0.071664058
0.53074402 0.07238099 0.071997724
0.5296483 0.072499067 0.072339304
0.52855402 0.072618805 0.072680883
0.52746105 0.072740249 0.073022492
0.52636939 0.0728634 0.073364131
0.52527905 0.072988279 0.073705815
0.52419007 0.073114835 0.074047506
0.5231024 0.073243082 0.074389219
0.52201605 0.073373042 0.07473097
0.52093101 0.073504694 0.075072736
0.51984727 0.073638089 0.075414561
0.51947016 0.073153876 0.075406849
0.51838845 0.073289789 0.075748689
0.51730812 0.073427401 0.076090559
0.51622903 0.07356672 0.076432452
0.51515126 0.073707774 0.076774396
0.51477677 0.073226966 0.076766744
0.51370102 0.073370531 0.077108704
0.51262665 0.07351581 0.077450693
0.51155353 0.07366278 0.077792704
0.51118106 0.073184527 0.077785097
0.51080859 0.072706275 0.077777483
0.51043606 0.072228014 0.077769868
0.51006359 0.071749762 0.077762254
0.50969106 0.071271509 0.077754639
0.50931859 0.070793256 0.077747032
0.50894606 0.070314996 0.077739418
0.50857359 0.069836743 0.077731803
0.50820112 0.06935849 0.077724189
0.50782859 0.068880238 0.077716574
0.50745612 0.068401977 0.077708967
0.50708359 0.067923725 0.077701353
0.50671113 0.067445472 0.077693738
0.5063386 0.066967212 0.077686124
0.50596613 0.066488959 0.077678509
0.50559366 0.066010706 0.077670902
0.50522113 0.065532453 0.077663288
0.50484866 0.065054193 0.077655673
0.50447613 0.06457594 0.077648059
0.50479031 0.063454591 0.077290535
0.50441718 0.062975481 0.077282906
0.504044 0.062496375 0.077275284
0.50367087 0.062017269 0.077267654
0.50329769 0.061538164 0.077260025
0.50360793 0.060411699 0.076902419
0.50323409 0.059931744 0.076894782
0.5035423 0.058802731 0.076537132
0.50384921 0.057671983 0.076179437
0.50347406 0.057190321 0.076171771
0.50377899 0.056057055 0.075814053
0.50408256 0.054922082 0.075456306
0.50438482 0.05378541 0.075098537
0.50400764 0.0533012 0.075090833
0.50430799 0.052161936 0.074732997
0.50393015 0.051676873 0.074725278
0.50422847 0.050535098 0.074367426
0.50384998 0.050049186 0.074359693
0.50347155 0.049563274 0.074351959
0.50376713 0.04841809 0.073994055
0.50338805 0.047931321 0.073986307
0.50368166 0.046783589 0.073628359
0.50330186 0.046295971 0.073620595
0.50292206 0.04580836 0.073612832
0.50254232 0.045320742 0.073605075
0.50283259 0.044168748 0.07324706
0.50245219 0.043680284 0.073239282
0.50274056 0.042525709 0.072881207
0.50302756 0.041369464 0.072523125
0.50264579 0.040879291 0.072515324
0.50293076 0.039720494 0.072157204
0.50254834 0.039229475 0.072149388
0.5028314 0.038068119 0.071791224
0.50244826 0.037576251 0.071783394
0.50206518 0.037084378 0.071775563
0.50168204 0.03659251 0.071767733
0.50129896 0.036100637 0.071759902
0.50157809 0.034934148 0.071401641
0.5011943 0.034441426 0.071393795
0.50147134 0.033272415 0.071035512
0.50174713 0.032101706 0.070677198
0.50136203 0.031607278 0.070669331
0.5022946 0.029755173 0.069960497
0.50190818 0.02925905 0.0699526
0.50217932 0.028082347 0.069594167
0.5024491 0.026903974 0.069235735
0.50206137 0.026406147 0.069227807
0.50232911 0.025225218 0.068869337
0.50194073 0.02472654 0.068861395
0.50155234 0.024227867 0.06885346
0.50181746 0.023043543 0.068494931
0.50208127 0.021857511 0.068136379
0.50169152 0.021357128 0.068128407
0.50195342 0.020168513 0.067769796
0.5022139 0.018978227 0.067411169
0.50247306 0.017786244 0.067052521
0.50208133 0.017283307 0.067044511
0.50233853 0.016088769 0.066685826
0.50259441 0.014892493 0.06632708
0.50220138 0.014387858 0.066319048
0.50245523 0.013189062 0.065960288
0.50270778 0.011988567 0.065601505
0.50295901 0.010786369 0.065242693
0.50320888 0.0095824674 0.064883851
0.50281316 0.0090744253 0.064875767
0.50306112 0.0078679407 0.064516865
0.5039506 0.0059605143 0.063807145
0.50419521 0.0047498047 0.063448198
0.50443852 0.0035373638 0.063089199
0.50468045 0.0023232473 0.062730201
0.50428075 0.0018101062 0.062722035
0.50452071 0.00059344055 0.062362991
0.50475931 -0.0006249288 0.062003918
0.5049966 -0.0018450015 0.061644822
0.50459498 -0.0023606976 0.061636612
0.5048303 -0.0035833537 0.061277453
0.50442803 -0.0040999013 0.061269231
0.50466132 -0.0053250785 0.060910054
0.5048933 -0.0065519474 0.060550846
0.50448966 -0.0070701991 0.060542595
0.50471967 -0.0082996292 0.06018335
0.50494832 -0.0095307631 0.059824076
0.50454336 -0.010050718 0.059815802
0.5047701 -0.011284434 0.059456464
0.50436449 -0.011805241 0.059448175
0.50395882 -0.012326048 0.059439883
0.50355321 -0.012846848 0.059431594
0.50251853 -0.012650486 0.059774417
0.50211352 -0.013170435 0.05976614
0.50233632 -0.014409262 0.059406724
0.50193065 -0.014930063 0.059398431
0.50152504 -0.01545087 0.059390143
0.50049365 -0.015250248 0.059733033
0.56031191 0.071093507 0.062536493
0.55991089 0.070578657 0.062528297
0.55805099 0.071238868 0.063220173
0.55765134 0.070725724 0.063212
0.55652356 0.070801809 0.063553892
0.55612451 0.070289515 0.063545741
0.5549987 0.070368193 0.0638877
0.55387419 0.070448533 0.06422966
0.55275106 0.070530578 0.064571649
0.55162925 0.070614323 0.06491366
0.55050868 0.070699804 0.065255724
0.54938948 0.070786953 0.065597795
0.54827166 0.070875809 0.065939896
0.54715514 0.070966363 0.066282019
0.54603994 0.071058616 0.066624172
0.54492605 0.071152605 0.06696637
0.54381347 0.071248271 0.067308575
0.54270226 0.071345627 0.06765081
0.54087347 0.07204587 0.068343341
0.53976554 0.072147489 0.068685643
0.53865898 0.072250806 0.069027968
0.53755373 0.072355829 0.069370322
0.53644979 0.072462551 0.069712706
0.53534716 0.072571009 0.070055135
0.53424585 0.072681136 0.070397571
0.5331459 0.072792962 0.070740029
0.53204727 0.072906494 0.071082525
0.53056622 0.07252901 0.071417198
0.52947086 0.072646827 0.071759775
0.52837688 0.072766311 0.07210236
0.5272842 0.072887503 0.072444975
0.52619284 0.073010392 0.072787613
0.52510279 0.073135026 0.073130302
0.52401412 0.073261313 0.073472992
0.52292675 0.073389314 0.073815711
0.52184075 0.073519014 0.07415846
0.52075601 0.073650412 0.074501231
0.52037823 0.07316535 0.074493513
0.51929545 0.073299341 0.074836351
0.51821405 0.073434994 0.075179189
0.51713401 0.073572353 0.075522058
0.51605523 0.07371141 0.075864956
0.51497781 0.073852211 0.076207906
0.51460332 0.073371403 0.076200247
0.51352787 0.073514715 0.076543212
0.51315403 0.073034763 0.076535575
0.51208061 0.073180631 0.076878577
0.5110085 0.073328197 0.07722161
0.51063603 0.072849944 0.077213995
0.5102635 0.072371691 0.077206381
0.50989103 0.071893439 0.077198774
0.5095185 0.071415178 0.077191159
0.50914603 0.070936926 0.077183545
0.50877351 0.070458673 0.07717593
0.50840104 0.069980413 0.077168316
0.50802857 0.06950216 0.077160709
0.50765604 0.069023907 0.077153094
0.50728357 0.068545654 0.07714548
0.50691104 0.068067394 0.077137865
0.50653857 0.067589141 0.077130251
0.50616604 0.067110889 0.077122644
0.50579357 0.066632636 0.077115029
0.5054211 0.066154376 0.077107415
0.50504857 0.065676123 0.0770998
0.5046761 0.06519787 0.077092186
0.50499064 0.064077616 0.076733671
0.50461745 0.063598514 0.076726049
0.50424433 0.063119411 0.07671842
0.50387114 0.062640302 0.07671079
0.50349802 0.062161196 0.076703168
0.50312483 0.061682094 0.076695539
0.50343472 0.060555883 0.076336928
0.50306094 0.060075928 0.076329291
0.50336879 0.058947172 0.075970642
0.50367546 0.057816677 0.075611942
0.50330031 0.057335019 0.075604275
0.50360489 0.056202006 0.075245559
0.50390816 0.05506729 0.074886806
0.50421011 0.053930871 0.074528039
0.50451076 0.052792717 0.074169219
0.50413293 0.052307654 0.074161492
0.50443161 0.051166989 0.073802657
0.50405312 0.050681073 0.073794924
0.50367469 0.050195158 0.073787183
0.50397062 0.049051084 0.073428288
0.50359154 0.048564319 0.073420539
0.50321239 0.04807755 0.073412791
0.50350571 0.046930075 0.073053844
0.50312591 0.046442457 0.073046081
0.50274616 0.045954842 0.073038325
0.5030368 0.044803958 0.072679318
0.50332624 0.043651335 0.072320268
0.50294513 0.043162022 0.072312482
0.50323248 0.042006884 0.071953408
0.50285071 0.041516714 0.071945608
0.50313604 0.040359024 0.071586497
0.50275362 0.039868005 0.071578674
0.50303698 0.038707756 0.071219526
0.5026539 0.038215883 0.071211696
0.50227082 0.037724014 0.071203865
0.50188768 0.037232142 0.071196035
0.5015046 0.03674027 0.071188204
0.50112152 0.036248401 0.071180381
0.50140029 0.035082169 0.070821106
0.50101656 0.034589443 0.070813268
0.5012933 0.033420689 0.070453979
0.50156873 0.032250233 0.070094667
0.50118363 0.031755809 0.070086792
0.50211561 0.029904215 0.069375955
0.50172919 0.029408092 0.069368057
0.50200003 0.028231643 0.069008626
0.50226945 0.027053526 0.068649188
0.50188172 0.026555698 0.068641268
0.50214922 0.025375027 0.068281785
0.50176078 0.024876349 0.06827385
0.50202632 0.023693139 0.067914337
0.50163722 0.023193607 0.06790638
0.50190073 0.02200783 0.067546822
0.50216293 0.020820322 0.06718722
0.50177258 0.020319087 0.06717924
0.50203276 0.019129058 0.066819616
0.50229162 0.017937331 0.066459961
0.50254911 0.016743895 0.066100277
0.50215673 0.016240111 0.06609226
0.50241232 0.015044091 0.065732516
0.50266659 0.013846401 0.065372773
0.50227284 0.013340915 0.065364726
0.50252509 0.012140675 0.065004937
0.50277597 0.010938733 0.064645119
0.50302559 0.0097350869 0.064285278
0.50327384 0.0085297041 0.063925385
0.50352079 0.0073226513 0.063565485
0.50376642 0.0061139013 0.063205563
0.50401068 0.0049034473 0.06284561
0.50425369 0.0036912619 0.062485613
0.50449532 0.0024774009 0.062125608
0.50409561 0.0019642601 0.062117442
0.50433528 0.00074784999 0.061757393
0.50457358 -0.00047026359 0.061397322
0.50481057 -0.0016900806 0.06103722
0.50504625 -0.0029116294 0.060677074
0.50464398 -0.0034281772 0.060668852
0.50487763 -0.0046522473 0.060308684
0.50510997 -0.0058780089 0.059948489
0.50470632 -0.0063962601 0.059940238
0.5049367 -0.0076245889 0.059580002
0.5045324 -0.0081436858 0.059571739
0.50476074 -0.0093745636 0.059211463
0.50498784 -0.010607179 0.058851138
0.50458223 -0.011127979 0.058842849
0.50417656 -0.011648786 0.058834556
0.50377095 -0.012169593 0.058826268
0.50336528 -0.012690394 0.058817979
0.5023309 -0.012494287 0.059161801
0.50192595 -0.013014236 0.059153527
0.50214839 -0.014252808 0.058793105
0.50174278 -0.014773608 0.058784816
0.50133711 -0.015294415 0.058776528
0.50030607 -0.015094049 0.05912042
0.56473547 0.07259582 0.060926255
0.56433249 0.072078414 0.060918018
0.5639295 0.071561016 0.060909785
0.56352651 0.071043618 0.060901549
0.56312352 0.07052622 0.060893312
0.56085658 0.070662595 0.061578881
0.55972511 0.070733324 0.061921697
0.558595 0.070805751 0.062264539
0.55746621 0.070879877 0.062607408
0.55633873 0.070955709 0.062950306
0.55593967 0.070443414 0.062942147
0.55481416 0.070521832 0.063285112
0.55368996 0.070601918 0.06362807
0.55256712 0.07068371 0.063971065
0.5514456 0.070767201 0.064314082
0.55032539 0.070852429 0.064657152
0.5492065 0.070939317 0.065000221
0.54808897 0.071027912 0.06534332
0.54697275 0.071118213 0.065686449
0.54585785 0.071210213 0.066029601
0.54474425 0.071303949 0.066372804
0.54363203 0.071399353 0.066716015
0.54252112 0.071496457 0.067059249
0.54141152 0.071595266 0.067402512
0.54030323 0.071695812 0.06774582
0.53919625 0.071798027 0.068089142
0.53809065 0.07190194 0.06843248
0.53698635 0.072007552 0.068775855
0.53588343 0.07211487 0.069119252
0.53406715 0.072829925 0.069814034
0.53296751 0.072941497 0.070157498
0.53186917 0.073054768 0.070500992
0.53038841 0.072677024 0.070836671
0.52929342 0.072794586 0.071180247
0.52819973 0.072913818 0.071523838
0.52710736 0.073034756 0.071867451
0.52601629 0.073157392 0.072211094
0.5249266 0.073281765 0.072554782
0.52383822 0.073407799 0.072898477
0.52275115 0.073535539 0.073242202
0.52166539 0.073664986 0.07358595
0.52058101 0.073796131 0.073929727
0.52020323 0.073311068 0.073922008
0.51912075 0.073444799 0.074265845
0.51874363 0.072960593 0.074258141
0.51766318 0.073096842 0.074602
0.5165841 0.073234797 0.074945882
0.51550633 0.07337445 0.075289793
0.51442981 0.07351584 0.075633757
0.51405537 0.073035032 0.075626105
0.51298088 0.073178947 0.075970083
0.51260704 0.072698988 0.075962447
0.51153457 0.072845452 0.076306462
0.51116145 0.072366349 0.07629884
0.51009095 0.072515361 0.076642901
0.50971848 0.072037108 0.076635286
0.50934595 0.071558855 0.076627672
0.50897348 0.071080595 0.076620057
0.50860095 0.070602342 0.07661245
0.50822848 0.07012409 0.076604836
0.50785601 0.069645837 0.076597221
0.50748348 0.069167577 0.076589607
0.50711101 0.068689324 0.076581992
0.50673848 0.068211071 0.076574385
0.50636601 0.067732811 0.076566771
0.50599349 0.067254558 0.076559156
0.50562102 0.066776305 0.076551542
0.50524855 0.066298053 0.076543927
0.50487602 0.065819792 0.07653632
0.50519091 0.064700656 0.076176815
0.50481778 0.064221546 0.076169185
0.5044446 0.063742444 0.076161563
0.50407147 0.063263334 0.076153934
0.50369829 0.062784232 0.076146305
0.5033251 0.062305123 0.076138683
0.50295198 0.06182602 0.076131053
0.50326157 0.060700066 0.075771444
0.50288773 0.060220111 0.075763799
0.50319535 0.059091613 0.075404152
0.50350165 0.057961371 0.075044446
0.50380659 0.056829464 0.074684739
0.50411022 0.055695854 0.074325003
0.50441253 0.054560546 0.073965244
0.50471354 0.053423498 0.073605433
0.50433576 0.052938435 0.073597714
0.50463474 0.051798873 0.073237881
0.50425625 0.051312961 0.073230147
0.50387782 0.050827045 0.073222414
0.50417411 0.049684078 0.072862528
0.50379503 0.049197312 0.07285478
0.50341588 0.048710547 0.072847031
0.5030368 0.048223779 0.072839282
0.50332981 0.047076557 0.07247933
0.50295001 0.046588939 0.072471574
0.503241 0.045439161 0.072111577
0.50286061 0.044950698 0.072103806
0.50314969 0.043798331 0.071743749
0.50276858 0.043309014 0.071735963
0.50305563 0.042154133 0.071375884
0.50334132 0.04099755 0.071015783
0.50295889 0.040506531 0.071007967
0.50324261 0.039347388 0.070647828
0.50285953 0.038855515 0.070639998
0.50247645 0.038363647 0.070632167
0.50209332 0.037871774 0.070624344
0.50171024 0.037379906 0.070616513
0.50199002 0.036215633 0.070256263
0.50160629 0.035722908 0.070248425
0.50122249 0.035230186 0.07024058
0.50083876 0.034737464 0.070232734
0.5011152 0.033568963 0.069872446
0.50139034 0.032398764 0.069512129
0.50100523 0.031904336 0.069504261
0.50193661 0.030053256 0.068791419
0.5015502 0.029557131 0.068783522
0.50182068 0.02838094 0.068423085
0.50208986 0.027203079 0.068062648
0.50235766 0.026023513 0.067702182
0.50196928 0.025524834 0.067694239
0.50223511 0.024342727 0.067333736
0.50184608 0.023843201 0.067325786
0.50210994 0.022658532 0.066965237
0.50172019 0.02215815 0.066957273
0.50198209 0.020970896 0.066596664
0.50159174 0.020469662 0.066588685
0.50185162 0.019279888 0.066228054
0.50211012 0.018088417 0.065867402
0.50236738 0.016895236 0.065506719
0.50262332 0.015700324 0.065145984
0.50223029 0.015195688 0.065137953
0.5024842 0.013998254 0.064777203
0.50273675 0.012799117 0.064416423
0.50298804 0.011598282 0.064055622
0.50259298 0.011091097 0.064047545
0.50284225 0.0098877074 0.063686699
0.50309026 0.0086825797 0.063325807
0.50333691 0.0074757827 0.062964909
0.50422448 0.0055685327 0.062251169
0.50446784 0.0043574553 0.061890177
0.50406885 0.0038451601 0.061882023
0.50431013 0.0026315548 0.061521016
0.50455016 0.001416252 0.061159983
0.50478882 0.0001992458 0.060798921
0.5043878 -0.00031559859 0.060790725
0.50462449 -0.00153516 0.060429621
0.50485986 -0.0027564529 0.060068469
0.50445759 -0.0032730007 0.060060248
0.50469095 -0.0044968151 0.059699077
0.50492299 -0.0057223211 0.05933788
0.50451934 -0.0062405723 0.059329629
0.50474936 -0.0074686455 0.058968391
0.50434506 -0.0079877423 0.058960129
0.50457317 -0.009218365 0.05859885
0.5047999 -0.010450725 0.058237523
0.50439429 -0.010971526 0.058229234
0.50398862 -0.011492332 0.058220942
0.50358301 -0.012013138 0.058212653
0.5031774 -0.012533939 0.058204364
0.50173831 -0.012858037 0.058540914
0.50196046 -0.014096353 0.05817949
0.50155485 -0.014617154 0.058171201
0.50114924 -0.01513796 0.058162909
0.49949336 -0.014216974 0.058860969
0.56575775 0.074303448 0.060341358
0.56535476 0.07378605 0.060333122
0.56495178 0.073268652 0.060324885
0.56454879 0.072751246 0.060316652
0.5641458 0.072233848 0.060308415
0.56374282 0.07171645 0.060300179
0.56333983 0.071199052 0.060291942
0.56293684 0.070681646 0.060283706
0.56180304 0.070748717 0.060627472
0.56140071 0.070232168 0.060619246
0.55953938 0.070887983 0.061315101
0.55913836 0.07037314 0.061306905
0.55800921 0.070446163 0.061650764
0.55688137 0.070520885 0.061994649
0.55648172 0.070007741 0.06198648
0.55535585 0.070085019 0.062330406
0.55423129 0.070164032 0.062674381
0.5531081 0.070244715 0.063018359
0.55198622 0.070327096 0.063362367
0.55086565 0.070411183 0.063706405
0.54974639 0.070497006 0.064050488
0.54862851 0.070584498 0.064394578
0.54751194 0.070673689 0.064738691
0.54639667 0.070764579 0.065082833
0.54528272 0.070857175 0.065427005
0.54417008 0.070951506 0.065771222
0.54305881 0.071047507 0.066115446
0.54194891 0.071145207 0.0664597
0.54084027 0.071244612 0.066803977
0.53973293 0.071345747 0.067148305
0.53862697 0.071448557 0.067492642
0.53752232 0.071553066 0.067837
0.53570408 0.072264172 0.068533711
0.5346027 0.072372966 0.068878159
0.5335027 0.072483435 0.069222614
0.53240407 0.072595604 0.069567092
0.53130668 0.072709471 0.069911607
0.52982688 0.072332323 0.070248298
0.52873284 0.072450481 0.070592895
0.5276401 0.072570309 0.070937499
0.52654874 0.072691835 0.071282126
0.52545869 0.072815068 0.07162679
0.5243699 0.072940037 0.071971491
0.52328247 0.073066667 0.072316207
0.52219641 0.07319501 0.072660945
0.52111161 0.073325045 0.073005706
0.52002817 0.073456787 0.073350504
0.51894605 0.073590264 0.073695347
0.51856893 0.07310605 0.073687635
0.51748878 0.073242046 0.0740325
0.51640999 0.073379748 0.074377388
0.51533252 0.073519148 0.074722297
0.51425636 0.073660284 0.075067267
0.51388186 0.073179476 0.075059615
0.51350737 0.072698668 0.075051956
0.51243389 0.072843172 0.075396955
0.51206011 0.072363213 0.075389318
0.51098859 0.072510272 0.075734347
0.51061541 0.07203117 0.075726725
0.51024228 0.071552061 0.075719096
0.50917339 0.071702525 0.076064192
0.50880092 0.071224272 0.076056577
0.50842839 0.070746012 0.076048963
0.50805593 0.070267759 0.076041348
0.50768346 0.069789506 0.076033741
0.50731093 0.069311254 0.076026127
0.50693846 0.068832994 0.076018512
0.50656593 0.068354741 0.076010898
0.50619346 0.067876488 0.076003283
0.50582093 0.067398235 0.075995676
0.50544846 0.066919975 0.075988062
0.50507599 0.066441722 0.075980447
0.50539124 0.065323688 0.075619951
0.50501806 0.064844579 0.075612329
0.50464487 0.064365476 0.0756047
0.50427175 0.063886374 0.07559707
0.50389856 0.063407265 0.075589448
0.50352544 0.062928155 0.075581819
0.50315225 0.062449053 0.075574197
0.5034622 0.061324209 0.075213596
0.50308841 0.06084425 0.075205952
0.50339633 0.059716858 0.074845314
0.50302184 0.05923605 0.074837655
0.50332785 0.058106069 0.07447695
0.50431228 0.056324422 0.073763199
0.50461495 0.055190217 0.073402449
0.50491631 0.054054279 0.073041648
0.50453854 0.053569216 0.073033929
0.50483787 0.05243076 0.072673112
0.50445938 0.051944844 0.072665371
0.50408095 0.051458932 0.072657637
0.50370246 0.05097302 0.072649904
0.50399852 0.049830306 0.07228902
0.50361937 0.049343541 0.072281271
0.50324029 0.048856776 0.072273523
0.50353366 0.047710661 0.071912579
0.50315386 0.047223043 0.071904823
0.50344527 0.046074372 0.071543835
0.50306481 0.045585901 0.071536064
0.50335425 0.044434648 0.071175024
0.50297314 0.043945327 0.071167231
0.50326055 0.042791553 0.070806168
0.5035466 0.041636076 0.070445076
0.50383139 0.040478893 0.070083961
0.50344825 0.03998702 0.07007613
0.50306517 0.039495151 0.070068307
0.50268209 0.039003279 0.070060477
0.50296354 0.037841812 0.069699265
0.50257981 0.03734909 0.069691427
0.50219601 0.036856368 0.069683582
0.50181228 0.03636365 0.069675736
0.50142848 0.035870928 0.069667898
0.50104475 0.035378203 0.069660053
0.50066096 0.034885481 0.069652207
0.5009371 0.033717237 0.069290914
0.50121194 0.032547291 0.068929598
0.50082684 0.032052867 0.068921722
0.50175756 0.030202296 0.068206877
0.50202847 0.029027212 0.067845456
0.502298 0.027850458 0.067484029
0.50256616 0.026672 0.067122571
0.50217777 0.026173322 0.067114629
0.50244397 0.024992321 0.066753134
0.50205493 0.024492789 0.066745184
0.50166583 0.023993265 0.066737235
0.5019294 0.022808852 0.06637568
0.50153965 0.022308469 0.066367716
0.50180125 0.021121472 0.066006109
0.50206149 0.019932805 0.065644488
0.50167042 0.019430719 0.065636493
0.50192869 0.018239502 0.065274842
0.50218558 0.017046578 0.064913154
0.50244123 0.01585192 0.064551421
0.5026955 0.014655594 0.06418968
0.50230181 0.014150107 0.064181633
0.50255406 0.012951226 0.063819855
0.50280505 0.011750646 0.063458048
0.50305468 0.010548363 0.06309621
0.50265896 0.010040327 0.063088126
0.50290668 0.0088354554 0.062726229
0.50315297 0.0076289135 0.062364325
0.50403994 0.0057221754 0.061648581
0.50428301 0.0045113531 0.061286591
0.50452471 0.0032988554 0.060924593
0.504125 0.0027857085 0.060916424
0.50436467 0.0015706614 0.060554385
0.50460303 0.00035391081 0.060192324
0.50484008 -0.0008645372 0.05983023
0.5044384 -0.0013802393 0.059822023
0.50467354 -0.0026012769 0.059459869
0.50490725 -0.0038239835 0.059097707
0.50450426 -0.004341383 0.059089471
0.50473601 -0.0055666333 0.058727272
0.50496638 -0.0067935991 0.058365043
0.50456208 -0.007312702 0.058356781
0.50479048 -0.0085422173 0.057994515
0.50438553 -0.0090621663 0.057986237
0.50461203 -0.01029427 0.057623908
0.50420636 -0.010815071 0.057615615
0.50380075 -0.011335878 0.057607327
0.50339508 -0.011856684 0.057599038
0.50298947 -0.012377485 0.057590745
0.50155073 -0.012701838 0.057928298
0.50177258 -0.013939898 0.057565875
0.50136691 -0.0144607 0.057557587
0.5009613 -0.014981505 0.057549294
0.49930608 -0.014061031 0.058249362
0.56557107 0.074458882 0.059731752
0.56516808 0.073941484 0.059723519
0.5647651 0.073424079 0.059715282
0.56436211 0.07290668 0.059707046
0.56395912 0.072389282 0.059698809
0.56355613 0.071871884 0.059690572
0.56315315 0.071354479 0.059682336
0.56275016 0.07083708 0.059674099
0.56234717 0.070319682 0.059665862
0.56121433 0.070387341 0.060010646
0.56008279 0.070456736 0.060355473
0.55895263 0.070527807 0.060700309
0.55782378 0.070600569 0.06104517
0.55742341 0.070086576 0.061036985
0.55629659 0.070161894 0.061381888
0.55517101 0.070238918 0.061726816
0.55404675 0.070317678 0.062071797
0.55292386 0.0703981 0.062416777
0.55180228 0.070480227 0.062761791
0.55068207 0.070564061 0.063106827
0.54956311 0.070649624 0.063451909
0.54844552 0.070736863 0.063797005
0.54732925 0.070825793 0.064142123
0.54621428 0.070916437 0.064487264
0.54510069 0.071008772 0.064832442
0.54398835 0.07110285 0.065177664
0.54287738 0.07119859 0.065522887
0.54176772 0.071296036 0.065868139
0.54065943 0.071395189 0.066213422
0.53955239 0.071496069 0.066558756
0.53844672 0.071598619 0.06690409
0.53734243 0.071702875 0.067249447
0.53623939 0.07180883 0.067594841
0.53442371 0.072522007 0.068293616
0.533324 0.072632216 0.068639077
0.53222567 0.072744131 0.068984561
0.53112859 0.072857745 0.069330074
0.52964914 0.072480343 0.069667764
0.52855533 0.072598241 0.070013367
0.52746296 0.072717816 0.070358977
0.5263719 0.072839089 0.070704609
0.52528214 0.072962061 0.071050271
0.52419364 0.073086776 0.071395978
0.52310652 0.073213153 0.071741693
0.52202076 0.073341236 0.072087429
0.52093631 0.073471017 0.072433203
0.51985317 0.073602505 0.072779
0.51877135 0.073735729 0.073124841
0.51839423 0.073251516 0.073117137
0.51731437 0.073387258 0.073463
0.51623589 0.073524699 0.073808886
0.51586008 0.073042184 0.073801205
0.51478362 0.073182181 0.074147142
0.51370841 0.073323913 0.074493118
0.51333392 0.072843105 0.074485466
0.51295942 0.072362296 0.074477814
0.51188689 0.072507396 0.074823827
0.51151311 0.072027437 0.074816182
0.51044255 0.072175093 0.075162239
0.51006937 0.071695991 0.07515461
0.50969625 0.071216881 0.075146988
0.50932306 0.070737779 0.075139359
0.50894994 0.07025867 0.075131729
0.50857675 0.069779567 0.075124107
0.50820363 0.069300465 0.075116478
0.50783044 0.068821356 0.075108856
0.50745732 0.068342254 0.075101227
0.50708413 0.067863144 0.075093597
0.50671101 0.067384042 0.075085975
0.50633782 0.066904932 0.075078346
0.50596464 0.06642583 0.075070716
0.50559151 0.065946721 0.075063094
0.50521833 0.065467618 0.075055465
0.5048452 0.064988509 0.075047843
0.50515813 0.063868172 0.074686304
0.50478435 0.063388221 0.074678667
0.50441051 0.062908262 0.074671023
0.50403666 0.062428307 0.074663386
0.50366288 0.061948348 0.074655741
0.50397182 0.060822912 0.074294128
0.50359738 0.060342103 0.074286476
0.50322288 0.059861295 0.074278817
0.50352925 0.05873242 0.073917128
0.5045144 0.056952987 0.073201396
0.50481737 0.055819891 0.072839655
0.50444025 0.055335678 0.072831944
0.50474131 0.054199994 0.072470143
0.505041 0.053062648 0.072108336
0.50466257 0.052576732 0.072100602
0.50428408 0.05209082 0.072092868
0.50390565 0.051604908 0.072085135
0.50352716 0.051118992 0.072077401
0.50382286 0.049976535 0.071715511
0.50344378 0.04948977 0.071707763
0.50373751 0.048344757 0.071345828
0.50335771 0.047857143 0.071338072
0.50364947 0.046709575 0.070976101
0.50393993 0.045560274 0.070614077
0.50355881 0.045070961 0.070606291
0.5031777 0.044581644 0.070598498
0.50346547 0.043428972 0.070236452
0.50375187 0.042274602 0.069874369
0.50336945 0.041783582 0.069866553
0.50365388 0.040626656 0.06950444
0.5032708 0.040134784 0.069496609
0.50288773 0.039642915 0.069488779
0.50316954 0.038482554 0.069126584
0.5027858 0.037989829 0.069118738
0.50240201 0.037497107 0.069110893
0.50201827 0.037004385 0.069103055
0.50163448 0.036511667 0.069095209
0.50125074 0.036018945 0.069087364
0.50086695 0.035526223 0.069079526
0.50114346 0.034359086 0.068717241
0.50075907 0.033865511 0.068709381
0.50103354 0.032695822 0.068347059
0.50064844 0.032201398 0.068339191
0.50157857 0.030351337 0.067622334
0.50184917 0.029176509 0.067259915
0.50211835 0.02800001 0.066897482
0.50238621 0.026821809 0.066535026
0.50199783 0.026323128 0.066527084
0.50226372 0.025142383 0.06616459
0.50187469 0.024642853 0.066156633
0.50213856 0.023459546 0.065794095
0.50174886 0.022959171 0.065786131
0.50201082 0.021773275 0.065423526
0.50162041 0.021272046 0.065415554
0.50188035 0.020083634 0.065052934
0.50213891 0.018893521 0.064690284
0.50174725 0.018390588 0.064682275
0.50200385 0.017197918 0.064319588
0.50225914 0.016003517 0.063956849
0.50251311 0.014807447 0.06359411
0.50211942 0.01430196 0.063586064
0.50237137 0.013103334 0.06322328
0.50262201 0.01190301 0.062860474
0.50287133 0.010700983 0.062497634
0.50247568 0.010192947 0.062489547
0.50272304 0.0089883301 0.062126648
0.50296903 0.0077820448 0.061763745
0.50385541 0.005875818 0.061045993
0.50409818 0.0046652514 0.060683001
0.50433952 0.0034530091 0.060320001
0.50393987 0.0029398622 0.060311832
0.50417924 0.0017250709 0.059948791
0.5044173 0.00050857582 0.059585724
0.50465405 -0.00070961664 0.059222631
0.50488949 -0.0019295524 0.058859486
0.50448716 -0.0024461003 0.058851264
0.50472057 -0.0036685516 0.058488101
0.50495267 -0.0048926943 0.058124911
0.50454903 -0.0054109455 0.058116663
0.5047791 -0.0066376561 0.057753436
0.5043748 -0.007156759 0.05774517
0.50460291 -0.0083860187 0.057381902
0.50419796 -0.0089059668 0.057373624
0.5044241 -0.010137816 0.057010289
0.50401849 -0.010658616 0.057002001
0.50361282 -0.011179423 0.056993712
0.50320721 -0.01170023 0.056985419
0.5028016 -0.01222103 0.05697713
0.50136316 -0.01254564 0.057315685
0.50158465 -0.013783444 0.05695226
0.50117904 -0.014304245 0.056943968
0.50014824 -0.014105498 0.057290856
0.49911878 -0.013905087 0.057637751
0.56578737 0.075131714 0.059130386
0.56538439 0.074614316 0.059122149
0.5649814 0.074096911 0.059113912
0.56457841 0.073579513 0.059105676
0.56417543 0.073062114 0.059097439
0.56377244 0.072544716 0.059089202
0.56336945 0.072027311 0.059080966
0.56296647 0.071509913 0.059072729
0.56256348 0.070992514 0.059064496
0.56216049 0.070475109 0.05905626
0.561028 0.070542522 0.059402041
0.55989677 0.070611663 0.059747871
0.55949509 0.070095964 0.059739664
0.55836588 0.070167623 0.060085516
0.55723798 0.070240982 0.060431391
0.5561114 0.070316046 0.060777295
0.55498618 0.070392817 0.061123226
0.55386221 0.070471317 0.061469208
0.55273962 0.070551485 0.061815195
0.5516184 0.070633359 0.062161207
0.55049843 0.070716932 0.062507249
0.54937977 0.070802249 0.062853336
0.54826248 0.070889227 0.063199431
0.54714656 0.070977904 0.063545547
0.54603189 0.071068287 0.063891701
0.5449186 0.071160369 0.06423787
0.54380655 0.071254194 0.064584099
0.54269594 0.07134968 0.064930327
0.54158658 0.071446873 0.065276586
0.54047859 0.071545757 0.065622866
0.53937185 0.071646385 0.065969199
0.53826648 0.071748689 0.066315539
0.53716248 0.071852684 0.066661902
0.5360598 0.071958385 0.067008294
0.53424472 0.072671048 0.067709081
0.53314531 0.072781004 0.06805554
0.53204727 0.072892658 0.06840203
0.53095055 0.073006019 0.068748541
0.52947134 0.072628357 0.069087237
0.52837789 0.072746009 0.069433846
0.52728581 0.072865322 0.069780454
0.52619499 0.072986342 0.070127085
0.5251056 0.073109061 0.070473753
0.52401739 0.073233515 0.070820458
0.52293062 0.073359638 0.071167178
0.52184516 0.073487468 0.071513921
0.52076101 0.073616996 0.071860693
0.51967818 0.073748223 0.072207496
0.51859665 0.073881187 0.072554342
0.51821953 0.073396973 0.072546631
0.51714003 0.073532462 0.0728935
0.51676351 0.073049098 0.072885804
0.51568604 0.073187135 0.07323271
0.51531023 0.072704628 0.073225029
0.51423466 0.072845213 0.07357198
0.51316041 0.072987549 0.073918976
0.51278597 0.072506733 0.073911324
0.51241148 0.072025925 0.073903665
0.5113399 0.072171621 0.074250698
0.51096612 0.07169167 0.074243054
0.51059228 0.071211711 0.074235417
0.50952339 0.071360812 0.074582495
0.50915021 0.070881709 0.074574873
0.50877708 0.0704026 0.074567243
0.5084039 0.069923498 0.074559622
0.50803077 0.069444388 0.074551992
0.50765759 0.068965286 0.074544363
0.5072844 0.068486176 0.074536741
