# .PCD v0.7 - Point Cloud Data file format
VERSION 0.7
FIELDS x y z
SIZE 4 4 4
TYPE F F F
COUNT 1 1 1
WIDTH 1376
HEIGHT 1
VIEWPOINT 0 0 0 1 0 0 0
POINTS 1376
DATA ascii
0.53312987 -0.031001609 0.12718117
0.53271955 -0.031528372 0.1271728
0.53230929 -0.032055132 0.12716441
0.53189903 -0.032581892 0.12715602
0.53148878 -0.033108655 0.12714764
0.53107846 -0.033635415 0.12713926
0.5306682 -0.034162179 0.12713087
0.53025794 -0.034688935 0.12712248
0.52984768 -0.035215698 0.1271141
0.52943736 -0.035742462 0.12710571
0.5290271 -0.036269218 0.12709732
0.52861685 -0.036795981 0.12708895
0.52820659 -0.037322745 0.12708056
0.5271346 -0.037100926 0.12731001
0.52672493 -0.037626836 0.12730163
0.52631533 -0.038152747 0.12729327
0.52590573 -0.038678657 0.1272849
0.52549613 -0.039204568 0.12727652
0.52508652 -0.039730482 0.12726815
0.52467692 -0.040256385 0.12725978
0.52426732 -0.040782295 0.12725142
0.52385765 -0.041308209 0.12724304
0.52344805 -0.04183412 0.12723467
0.52303845 -0.04236003 0.12722629
0.52262884 -0.042885937 0.12721792
0.5215655 -0.042653058 0.12744755
0.52115655 -0.043178119 0.12743919
0.5207476 -0.043703176 0.12743083
0.52033865 -0.04422823 0.12742247
0.51992971 -0.044753291 0.12741411
0.51952076 -0.045278348 0.12740575
0.51911181 -0.045803409 0.1273974
0.51870286 -0.04632847 0.12738904
0.51829386 -0.046853527 0.12738068
0.51788491 -0.047378588 0.12737232
0.51747596 -0.047903646 0.12736396
0.51706702 -0.048428707 0.12735561
0.51665807 -0.048953764 0.12734725
0.51624912 -0.049478825 0.12733889
0.51584017 -0.050003886 0.12733053
0.51543123 -0.050528944 0.12732217
0.51502228 -0.051054005 0.12731382
0.51461333 -0.051579062 0.12730546
0.51420438 -0.052104123 0.1272971
0.51379544 -0.05262918 0.12728874
0.51338649 -0.053154241 0.12728038
0.51297754 -0.053679299 0.12727202
0.51256859 -0.05420436 0.12726367
0.51215965 -0.054729421 0.12725531
0.5117507 -0.055254478 0.12724695
0.51134175 -0.055779539 0.1272386
0.5109328 -0.056304596 0.12723024
0.50988799 -0.056047887 0.12746024
0.5094797 -0.056572098 0.1274519
0.50907141 -0.057096314 0.12744355
0.50802922 -0.056836169 0.12767363
0.50762159 -0.057359524 0.1276653
0.50721395 -0.057882883 0.12765697
0.50680631 -0.058406238 0.12764864
0.50639874 -0.058929592 0.12764031
0.5059911 -0.059452947 0.12763198
0.50558347 -0.059976306 0.12762365
0.50517583 -0.060499661 0.12761532
0.50476819 -0.061023027 0.12760699
0.50436062 -0.061546385 0.12759866
0.50395298 -0.06206974 0.12759033
0.50354534 -0.062593095 0.127582
0.50313771 -0.063116454 0.12757365
0.50273013 -0.063639805 0.12756532
0.50232249 -0.064163163 0.12755699
0.50191486 -0.064686522 0.12754866
0.55086583 -0.028595699 0.12364624
0.55044699 -0.029133523 0.12363768
0.54934478 -0.028951107 0.12386751
0.54892659 -0.029488079 0.12385897
0.54714435 -0.028581146 0.12432727
0.54672748 -0.029116414 0.12431876
0.54562992 -0.028928041 0.12454867
0.54140091 -0.026370127 0.12572403
0.54098797 -0.026900291 0.1257156
0.54057503 -0.027430454 0.12570716
0.5394848 -0.027232725 0.12593722
0.53907251 -0.027762039 0.1259288
0.53866029 -0.02829135 0.12592037
0.53757268 -0.028090214 0.1261505
0.53783578 -0.029349981 0.12590353
0.53674948 -0.029147141 0.12613368
0.5356645 -0.028942566 0.12636389
0.53458089 -0.028736325 0.12659408
0.53417063 -0.029263081 0.12658571
0.53376037 -0.029789845 0.12657732
0.53267938 -0.029580198 0.12680759
0.53226978 -0.03010611 0.12679921
0.53186017 -0.030632021 0.12679084
0.53145057 -0.031157933 0.12678246
0.53104097 -0.031683836 0.1267741
0.5306313 -0.03220975 0.12676573
0.5302217 -0.032735661 0.12675735
0.5298121 -0.033261571 0.12674898
0.52940249 -0.033787481 0.1267406
0.52899289 -0.034313388 0.12673225
0.52858329 -0.034839299 0.12672387
0.52817369 -0.035365209 0.1267155
0.52776402 -0.035891119 0.12670712
0.52735442 -0.036417034 0.12669875
0.52628344 -0.036194619 0.12692921
0.52587444 -0.03671968 0.12692086
0.52546549 -0.037244737 0.1269125
0.5250566 -0.037769791 0.12690414
0.52464759 -0.038294852 0.12689579
0.52423865 -0.038819913 0.12688743
0.5238297 -0.03934497 0.12687907
0.52342075 -0.039870031 0.12687071
0.5230118 -0.040395088 0.12686235
0.52260286 -0.04092015 0.12685399
0.52219391 -0.041445207 0.12684564
0.52178496 -0.041970268 0.12683728
0.52072257 -0.041736796 0.12706792
0.52031428 -0.042261004 0.12705958
0.51990598 -0.042785212 0.12705123
0.51949775 -0.043309413 0.12704289
0.51908946 -0.043833628 0.12703454
0.51868117 -0.04435784 0.1270262
0.51827288 -0.044882044 0.12701786
0.51786458 -0.045406256 0.12700951
0.51745629 -0.045930456 0.12700117
0.517048 -0.046454672 0.12699282
0.51663971 -0.046978872 0.12698448
0.51623142 -0.047503088 0.12697613
0.51582313 -0.048027288 0.12696779
0.51541483 -0.048551504 0.12695944
0.5150066 -0.049075704 0.1269511
0.51459831 -0.049599916 0.12694275
0.51419002 -0.05012412 0.12693441
0.51378173 -0.050648332 0.12692606
0.51337343 -0.051172547 0.12691772
0.51296514 -0.051696748 0.12690938
0.51255685 -0.052220963 0.12690103
0.51214856 -0.052745163 0.12689269
0.51174027 -0.053269375 0.12688434
0.51133204 -0.053793579 0.126876
0.51092374 -0.054317791 0.12686765
0.51051545 -0.054841995 0.12685931
0.51010716 -0.055366207 0.12685096
0.50906324 -0.055108871 0.12708201
0.50865561 -0.055632226 0.12707368
0.50761378 -0.055372372 0.12730475
0.5072068 -0.055894885 0.12729642
0.50679988 -0.056417394 0.1272881
0.5063929 -0.056939892 0.12727979
0.50598592 -0.057462402 0.12727147
0.50557899 -0.057984911 0.12726316
0.50517201 -0.058507413 0.12725484
0.50476503 -0.059029922 0.12724651
0.50435811 -0.059552431 0.1272382
0.50395113 -0.060074929 0.12722988
0.50354415 -0.060597438 0.12722157
0.50313723 -0.061119951 0.12721325
0.50273025 -0.061642449 0.12720494
0.50232327 -0.062164959 0.12719661
0.50191635 -0.062687472 0.1271883
0.50150937 -0.063209966 0.12717998
0.50110239 -0.063732475 0.12717167
0.55109072 -0.027896307 0.12302114
0.54998749 -0.027715852 0.12325194
0.54888564 -0.027533691 0.12348277
0.54778504 -0.027349804 0.12371366
0.54736817 -0.027885078 0.12370513
0.54763293 -0.029142059 0.12345717
0.54653436 -0.028955614 0.12368809
0.54053062 -0.025485773 0.12533887
0.54011834 -0.026015084 0.12533043
0.53970611 -0.026544396 0.12532201
0.53861684 -0.026346071 0.1255531
0.53820521 -0.026874533 0.12554468
0.53779364 -0.027402993 0.12553628
0.53670698 -0.027201228 0.12576744
0.53629601 -0.027728843 0.12575905
0.53521138 -0.027524555 0.12599023
0.53480113 -0.028051319 0.12598184
0.53371847 -0.027844481 0.12621306
0.53330886 -0.028370388 0.12620468
0.53222823 -0.028160995 0.12643595
0.53181922 -0.028686054 0.12642759
0.53141028 -0.029211115 0.12641923
0.53100133 -0.029736174 0.12641089
0.53059238 -0.030261233 0.12640253
0.53018343 -0.030786293 0.12639417
0.52910745 -0.030570947 0.12662552
0.52869916 -0.031095155 0.12661718
0.52829087 -0.031619363 0.12660883
0.52788258 -0.03214357 0.12660049
0.52747428 -0.032667778 0.12659214
0.52706599 -0.03319199 0.1265838
0.5266577 -0.033716198 0.12657546
0.52624947 -0.034240406 0.12656711
0.52584118 -0.034764614 0.12655877
0.52543288 -0.035288822 0.12655042
0.52502459 -0.03581303 0.12654208
0.5246163 -0.036337238 0.12653375
0.52420801 -0.036861446 0.1265254
0.52379972 -0.03738565 0.12651706
0.52339143 -0.037909858 0.12650871
0.52298313 -0.038434066 0.12650037
0.5225749 -0.038958274 0.12649202
0.52216661 -0.039482482 0.12648368
0.52175832 -0.04000669 0.12647533
0.52135003 -0.040530905 0.12646699
0.52094173 -0.041055109 0.12645864
0.51988024 -0.040821001 0.12669031
0.5194726 -0.041344363 0.12668198
0.51906502 -0.041867722 0.12667365
0.51865739 -0.042391077 0.12666532
0.51824975 -0.042914439 0.12665699
0.51784211 -0.043437794 0.12664866
0.51743454 -0.043961149 0.12664033
0.5163784 -0.043720268 0.12687211
0.51597142 -0.044242781 0.12686378
0.51556444 -0.04476529 0.12685546
0.51515752 -0.045287788 0.12684715
0.51475054 -0.045810297 0.12683883
0.51434356 -0.046332806 0.12683052
0.51393664 -0.046855304 0.1268222
0.51352966 -0.047377817 0.12681387
0.51312268 -0.047900327 0.12680556
0.51271576 -0.048422825 0.12679724
0.51230878 -0.048945334 0.12678893
0.5119018 -0.049467843 0.12678061
0.51149487 -0.049990341 0.1267723
0.51108789 -0.050512854 0.12676397
0.51068091 -0.051035363 0.12675565
0.51027399 -0.051557861 0.12674734
0.50986701 -0.05208037 0.12673903
0.50946003 -0.05260288 0.12673071
0.50905311 -0.053125381 0.1267224
0.50864613 -0.053647891 0.12671407
0.50823915 -0.0541704 0.12670575
0.50783223 -0.054692898 0.12669744
0.50679129 -0.054432452 0.12692951
0.50638503 -0.054954104 0.12692121
0.5059787 -0.055475768 0.12691289
0.50557244 -0.055997424 0.12690459
0.50516611 -0.056519076 0.12689629
0.50475985 -0.057040729 0.12688799
0.50435352 -0.057562381 0.12687968
0.50394726 -0.058084045 0.12687138
0.50354093 -0.058605697 0.12686308
0.50313467 -0.059127349 0.12685478
0.50272834 -0.059649002 0.12684646
0.50232202 -0.060170665 0.12683816
0.50191575 -0.060692318 0.12682986
0.50150943 -0.06121397 0.12682156
0.50110316 -0.061735623 0.12681325
0.50069684 -0.062257286 0.12680495
0.50029057 -0.062778942 0.12679665
0.49926162 -0.062503166 0.12702896
0.55131555 -0.027196918 0.12239604
0.55021197 -0.027017569 0.12262782
0.54910976 -0.026836514 0.12285964
0.54869223 -0.027372634 0.1228511
0.54759192 -0.027189001 0.123083
0.54717505 -0.027724275 0.12307447
0.54675812 -0.028259544 0.12306595
0.54634124 -0.028794812 0.12305743
0.54388428 -0.027160689 0.12377025
0.54143125 -0.025521429 0.12448318
0.53966093 -0.024601923 0.1249557
0.53924936 -0.025130389 0.12494729
0.53816032 -0.02493228 0.1251794
0.53774941 -0.025459895 0.12517099
0.5366624 -0.025259266 0.12540312
0.53625214 -0.025786027 0.12539475
0.53584188 -0.026312791 0.12538636
0.53543162 -0.026839554 0.12537797
0.53434795 -0.026634673 0.12561017
0.53393835 -0.027160583 0.12560181
0.53285664 -0.026953151 0.12583405
0.5324477 -0.027478211 0.12582569
0.53136802 -0.027268223 0.12605797
0.53095973 -0.02779243 0.12604962
0.53055143 -0.028316638 0.12604128
0.52947438 -0.028103216 0.12627363
0.52906674 -0.02862657 0.1262653
0.52865911 -0.029149927 0.12625697
0.52825153 -0.029673284 0.12624864
0.52784389 -0.030196639 0.12624031
0.52743626 -0.030720001 0.12623198
0.52702862 -0.031243356 0.12622365
0.52662098 -0.031766713 0.12621532
0.52621341 -0.032290068 0.12620698
0.52580577 -0.032813426 0.12619865
0.52539814 -0.033336785 0.12619032
0.5249905 -0.033860143 0.12618199
0.52458292 -0.034383498 0.12617366
0.52417529 -0.034906853 0.12616533
0.52376765 -0.035430212 0.126157
0.52336001 -0.03595357 0.12614867
0.52229428 -0.035725713 0.12638123
0.5218873 -0.036248222 0.12637292
0.52148032 -0.036770724 0.1263646
0.5210734 -0.037293229 0.12635629
0.52066642 -0.037815738 0.12634797
0.52025944 -0.038338244 0.12633966
0.51985252 -0.038860749 0.12633133
0.51944554 -0.039383259 0.12632301
0.51903856 -0.03990576 0.1263147
0.51863164 -0.040428266 0.12630638
0.51822466 -0.040950775 0.12629807
0.51716685 -0.040712703 0.12653078
0.51676053 -0.041234363 0.12652248
0.51635426 -0.041756015 0.12651418
0.51594794 -0.042277668 0.12650588
0.51554167 -0.042799331 0.12649757
0.51513535 -0.043320984 0.12648927
0.51472908 -0.043842636 0.12648097
0.51432276 -0.044364288 0.12647267
0.51391649 -0.044885941 0.12646435
0.51351017 -0.045407604 0.12645605
0.51310384 -0.045929257 0.12644775
0.51269758 -0.046450909 0.12643944
0.51229125 -0.046972562 0.12643114
0.51124275 -0.046722583 0.12666406
0.51083708 -0.04724339 0.12665577
0.51043147 -0.047764197 0.12664747
0.51002586 -0.048284993 0.12663919
0.50962019 -0.048805799 0.1266309
0.50921458 -0.049326606 0.1266226
0.50880891 -0.049847409 0.12661432
0.5084033 -0.050368205 0.12660602
0.50799769 -0.050889011 0.12659773
0.50759202 -0.051409818 0.12658945
0.50718641 -0.051930625 0.12658115
0.50678074 -0.052451432 0.12657286
0.50637513 -0.052972227 0.12656458
0.50596952 -0.053493034 0.12655628
0.50556386 -0.054013852 0.12654799
0.50515825 -0.054534648 0.12653971
0.50475258 -0.055055454 0.12653141
0.50434697 -0.055576261 0.12652312
0.5039413 -0.056097068 0.12651484
0.50353569 -0.056617875 0.12650654
0.50313002 -0.057138667 0.12649825
0.50272441 -0.057659473 0.12648997
0.5023188 -0.05818028 0.12648167
0.50191313 -0.058701087 0.12647338
0.50150752 -0.059221894 0.12646508
0.50110185 -0.059742689 0.1264568
0.50069624 -0.060263496 0.12644851
0.50029057 -0.060784303 0.12644021
0.49988496 -0.061305109 0.12643193
0.49947932 -0.061825916 0.12642364
0.49845129 -0.061549518 0.12665701
0.55001825 -0.026856255 0.12199516
0.54891634 -0.026675459 0.12222797
0.54918182 -0.0279302 0.12197806
0.54739881 -0.027028201 0.12245233
0.54698187 -0.027563477 0.12244382
0.54588395 -0.027377568 0.12267671
0.54546773 -0.027911991 0.12266821
0.54233259 -0.025554871 0.12362553
0.5405609 -0.024638433 0.12410001
0.53947026 -0.024443166 0.12433305
0.53838092 -0.024246173 0.12456616
0.5372929 -0.024047501 0.12479927
0.53620625 -0.023847133 0.1250324
0.5351209 -0.023645062 0.12526557
0.53471196 -0.024170121 0.12525721
0.53430301 -0.02469518 0.12524885
0.53389406 -0.02522024 0.12524049
0.53281206 -0.025013911 0.12547372
0.53240377 -0.025538124 0.12546538
0.53132367 -0.025329208 0.12569866
0.53091604 -0.025852565 0.12569033
0.52983797 -0.02564113 0.12592365
0.52943105 -0.02616364 0.12591533
0.52902406 -0.026686145 0.12590702
0.52861708 -0.027208649 0.1258987
0.52754235 -0.026992958 0.12613207
0.52713609 -0.027514618 0.12612376
0.52672976 -0.02803627 0.12611546
0.5263235 -0.028557928 0.12610716
0.52591717 -0.029079581 0.12609886
0.52551085 -0.029601239 0.12609054
0.52510458 -0.030122891 0.12608224
0.52469826 -0.030644543 0.12607394
0.52429199 -0.031166201 0.12606564
0.52388567 -0.031687856 0.12605733
0.5234794 -0.032209512 0.12604903
0.52307308 -0.032731164 0.12604073
0.52266681 -0.033252824 0.12603243
0.52226049 -0.033774476 0.12602411
0.52185422 -0.034296133 0.12601581
0.5214479 -0.034817785 0.12600751
0.52104163 -0.035339445 0.12599921
0.52063531 -0.035861097 0.1259909
0.52022898 -0.036382757 0.1259826
0.51982272 -0.03690441 0.1259743
0.51941639 -0.037426062 0.125966
0.51901013 -0.037947718 0.12595768
0.5186038 -0.03846937 0.12594938
0.51754498 -0.038233265 0.12618309
0.51713938 -0.038754065 0.12617479
0.51673371 -0.039274871 0.12616651
0.5163281 -0.039795674 0.12615821
0.5152725 -0.039555274 0.12639201
0.51486754 -0.040075224 0.12638374
0.51446259 -0.040595185 0.12637547
0.51405764 -0.041115135 0.12636718
0.51365262 -0.041635081 0.12635891
0.51324767 -0.042155042 0.12635063
0.51284271 -0.042674992 0.12634236
0.5124377 -0.043194953 0.12633407
0.51203275 -0.043714903 0.1263258
0.51162779 -0.04423485 0.12631753
0.51122278 -0.044754811 0.12630925
0.51081783 -0.045274761 0.12630098
0.51041287 -0.045794711 0.12629269
0.51000792 -0.046314672 0.12628442
0.5096029 -0.046834618 0.12627614
0.50919795 -0.047354568 0.12626787
0.508793 -0.047874529 0.12625958
0.50838798 -0.048394479 0.12625131
0.50798303 -0.048914429 0.12624304
0.50757807 -0.049434386 0.12623475
0.50717312 -0.049954336 0.12622648
0.50676811 -0.050474297 0.1262182
0.50636315 -0.050994247 0.12620993
0.5059582 -0.051514197 0.12620164
0.50555319 -0.052034155 0.12619337
0.50514823 -0.052554104 0.12618509
0.50474328 -0.053074066 0.12617682
0.50433826 -0.053594016 0.12616855
0.50393331 -0.054113977 0.12616026
0.50352836 -0.054633923 0.12615199
0.50312334 -0.055153873 0.12614371
0.50271839 -0.055673834 0.12613544
0.50231344 -0.056193784 0.12612715
0.50190848 -0.056713734 0.12611888
0.50150347 -0.057233691 0.1261106
0.50109851 -0.057753641 0.12610233
0.50069356 -0.058273591 0.12609406
0.50028855 -0.058793552 0.12608577
0.49988359 -0.059313502 0.1260775
0.49947861 -0.05983346 0.12606922
0.49907365 -0.060353409 0.12606095
0.49804598 -0.060077298 0.12629528
0.49764165 -0.060596403 0.12628701
0.55092746 -0.026873782 0.1211287
0.54982454 -0.026694944 0.12136249
0.5480395 -0.025796857 0.12183871
0.54762256 -0.026332133 0.12183019
0.54720569 -0.026867401 0.12182167
0.54610735 -0.026682608 0.12205556
0.54569113 -0.027217023 0.12204706
0.54459482 -0.027029675 0.12228099
0.54146159 -0.024672732 0.12324233
0.53969121 -0.023755951 0.12371883
0.5379234 -0.022835737 0.1241954
0.53615832 -0.02191215 0.124672
0.53574938 -0.022437209 0.12466364
0.53425604 -0.022759601 0.12488947
0.53317297 -0.0225552 0.12512369
0.53276533 -0.023078557 0.12511536
0.53235769 -0.023601912 0.12510704
0.53087032 -0.023916645 0.12533298
0.5304634 -0.024439156 0.12532467
0.52938563 -0.024227975 0.12555897
0.52897936 -0.024749627 0.12555066
0.52790356 -0.024535898 0.12578502
0.52749795 -0.025056705 0.12577672
0.52709234 -0.025577506 0.12576844
0.52668667 -0.026098313 0.12576015
0.52628106 -0.026619118 0.12575185
0.52587539 -0.027139919 0.12574357
0.52546978 -0.027660726 0.12573528
0.52506417 -0.028181527 0.12572698
0.5246585 -0.028702334 0.1257187
0.52425289 -0.02922314 0.1257104
0.52318436 -0.029000014 0.12594493
0.52277941 -0.029519968 0.12593666
0.52237439 -0.030039918 0.12592837
0.52196944 -0.030559871 0.1259201
0.52156448 -0.031079827 0.12591182
0.52115953 -0.031599775 0.12590355
0.52075452 -0.032119732 0.12589528
0.52034956 -0.032639686 0.12588699
0.51994461 -0.03315964 0.12587872
0.51953959 -0.03367959 0.12587044
0.51913464 -0.034199543 0.12586217
0.51872969 -0.034719501 0.12585388
0.51832467 -0.035239447 0.12584561
0.51791972 -0.035759404 0.12583733
0.51751477 -0.036279358 0.12582906
0.51710975 -0.036799312 0.12582079
0.5167048 -0.037319262 0.1258125
0.51629984 -0.037839215 0.12580423
0.51524395 -0.037599958 0.12603898
0.51483965 -0.038119055 0.12603073
0.51443535 -0.03863816 0.12602246
0.51338214 -0.038395494 0.12625727
0.51297849 -0.038913745 0.12624903
0.51257485 -0.039432004 0.12624077
0.51217121 -0.039950248 0.12623252
0.51176757 -0.040468507 0.12622428
0.51136392 -0.04098675 0.12621602
0.51096022 -0.041505009 0.12620777
0.51055658 -0.042023253 0.12619953
0.51015294 -0.042541511 0.12619127
0.50974929 -0.043059755 0.12618303
0.50934565 -0.043578014 0.12617478
0.50894201 -0.044096261 0.12616652
0.50853837 -0.044614516 0.12615828
0.50813472 -0.045132764 0.12615003
0.50773108 -0.045651019 0.12614177
0.50732744 -0.046169266 0.12613353
0.50692379 -0.046687521 0.12612528
0.50652015 -0.047205769 0.12611704
0.50611651 -0.047724012 0.12610878
0.50571287 -0.048242271 0.12610053
0.50530922 -0.048760515 0.12609228
0.50490558 -0.049278773 0.12608403
0.50450194 -0.049797017 0.12607577
0.50409824 -0.050315276 0.12606753
0.50369459 -0.05083352 0.12605928
0.50329095 -0.051351778 0.12605104
0.50288731 -0.051870037 0.12604278
0.50248367 -0.052388281 0.12603453
0.50208002 -0.052906539 0.12602629
0.50167638 -0.053424783 0.12601803
0.50127274 -0.053943042 0.12600978
0.5008691 -0.054461285 0.12600154
0.50046545 -0.054979544 0.12599328
0.50006181 -0.055497788 0.12598504
0.49965814 -0.056016047 0.12597679
0.49925449 -0.05653429 0.12596853
0.49885085 -0.057052549 0.12596029
0.49844721 -0.057570796 0.12595204
0.49804357 -0.058089051 0.12594378
0.49763992 -0.058607299 0.12593554
0.49723628 -0.059125554 0.12592728
0.49683264 -0.059643801 0.12591904
0.54894704 -0.025817221 0.12097318
0.54852945 -0.026353346 0.12096465
0.54742944 -0.026171332 0.12119953
0.54633081 -0.025987638 0.12143441
0.54523349 -0.025802251 0.12166933
0.54413748 -0.025615158 0.12190425
0.54304278 -0.025426326 0.12213925
0.54127032 -0.024513466 0.12261769
0.53882205 -0.022873944 0.12333968
0.53705561 -0.021953423 0.12381826
0.53285408 -0.019376369 0.12501909
0.53244781 -0.019898022 0.12501077
0.53204149 -0.02041968 0.12500247
0.53096074 -0.020213015 0.12523772
0.53055513 -0.020733815 0.12522943
0.53014946 -0.021254621 0.12522115
0.52907133 -0.021044515 0.12545647
0.52933824 -0.022296229 0.12520456
0.52893257 -0.022817036 0.12519628
0.52852696 -0.023337837 0.12518798
0.52745146 -0.02312433 0.12542336
0.5270465 -0.023644283 0.12541509
0.52664149 -0.024164233 0.1254068
0.52556872 -0.023947358 0.12564223
0.52516443 -0.024466462 0.12563396
0.52476007 -0.024985559 0.1256257
0.52435577 -0.025504662 0.12561743
0.52395147 -0.026023766 0.12560917
0.52354717 -0.026542868 0.1256009
0.52314287 -0.027061971 0.12559263
0.52273852 -0.027581075 0.12558438
0.52233422 -0.028100172 0.12557611
0.52126807 -0.027874786 0.12581167
0.52086443 -0.028393038 0.12580341
0.52046078 -0.028911289 0.12579516
0.52005714 -0.02942954 0.12578692
0.5196535 -0.029947791 0.12577866
0.51924986 -0.030466042 0.12577042
0.51884621 -0.030984294 0.12576216
0.51844251 -0.031502545 0.12575391
0.51803887 -0.032020796 0.12574567
0.51763523 -0.032539047 0.12573741
0.51723158 -0.033057299 0.12572916
0.51682794 -0.03357555 0.12572092
0.5164243 -0.034093801 0.12571266
0.51602066 -0.034612052 0.12570442
0.51561701 -0.035130307 0.12569617
0.51521337 -0.035648558 0.12568791
0.51480973 -0.036166809 0.12567967
0.51440609 -0.036685061 0.12567142
0.51335251 -0.036443505 0.12590721
0.51294953 -0.036960907 0.12589897
0.51254654 -0.037478305 0.12589075
0.51149559 -0.037233345 0.1261266
0.51109326 -0.037749898 0.12611839
0.51069099 -0.038266439 0.12611017
0.51028866 -0.038782991 0.12610194
0.50988632 -0.039299548 0.12609372
0.50948399 -0.039816089 0.12608549
0.50908166 -0.040332641 0.12607726
0.50867933 -0.040849198 0.12606905
0.50827706 -0.041365739 0.12606083
0.50787473 -0.041882291 0.1260526
0.5074724 -0.042398833 0.12604438
0.50707006 -0.042915389 0.12603615
0.50666773 -0.043431941 0.12602794
0.50626546 -0.043948483 0.12601972
0.50586313 -0.044465039 0.12601149
0.5054608 -0.04498158 0.12600327
0.50505847 -0.045498133 0.12599504
0.50465614 -0.046014685 0.12598683
0.50425386 -0.04653123 0.1259786
0.50385153 -0.047047783 0.12597038
0.5034492 -0.047564335 0.12596215
0.50304687 -0.048080876 0.12595393
0.50264454 -0.048597433 0.12594572
0.50224221 -0.049113974 0.12593749
0.50183994 -0.049630526 0.12592927
0.5014376 -0.050147083 0.12592104
0.50103527 -0.050663624 0.12591282
0.50063294 -0.051180176 0.1259046
0.50023061 -0.051696718 0.12589638
0.49982831 -0.052213274 0.12588815
0.49942598 -0.052729826 0.12587993
0.49902368 -0.053246368 0.1258717
0.49862134 -0.053762924 0.12586349
0.49821901 -0.054279465 0.12585527
0.49781671 -0.054796018 0.12584704
0.49741438 -0.055312574 0.12583882
0.49701208 -0.055829115 0.12583059
0.49660975 -0.056345668 0.12582238
0.49620742 -0.05686222 0.12581415
0.49580511 -0.057378765 0.12580593
0.49540278 -0.057895318 0.1257977
0.54875362 -0.025656164 0.12034152
0.54833603 -0.026192291 0.12033299
0.54655421 -0.025292678 0.12081327
0.54545653 -0.02510839 0.12104916
0.54504097 -0.025641961 0.12104067
0.5432651 -0.024734683 0.12152106
0.54081249 -0.023102773 0.12224593
0.53374898 -0.019422669 0.12416828
0.52928513 -0.015592068 0.12562706
0.52955765 -0.016835827 0.1253743
0.529154 -0.017354079 0.12536605
0.52942449 -0.018600389 0.12511323
0.52902019 -0.019119492 0.12510498
0.52861589 -0.019638596 0.12509671
0.52753943 -0.019427083 0.12533306
0.52780724 -0.020676801 0.12508018
0.52740294 -0.021195905 0.12507191
0.52699864 -0.021715002 0.12506366
0.52592486 -0.021500083 0.12530005
0.52552116 -0.022018334 0.12529179
0.52511752 -0.022536585 0.12528355
0.52471387 -0.023054836 0.1252753
0.52364337 -0.022835668 0.12551175
0.52324039 -0.023353068 0.12550351
0.5228374 -0.023870466 0.12549528
0.52243441 -0.024387872 0.12548704
0.52203143 -0.024905272 0.1254788
0.52162844 -0.025422672 0.12547056
0.52122551 -0.025940072 0.12546234
0.52082253 -0.026457472 0.1254541
0.51975799 -0.026230637 0.12569067
0.51935565 -0.026747186 0.12568246
0.51895332 -0.027263733 0.12567423
0.51855099 -0.027780281 0.12566601
0.51814866 -0.028296836 0.12565778
0.51774639 -0.028813383 0.12564956
0.51734406 -0.029329931 0.12564135
0.51694173 -0.029846478 0.12563312
0.51653939 -0.030363033 0.1256249
0.51613706 -0.030879579 0.12561667
0.51573473 -0.031396128 0.12560844
0.51533246 -0.031912677 0.12560023
0.51493013 -0.032429222 0.12559201
0.5145278 -0.032945778 0.12558378
0.51412547 -0.033462327 0.12557556
0.51372313 -0.033978872 0.12556733
0.51332086 -0.034495421 0.12555912
0.51291853 -0.035011973 0.1255509
0.5125162 -0.035528522 0.12554267
0.51211387 -0.036045071 0.12553445
0.51106322 -0.035800334 0.12577133
0.51066154 -0.03631603 0.12576312
0.50961292 -0.036068767 0.12600002
0.5092119 -0.036583617 0.12599182
0.50881094 -0.037098467 0.12598363
0.50840992 -0.037613317 0.12597543
0.50800896 -0.038128156 0.12596723
0.50760794 -0.038643006 0.12595905
0.50720698 -0.039157856 0.12595086
0.50680596 -0.039672706 0.12594266
0.50640494 -0.040187545 0.12593447
0.50600398 -0.040702395 0.12592627
0.50560296 -0.041217245 0.12591808
0.505202 -0.041732095 0.12590988
0.50480098 -0.042246934 0.12590168
0.50440001 -0.042761784 0.12589349
0.50399899 -0.043276634 0.12588529
0.50359797 -0.043791488 0.1258771
0.50319701 -0.044306323 0.1258689
0.50279599 -0.044821177 0.12586071
0.50239503 -0.045336027 0.12585251
0.50199401 -0.045850877 0.12584431
0.50159299 -0.046365716 0.12583612
0.50119203 -0.046880566 0.12582792
0.50079101 -0.047395416 0.12581973
0.50039005 -0.047910266 0.12581153
0.49998903 -0.048425104 0.12580334
0.49958804 -0.048939954 0.12579514
0.49918705 -0.049454805 0.12578695
0.49878606 -0.049969643 0.12577875
0.49838507 -0.050484493 0.12577055
0.49798405 -0.050999343 0.12576236
0.49758306 -0.051514193 0.12575416
0.49718207 -0.052029032 0.12574597
0.49678108 -0.052543882 0.12573777
0.49638009 -0.053058732 0.12572958
0.4959791 -0.053573582 0.12572138
0.49557811 -0.054088421 0.12571318
0.49517709 -0.054603271 0.12570499
0.4947761 -0.055118121 0.12569679
0.49499691 -0.056428261 0.12544297
0.49459523 -0.056943957 0.12543476
0.54924327 -0.026211008 0.11946449
0.54882509 -0.026747981 0.11945594
0.54567963 -0.02441453 0.12042899
0.5445829 -0.024229649 0.12066591
0.54348749 -0.024043037 0.12090288
0.5417136 -0.023134599 0.12138528
0.52679545 -0.012021574 0.12600772
0.5277468 -0.013986087 0.1255085
0.52802032 -0.015227928 0.12525475
0.52761799 -0.015744476 0.12524652
0.52721566 -0.016261023 0.1252383
0.52748656 -0.017506232 0.1249845
0.52708358 -0.018023632 0.12497627
0.52600873 -0.017810673 0.12521364
0.5262776 -0.019058438 0.1249598
0.52587461 -0.019575838 0.12495156
0.52547163 -0.020093236 0.12494332
0.52439946 -0.019876869 0.12518075
0.52399713 -0.020393418 0.12517253
0.5235948 -0.020909972 0.1251643
0.52319247 -0.021426519 0.12515607
0.52279013 -0.021943068 0.12514786
0.52238786 -0.022459615 0.12513964
0.52132022 -0.022237254 0.12537716
0.52091861 -0.022752957 0.12536895
0.52051693 -0.023268653 0.12536074
0.52011526 -0.023784349 0.12535253
0.51971364 -0.024300052 0.12534432
0.51931196 -0.024815748 0.12533611
0.51891029 -0.025331449 0.12532791
0.51784807 -0.025102317 0.12556553
0.51744705 -0.025617162 0.12555733
0.51704609 -0.026132012 0.12554914
0.51664507 -0.026646856 0.12554094
0.51624405 -0.027161706 0.12553275
0.51584309 -0.027676551 0.12552455
0.51544207 -0.028191401 0.12551636
0.51504111 -0.028706245 0.12550816
0.51464009 -0.029221095 0.12549996
0.51423907 -0.02973594 0.12549177
0.51383811 -0.03025079 0.12548357
0.51343709 -0.030765634 0.12547538
0.51303613 -0.031280484 0.12546718
0.51263511 -0.03179533 0.12545899
0.51223415 -0.03231018 0.12545079
0.51183313 -0.032825023 0.12544259
0.51143211 -0.033339873 0.1254344
0.51103115 -0.033854719 0.1254262
0.51063013 -0.034369569 0.12541801
0.51022917 -0.034884412 0.12540981
0.50918084 -0.03463741 0.12564771
0.50878048 -0.035151407 0.12563953
0.50733447 -0.035414997 0.1258693
0.50693482 -0.035928141 0.12586114
0.50653517 -0.036441289 0.12585297
0.50613546 -0.036954425 0.12584479
0.50573581 -0.037467573 0.12583663
0.50533617 -0.037980717 0.12582846
0.50493646 -0.038493864 0.12582029
0.50453681 -0.039007012 0.12581213
0.50413716 -0.039520159 0.12580396
0.50373745 -0.040033307 0.12579578
0.5033378 -0.040546451 0.12578762
0.50293815 -0.041059587 0.12577945
0.50253844 -0.041572735 0.12577128
0.50213879 -0.042085882 0.12576312
0.50173914 -0.042599026 0.12575495
0.50133944 -0.043112174 0.12574677
0.50093979 -0.043625321 0.12573861
0.50054008 -0.044138469 0.12573044
0.50014043 -0.044651601 0.12572227
0.49974078 -0.045164749 0.12571411
0.4993411 -0.045677897 0.12570594
0.49894142 -0.046191044 0.12569776
0.49854177 -0.046704192 0.1256896
0.4987722 -0.048001308 0.12543498
0.49837184 -0.048515312 0.1254268
0.49734274 -0.048243631 0.1256651
0.4975712 -0.049543295 0.12541044
0.49654341 -0.049269911 0.12564875
0.49614376 -0.049783058 0.12564059
0.49574408 -0.050296206 0.12563242
0.49596986 -0.05159929 0.12537771
0.49494472 -0.051322501 0.12561609
0.49454507 -0.051835645 0.12560791
0.49476886 -0.05314127 0.12535317
0.49436852 -0.053655274 0.12534498
0.49396819 -0.054169267 0.1253368
0.49356788 -0.054683257 0.12532862
0.49378836 -0.055993143 0.12507381
0.54302901 -0.022633197 0.1205311
0.52565664 -0.0099065714 0.12590329
0.52525765 -0.010418867 0.12589514
0.52688515 -0.013106165 0.12514743
0.52648419 -0.01362101 0.12513924
0.52608317 -0.01413586 0.12513104
0.52568221 -0.014650704 0.12512285
0.52595407 -0.015893957 0.12486807
0.52555239 -0.016409658 0.12485986
0.52447921 -0.016195249 0.12509826
0.5247491 -0.017441051 0.12484344
0.52434742 -0.017956752 0.12483523
0.52394581 -0.01847245 0.12482702
0.52287525 -0.01825464 0.12506548
0.52247423 -0.018769484 0.12505728
0.52207327 -0.019284334 0.12504908
0.52167225 -0.019799178 0.12504089
0.52127123 -0.020314023 0.12503269
0.52087027 -0.020828873 0.1250245
0.51980436 -0.020605098 0.12526304
0.51940399 -0.021119097 0.12525485
0.51900369 -0.021633096 0.12524666
0.51860332 -0.022147087 0.12523848
0.51820302 -0.022661086 0.1252303
0.51780266 -0.023175085 0.12522212
0.51740235 -0.023689078 0.12521394
0.51700205 -0.024203077 0.12520576
0.51660168 -0.024717068 0.12519757
0.51620138 -0.025231067 0.12518939
0.51580101 -0.025745066 0.12518121
0.51540071 -0.026259059 0.12517303
0.51500034 -0.026773058 0.12516485
0.51460004 -0.027287049 0.12515667
0.51419967 -0.027801048 0.12514849
0.51379937 -0.028315047 0.12514029
0.513399 -0.02882904 0.12513211
0.51234508 -0.028589953 0.1253709
0.51194537 -0.0291031 0.12536274
0.51154572 -0.029616248 0.12535457
0.51114607 -0.030129388 0.12534641
0.51074636 -0.030642536 0.12533823
0.51034671 -0.031155681 0.12533006
0.50994706 -0.031668823 0.12532189
0.50954735 -0.032181971 0.12531373
0.5091477 -0.032695115 0.12530556
0.50874799 -0.033208262 0.1252974
0.50834835 -0.033721402 0.12528922
0.5079487 -0.03423455 0.12528105
0.50754899 -0.034747697 0.12527288
0.5065043 -0.034496691 0.12551187
0.5061053 -0.035008993 0.1255037
0.50570631 -0.035521284 0.12549555
0.50466418 -0.035266846 0.1257346
0.50426584 -0.035778292 0.12572646
0.50386751 -0.036289733 0.12571831
0.50346917 -0.036801178 0.12571017
0.50307083 -0.037312619 0.12570204
0.50267249 -0.037824064 0.12569389
0.50227416 -0.038335506 0.12568575
0.50187582 -0.038846951 0.12567762
0.50147742 -0.039358392 0.12566946
0.50107908 -0.039869837 0.12566133
0.50068074 -0.040381279 0.12565319
0.50028241 -0.040892724 0.12564504
0.49988407 -0.041404169 0.12563691
0.49948573 -0.04191561 0.12562877
0.49908739 -0.042427056 0.12562062
0.49868906 -0.042938497 0.12561248
0.49829069 -0.043449942 0.12560433
0.49789235 -0.043961383 0.1255962
0.49749401 -0.044472829 0.12558806
0.49709567 -0.04498427 0.12557991
0.49732715 -0.04627946 0.12532431
0.49692816 -0.046791762 0.12531614
0.49590063 -0.046518601 0.12555549
0.49613014 -0.047816351 0.12529984
0.49510396 -0.047541488 0.12553921
0.49470562 -0.048052929 0.12553106
0.49430725 -0.048564374 0.12552293
0.49453411 -0.049865521 0.12526722
0.49413511 -0.050377823 0.12525906
0.49311224 -0.050098702 0.1254985
0.49333709 -0.051402412 0.12524275
0.4929381 -0.051914699 0.1252346
0.49253908 -0.05242699 0.12522644
0.49214008 -0.052939292 0.12521829
0.49236158 -0.054247215 0.12496249
0.52355832 -0.0058426824 0.12630591
0.52383912 -0.0070737661 0.12605032
0.52344215 -0.0075835059 0.1260422
0.52439684 -0.0095410394 0.12553908
0.52534902 -0.011502008 0.12503587
0.52494931 -0.012015149 0.1250277
0.52454966 -0.012528296 0.12501954
0.52414995 -0.013041443 0.12501137
0.52442288 -0.014282738 0.12475562
0.52402252 -0.014796736 0.12474744
0.52295095 -0.014580877 0.12498686
0.52322191 -0.015824728 0.12473108
0.52282155 -0.016338727 0.1247229
0.52242124 -0.016852718 0.12471472
0.52135229 -0.016633458 0.12495419
0.52095264 -0.017146606 0.12494602
0.52055293 -0.017659752 0.12493785
0.52015328 -0.018172894 0.12492968
0.51975363 -0.018686039 0.12492152
0.51935393 -0.019199187 0.12491334
0.51828969 -0.018973967 0.12515292
0.51789069 -0.019486262 0.12514476
0.51749164 -0.019998556 0.12513661
0.51709265 -0.020510852 0.12512845
0.51669365 -0.021023147 0.1251203
0.51629466 -0.021535441 0.12511215
0.51589561 -0.022047738 0.125104
0.51549661 -0.022560032 0.12509583
0.51509762 -0.023072321 0.12508768
0.51469862 -0.023584615 0.12507953
0.51429963 -0.024096912 0.12507138
0.51390058 -0.024609206 0.12506321
0.51350158 -0.025121501 0.12505506
0.51310259 -0.025633797 0.12504691
0.5127036 -0.026146092 0.12503874
0.5123046 -0.02665838 0.12503059
0.51190555 -0.027170675 0.12502244
0.51150656 -0.027682971 0.12501429
0.51045483 -0.02744155 0.12525414
0.5100565 -0.027952993 0.12524599
0.50965816 -0.028464437 0.12523785
0.50925982 -0.02897588 0.1252297
0.50886148 -0.029487323 0.12522157
0.50846308 -0.029998766 0.12521343
0.50806475 -0.03051021 0.12520528
0.50766641 -0.031021653 0.12519714
0.50726807 -0.031533096 0.12518901
0.50686973 -0.032044541 0.12518086
0.5064714 -0.032555982 0.12517272
0.50607306 -0.033067431 0.12516458
0.50567472 -0.033578876 0.12515643
0.50463229 -0.033325579 0.12539646
0.50423461 -0.033836164 0.12538832
0.50383693 -0.034346759 0.1253802
0.50343925 -0.034857348 0.12537207
0.50304157 -0.035367943 0.12536395
0.50264388 -0.035878528 0.12535582
0.5022462 -0.036389127 0.12534769
0.50184852 -0.036899723 0.12533957
0.50081211 -0.036638763 0.1255797
0.50041509 -0.037148505 0.12557158
0.50001806 -0.037658244 0.12556347
0.49962103 -0.038167983 0.12555535
0.49922401 -0.038677722 0.12554725
0.49882701 -0.039187465 0.12553912
0.49842998 -0.039697204 0.12553102
0.49803296 -0.040206954 0.1255229
0.49763593 -0.040716697 0.12551479
0.49723893 -0.041226435 0.12550667
0.49684191 -0.041736174 0.12549856
0.49644488 -0.042245913 0.12549044
0.49604788 -0.042755656 0.12548234
0.49565086 -0.043265395 0.12547421
0.49588332 -0.044558603 0.12521765
0.49548563 -0.045069203 0.12520953
0.49508795 -0.045579787 0.12520139
0.49469027 -0.046090383 0.12519327
0.49429259 -0.046600971 0.12518513
0.49326873 -0.046323843 0.12542553
0.49287173 -0.046833586 0.12541741
0.49309954 -0.048132751 0.12516075
0.49270186 -0.048643347 0.12515263
0.49168065 -0.048362818 0.12539308
0.49190649 -0.049664531 0.12513638
0.49213102 -0.050967947 0.12487964
0.49111113 -0.050685715 0.12512012
0.49133432 -0.051990833 0.12486335
0.49031579 -0.051706899 0.12510386
0.52269709 -0.0049686823 0.12595481
0.52297831 -0.006198694 0.12569822
0.52258199 -0.0067075877 0.12569012
0.52353674 -0.0086637521 0.125185
0.52381396 -0.0098988386 0.12492834
0.52341563 -0.010410283 0.1249202
0.52301729 -0.010921726 0.12491206
0.52261895 -0.011433169 0.12490392
0.52289289 -0.01267254 0.12464719
0.5224939 -0.013184835 0.12463903
0.52142394 -0.012967499 0.12487949
0.52169591 -0.014209425 0.12462272
0.52129686 -0.01472172 0.12461457
0.52089787 -0.015234009 0.12460642
0.51983052 -0.015013272 0.12484693
0.51943219 -0.015524715 0.12483879
0.51903385 -0.016036158 0.12483065
0.51863551 -0.016547602 0.1248225
0.51823717 -0.017059045 0.12481436
0.51783884 -0.017570488 0.12480623
0.5174405 -0.018081926 0.12479808
0.51637852 -0.017854419 0.1250387
0.51598084 -0.018365011 0.12503058
0.51558316 -0.018875601 0.12502244
0.51518548 -0.019386193 0.12501432
0.51478779 -0.019896785 0.12500618
0.51439011 -0.020407377 0.12499806
0.51399243 -0.020917967 0.12498993
0.51359475 -0.021428559 0.12498181
0.51319706 -0.021939157 0.12497368
0.51279938 -0.022449749 0.12496555
0.5124017 -0.022960341 0.12495742
0.51200402 -0.023470931 0.12494929
0.51160634 -0.023981523 0.12494117
0.51120865 -0.024492115 0.12493304
0.51081097 -0.025002707 0.12492491
0.51041329 -0.025513297 0.12491678
0.51001561 -0.026023895 0.12490866
0.50896555 -0.02578106 0.1251495
0.50856853 -0.0262908 0.1251414
0.5081715 -0.026800547 0.12513328
0.50777447 -0.027310286 0.12512517
0.50737751 -0.027820025 0.12511705
0.50698048 -0.028329765 0.12510894
0.50658345 -0.028839512 0.12510082
0.50618643 -0.029349251 0.12509272
0.5057894 -0.029858992 0.12508459
0.50539237 -0.03036873 0.12507649
0.50499535 -0.030878477 0.12506837
0.50459838 -0.031388216 0.12506026
0.50420135 -0.031897962 0.12505214
0.50380433 -0.032407701 0.12504403
0.50276423 -0.032152098 0.12528509
0.50236785 -0.032660991 0.12527698
0.50197148 -0.033169888 0.12526889
0.50157517 -0.03367877 0.12526079
0.5011788 -0.034187663 0.12525269
0.50078243 -0.034696557 0.12524459
0.50038606 -0.035205439 0.12523648
0.49998972 -0.035714332 0.12522839
0.49959335 -0.036223225 0.12522028
0.49919701 -0.036732122 0.12521218
0.49880067 -0.037241004 0.12520409
0.49840429 -0.037749898 0.12519598
0.49800792 -0.038258791 0.12518789
0.49761158 -0.038767673 0.12517978
0.49721524 -0.039276566 0.12517168
0.49681887 -0.03978546 0.12516358
0.49642253 -0.040294342 0.12515548
0.49602616 -0.040803239 0.12514737
0.49562982 -0.041312132 0.12513928
0.49523345 -0.041821014 0.12513117
0.49483711 -0.042329907 0.12512308
0.49444073 -0.042838801 0.12511498
0.49404439 -0.043347694 0.12510687
0.49302015 -0.043071639 0.12534828
0.49325168 -0.044365473 0.12509067
0.49222875 -0.044087712 0.1253321
0.49245897 -0.045383248 0.12507448
0.4920626 -0.045892142 0.12506637
0.49166626 -0.046401035 0.12505828
0.49126992 -0.046909917 0.12505017
0.49087355 -0.04741881 0.12504207
0.49109975 -0.048719425 0.12478437
0.49070272 -0.049229164 0.12477626
0.48968449 -0.048945483 0.12501776
0.48990867 -0.050248642 0.12476003
0.48889178 -0.049963258 0.12500156
0.52251381 -0.0048160632 0.12535624
0.52211809 -0.0053241057 0.12534815
0.52172238 -0.0058321417 0.12534006
0.52200198 -0.0070636012 0.12508245
0.52228028 -0.0082967281 0.12482481
0.52188325 -0.008806468 0.1248167
0.52148622 -0.0093162078 0.12480859
0.5210892 -0.0098259477 0.12480047
0.52136415 -0.01106333 0.12454278
0.52096647 -0.011573921 0.12453465
0.51989812 -0.011355174 0.12477612
0.52017111 -0.012595105 0.12451839
0.51977342 -0.013105702 0.12451027
0.51937574 -0.013616294 0.12450214
0.51897806 -0.014126885 0.12449401
0.51791304 -0.013903879 0.12473556
0.51751602 -0.014413624 0.12472744
0.51711899 -0.014923364 0.12471933
0.51672202 -0.015433104 0.12471122
0.516325 -0.015942844 0.1247031
0.51592797 -0.01645259 0.12469499
0.5148676 -0.016223628 0.12493663
0.51447123 -0.016732516 0.12492853
0.51407492 -0.017241411 0.12492044
0.51367855 -0.017750299 0.12491233
0.51328218 -0.018259186 0.12490423
0.51288581 -0.01876808 0.12489613
0.5124895 -0.019276969 0.12488803
0.51209313 -0.019785862 0.12487993
0.51169676 -0.02029475 0.12487183
0.51130044 -0.020803638 0.12486373
0.51090407 -0.021312533 0.12485563
0.5105077 -0.021821421 0.12484752
0.51011133 -0.022330308 0.12483943
0.50971502 -0.022839203 0.12483133
0.50931865 -0.023348091 0.12482323
0.50892228 -0.023856984 0.12481512
0.50852591 -0.024365872 0.12480702
0.50747746 -0.024121562 0.12504894
0.50708175 -0.024629598 0.12504084
0.50668609 -0.025137641 0.12503275
0.50629038 -0.025645677 0.12502468
0.50589466 -0.026153719 0.12501658
0.50485027 -0.025904333 0.12525855
0.50510329 -0.027169798 0.1250004
0.50470763 -0.027677834 0.12499232
0.50431192 -0.028185876 0.12498423
0.5039162 -0.028693913 0.12497615
0.50352055 -0.029201955 0.12496806
0.50312483 -0.029709991 0.12495998
0.50272918 -0.030218028 0.12495188
0.50169003 -0.029961847 0.12519397
0.50129497 -0.030469025 0.12518589
0.50089997 -0.030976215 0.12517782
0.50050491 -0.031483404 0.12516974
0.50010991 -0.031990595 0.12516168
0.49971485 -0.032497786 0.1251536
0.49931982 -0.033004977 0.12514552
0.49892479 -0.033512156 0.12513745
0.49852976 -0.034019347 0.12512937
0.49813473 -0.034526538 0.12512131
0.4977397 -0.035033729 0.12511323
0.49734467 -0.03554092 0.12510516
0.49694964 -0.036048096 0.12509708
0.49655461 -0.036555286 0.125089
0.49615958 -0.037062477 0.12508094
0.49576455 -0.037569668 0.12507287
0.49536952 -0.038076859 0.12506479
0.49497449 -0.03858405 0.12505671
0.49457946 -0.039091229 0.12504864
0.49418443 -0.039598417 0.12504058
0.4937894 -0.040105607 0.1250325
0.49339437 -0.040612798 0.12502442
0.49299935 -0.041119989 0.12501635
0.49260432 -0.041627169 0.12500827
0.49220929 -0.042134359 0.12500021
0.49118739 -0.041856039 0.12524262
0.49039865 -0.042868719 0.1252265
0.49000427 -0.043375053 0.12521844
0.48960993 -0.043881394 0.12521037
0.48921555 -0.044387728 0.12520233
0.48882118 -0.044894062 0.12519427
0.4884268 -0.045400407 0.1251862
0.48803246 -0.045906737 0.12517814
0.48763809 -0.046413083 0.12517008
0.48786396 -0.047713432 0.12491139
0.48808852 -0.049015492 0.12465266
0.52165353 -0.0039428719 0.12500814
0.52125853 -0.0044500567 0.12500007
0.52086347 -0.0049572471 0.124992
0.52114338 -0.0061875633 0.1247334
0.52074772 -0.0066955998 0.12472531
0.52035201 -0.0072036418 0.12471723
0.51995635 -0.0077116783 0.12470914
0.51956064 -0.0082197208 0.12470105
0.5198366 -0.009455177 0.12444236
0.51944029 -0.0099640647 0.12443426
0.51837355 -0.0097438358 0.12467679
0.51864755 -0.010981848 0.12441806
0.51825118 -0.011490735 0.12440996
0.51785487 -0.011999629 0.12440186
0.5174585 -0.012508517 0.12439375
0.51639509 -0.012284035 0.12463635
0.51599938 -0.012792077 0.12462827
0.51560372 -0.013300113 0.12462018
0.51520801 -0.013808155 0.12461209
0.51481229 -0.014316192 0.12460401
0.51441664 -0.014824234 0.12459592
0.51402092 -0.01533227 0.12458783
0.51296288 -0.015101016 0.12483052
0.51256788 -0.015608201 0.12482245
0.51217282 -0.016115392 0.12481438
0.51177776 -0.016622581 0.1248063
0.51138276 -0.017129766 0.12479823
0.5109877 -0.017636957 0.12479015
0.5105927 -0.018144147 0.12478209
0.5101977 -0.018651331 0.12477401
0.50980264 -0.019158522 0.12476593
0.50940758 -0.019665712 0.12475786
0.50901258 -0.020172898 0.12474979
0.50861752 -0.020680089 0.12474172
0.50822252 -0.021187272 0.12473364
0.50782752 -0.021694463 0.12472557
0.50743246 -0.022201654 0.1247175
0.50703746 -0.022708839 0.12470942
0.50599062 -0.022463113 0.12495234
0.50559628 -0.022969453 0.12494428
0.50520194 -0.02347579 0.12493622
0.50480753 -0.02398213 0.12492815
0.50441319 -0.024488462 0.12492009
0.50401878 -0.024994802 0.12491204
0.50362444 -0.025501139 0.12490398
0.50323009 -0.026007479 0.12489592
0.50218922 -0.025754092 0.12513894
0.5030871 -0.027780725 0.12462869
0.5026921 -0.02828791 0.12462061
0.50229704 -0.028795101 0.12461254
0.50125825 -0.02853916 0.12485562
0.50022072 -0.028281529 0.12509872
0.49982703 -0.028787015 0.12509067
0.49943331 -0.029292502 0.12508263
0.49903962 -0.029797977 0.12507458
0.4986459 -0.030303463 0.12506653
0.49825221 -0.030808952 0.12505849
0.49785849 -0.03131444 0.12505044
0.49746481 -0.031819925 0.12504239
0.49707109 -0.032325413 0.12503435
0.4966774 -0.032830898 0.1250263
0.49628368 -0.033336386 0.12501825
0.49588999 -0.033841874 0.12501021
0.49613148 -0.035121545 0.12475084
0.49510258 -0.034852847 0.12499411
0.49470887 -0.035358336 0.12498606
0.49431515 -0.03586382 0.12497801
0.49392146 -0.036369309 0.12496997
0.49352774 -0.036874797 0.12496192
0.49313405 -0.037380282 0.12495388
0.49274033 -0.03788577 0.12494583
0.49234664 -0.038391255 0.12493779
0.49195296 -0.038896732 0.12492974
0.49155924 -0.03940222 0.12492169
0.49053764 -0.039124161 0.12516513
0.49014458 -0.0396288 0.12515709
0.48975155 -0.040133432 0.12514906
0.48873255 -0.039851941 0.12539257
0.48896548 -0.041142702 0.12513299
0.48857242 -0.041647341 0.12512496
0.48755541 -0.041363291 0.12536851
0.48778635 -0.042656612 0.1251089
0.48677066 -0.042370856 0.12535247
0.48700026 -0.043665882 0.12509283
0.48536465 -0.042586371 0.12558804
0.48559353 -0.043882206 0.12532841
0.48582113 -0.045179784 0.12506874
0.52079391 -0.003070185 0.12466204
0.52039951 -0.0035765236 0.12465398
0.52000517 -0.0040828623 0.12464593
0.51961082 -0.004589201 0.12463786
0.51921642 -0.005095534 0.1246298
0.51882207 -0.0056018727 0.12462174
0.51842767 -0.0061082114 0.12461368
0.51870531 -0.0073408228 0.12435405
0.51831031 -0.0078480132 0.12434598
0.51791525 -0.008355204 0.1243379
0.51752025 -0.0088623883 0.12432983
0.51712519 -0.0093695791 0.12432176
0.51673019 -0.0098767634 0.12431368
0.51633513 -0.010383954 0.12430561
0.51594013 -0.010891145 0.12429754
0.51487839 -0.010665248 0.12454114
0.51448405 -0.011171587 0.12453308
0.51408964 -0.01167792 0.12452503
0.5136953 -0.012184259 0.12451696
0.5133009 -0.012690597 0.1245089
0.51290655 -0.013196936 0.12450084
0.51251221 -0.013703269 0.12449278
0.51145577 -0.013470563 0.12473649
0.51106209 -0.013976051 0.12472844
0.51066834 -0.014481537 0.12472039
0.51027465 -0.014987024 0.12471235
0.50988096 -0.015492511 0.12470431
0.50948727 -0.015997998 0.12469626
0.50909352 -0.016503485 0.12468822
0.50869983 -0.017008971 0.12468017
0.50830615 -0.01751446 0.12467212
0.50791246 -0.018019941 0.12466408
0.50751871 -0.018525427 0.12465603
0.50712502 -0.019030914 0.12464798
0.50673133 -0.019536402 0.12463994
0.50633758 -0.020041889 0.12463189
0.50594389 -0.020547375 0.12462384
0.50555021 -0.021052862 0.1246158
0.50450504 -0.020805692 0.12485975
0.50411201 -0.021310328 0.12485171
0.50371897 -0.021814963 0.12484368
0.50332594 -0.022319598 0.12483565
0.50293291 -0.022824233 0.12482762
0.50253981 -0.023328869 0.12481958
0.50214678 -0.023833504 0.12481155
0.50175375 -0.024338139 0.12480351
0.50071454 -0.024083273 0.12504761
0.50032216 -0.024587063 0.12503959
0.49992976 -0.025090847 0.12503156
0.49953738 -0.025594629 0.12502354
0.499145 -0.026098413 0.12501553
0.49875262 -0.026602197 0.12500751
0.49836025 -0.027105987 0.12499949
0.49796787 -0.027609769 0.12499147
0.49757549 -0.028113553 0.12498345
0.49718311 -0.028617337 0.12497543
0.49679074 -0.02912112 0.12496741
0.49639836 -0.029624904 0.12495939
0.49600598 -0.030128688 0.12495137
0.4956136 -0.030632472 0.12494335
0.49522123 -0.031136254 0.12493534
0.49482885 -0.031640038 0.12492731
0.49443647 -0.03214382 0.1249193
0.4940441 -0.032647606 0.12491128
0.49365172 -0.033151399 0.12490325
0.49325934 -0.033655185 0.12489524
0.49286696 -0.034158967 0.12488722
0.49247459 -0.03466275 0.1248792
0.49208221 -0.035166536 0.12487118
0.49168983 -0.035670318 0.12486316
0.49129742 -0.0361741 0.12485514
0.49090505 -0.036677886 0.12484712
0.49051267 -0.037181668 0.1248391
0.49012029 -0.037685454 0.12483108
0.48910034 -0.037405942 0.12507555
0.48808169 -0.037124731 0.12532003
0.48769063 -0.037626822 0.12531205
0.48729959 -0.038128901 0.12530404
0.48753348 -0.039417684 0.12504353
0.48714176 -0.039920609 0.12503551
0.48612642 -0.039635144 0.12528007
0.48635831 -0.040926483 0.12501951
0.48534432 -0.040639315 0.12526408
0.4855749 -0.041932348 0.12500349
0.48456222 -0.041643474 0.1252481
0.48417115 -0.042145554 0.1252401
0.48439974 -0.043441147 0.12497947
0.48400801 -0.043944087 0.12497146
0.51886553 -0.0019825839 0.1245624
0.51847249 -0.0024872192 0.12455437
0.51875377 -0.0037144702 0.12429381
0.51836008 -0.0042199572 0.12428576
0.51796633 -0.0047254441 0.12427772
0.51757264 -0.0052309311 0.12426967
0.51717895 -0.0057364185 0.12426163
0.51678526 -0.0062419055 0.12425358
0.51639152 -0.0067473925 0.12424553
0.51599783 -0.0072528794 0.12423749
0.51560414 -0.0077583664 0.12422944
0.51521045 -0.0082638478 0.12422139
0.5148167 -0.0087693343 0.12421335
0.51442301 -0.0092748217 0.1242053
0.51402932 -0.0097803082 0.12419725
0.51296991 -0.0095521184 0.12444191
0.51257682 -0.010056754 0.12443388
0.51218379 -0.010561389 0.12442584
0.51179075 -0.011066024 0.1244178
0.51139772 -0.011570659 0.12440977
0.51100469 -0.012075295 0.12440174
0.51061165 -0.01257993 0.12439371
0.50955749 -0.012344893 0.12463849
0.50916511 -0.012848676 0.12463047
0.50877273 -0.01335246 0.12462245
0.50838035 -0.01385625 0.12461443
0.50798798 -0.014360033 0.12460641
0.5075956 -0.014863816 0.12459839
0.50720322 -0.0153676 0.12459037
0.50681084 -0.015871383 0.12458235
0.50641847 -0.016375167 0.12457433
0.50602603 -0.016878951 0.12456632
0.50563365 -0.017382739 0.12455829
0.50524127 -0.017886523 0.12455028
