# .PCD v0.7 - Point Cloud Data file format
VERSION 0.7
FIELDS x y z
SIZE 4 4 4
TYPE F F F
COUNT 1 1 1
WIDTH 1344
HEIGHT 1
VIEWPOINT 0 0 0 1 0 0 0
POINTS 1344
DATA ascii
0.41005385 -0.093071006 0.088323824
0.41017506 -0.094460987 0.087994218
0.40979129 -0.094953701 0.087986372
0.40940753 -0.09544643 0.087978534
0.40902379 -0.095939152 0.087970689
0.40864 -0.096431881 0.087962843
0.40825626 -0.096924596 0.087955005
0.40837279 -0.098320492 0.087625317
0.40798837 -0.098814055 0.087617464
0.40760395 -0.099307634 0.087609604
0.40771785 -0.10070693 0.087279871
0.40733275 -0.10120136 0.087272003
0.40744466 -0.10260321 0.086942218
0.40705892 -0.10309848 0.086934336
0.40667316 -0.10359376 0.086926453
0.4062874 -0.10408904 0.08691857
0.40590167 -0.1045843 0.086910687
0.40551591 -0.10507958 0.086902805
0.40513015 -0.10557485 0.086894915
0.40474442 -0.10607013 0.086887032
0.40435866 -0.1065654 0.086879149
0.40397289 -0.10706068 0.086871266
0.40358716 -0.10755596 0.086863384
0.4032014 -0.10805122 0.086855501
0.40194154 -0.10812329 0.087161817
0.50544816 -0.087628819 0.064384654
0.50501472 -0.088185363 0.064375795
0.50399041 -0.087955564 0.064687915
0.50017732 -0.08512672 0.066275328
0.50033671 -0.08646708 0.065945506
0.49931833 -0.0862296 0.066257775
0.49830133 -0.085990459 0.066570051
0.49728569 -0.085749596 0.06688235
0.49627134 -0.085507058 0.067194678
0.49525833 -0.085262798 0.067507036
0.4942466 -0.085016809 0.067819439
0.49323624 -0.084769145 0.068131849
0.49222723 -0.084519789 0.068444289
0.49121952 -0.084268734 0.068756752
0.49021313 -0.084015973 0.069069244
0.48920801 -0.083761469 0.069381788
0.4882043 -0.083505303 0.069694325
0.48662171 -0.082447477 0.070328109
0.48562124 -0.082187019 0.070640743
0.48462215 -0.081924893 0.070953384
0.48304617 -0.080858573 0.071587287
0.48205039 -0.0805922 0.071899995
0.480479 -0.079519875 0.072534025
0.47948653 -0.079249248 0.0728468
0.47849542 -0.078976899 0.073159605
0.47750556 -0.07870283 0.073472455
0.47651705 -0.078427084 0.073785312
0.47552991 -0.078149654 0.0740982
0.47397116 -0.077061199 0.07473246
0.47298726 -0.07677947 0.075045437
0.47200474 -0.076496072 0.075358413
0.47102353 -0.076210976 0.07567142
0.46947342 -0.075111471 0.076305859
0.46792591 -0.07400851 0.076940373
0.46695 -0.073716603 0.077253491
0.46500215 -0.073127642 0.077879816
0.46403024 -0.072830625 0.078193016
0.46192709 -0.070896268 0.079149209
0.46095908 -0.070594124 0.079462513
0.46055743 -0.071109816 0.079454303
0.4590272 -0.069984771 0.080089144
0.45862687 -0.070498772 0.080080964
0.4571006 -0.069368616 0.080715887
0.45613924 -0.069057949 0.081029326
0.45517924 -0.068745621 0.081342764
0.45478156 -0.069256209 0.081334636
0.45382357 -0.068941325 0.081648119
0.45230719 -0.067798369 0.082283266
0.45135254 -0.06747923 0.082596816
0.45039916 -0.067158394 0.082910389
0.44944713 -0.066835843 0.083223991
0.44905344 -0.067341335 0.083215944
0.4481034 -0.067016236 0.083529592
0.44715461 -0.066689402 0.083843283
0.44620723 -0.066360906 0.084156975
0.44526115 -0.066030696 0.084470704
0.44431642 -0.065698802 0.084784456
0.44337296 -0.065365158 0.085098252
0.44243088 -0.065029837 0.085412055
0.44149011 -0.064692833 0.085725889
0.44055066 -0.064354122 0.086039752
0.43961257 -0.064013705 0.086353637
0.43867573 -0.063671552 0.086667575
0.43774027 -0.06332773 0.086981513
0.43680614 -0.062982209 0.08729548
0.4358733 -0.06263499 0.087609477
0.43494183 -0.06228606 0.087923497
0.43455806 -0.062778786 0.087915659
0.43324542 -0.062919147 0.088221915
0.43231791 -0.062565111 0.088536017
0.43193549 -0.063056141 0.088528201
0.43100995 -0.062699549 0.08884234
0.43008575 -0.062341277 0.089156516
0.42970464 -0.062830597 0.089148723
0.42932352 -0.063319921 0.089140937
0.42894241 -0.063809231 0.089133143
0.42802149 -0.063446663 0.089447409
0.42764106 -0.063935123 0.089439638
0.42726061 -0.064423591 0.08943186
0.42688015 -0.064912051 0.089424081
0.42649969 -0.065400526 0.08941631
0.42611927 -0.065888993 0.089408532
0.42573881 -0.066377454 0.089400753
0.42535836 -0.066865921 0.089392982
0.4249779 -0.067354396 0.089385204
0.42459747 -0.067842856 0.089377433
0.42421702 -0.068331324 0.089369655
0.42383656 -0.068819784 0.089361876
0.4234561 -0.069308266 0.089354105
0.42307568 -0.069796726 0.089346327
0.42269522 -0.070285194 0.089338556
0.42231479 -0.070773654 0.089330778
0.42193434 -0.071262121 0.089322999
0.42155388 -0.071750596 0.089315228
0.42117342 -0.072239056 0.08930745
0.420793 -0.072727524 0.089299671
0.42041254 -0.073215984 0.0892919
0.42003208 -0.073704459 0.089284122
0.41965163 -0.074192926 0.089276351
0.4192712 -0.074681386 0.089268573
0.41889074 -0.075169854 0.089260794
0.41851029 -0.075658314 0.089253023
0.41812983 -0.076146796 0.089245245
0.4177494 -0.076635256 0.089237474
0.41736895 -0.077123724 0.089229695
0.41698849 -0.077612184 0.089221917
0.41660807 -0.078100659 0.089214146
0.41622761 -0.078589126 0.089206368
0.41584715 -0.079077587 0.089198589
0.41546673 -0.079566054 0.089190818
0.41508627 -0.080054529 0.08918304
0.41470581 -0.080542989 0.089175269
0.41432536 -0.081031457 0.089167491
0.41446021 -0.082403295 0.088837162
0.4140791 -0.082892619 0.088829368
0.4142119 -0.084266976 0.088499025
0.41383013 -0.084757142 0.088491224
0.41344836 -0.085247308 0.088483423
0.41357854 -0.086625069 0.08815302
0.41319609 -0.0871161 0.088145204
0.41281366 -0.087607108 0.088137388
0.41243121 -0.088098139 0.088129573
0.41204879 -0.088589147 0.088121757
0.41217497 -0.089972034 0.087791279
0.41179186 -0.090463907 0.087783448
0.41140875 -0.090955764 0.087775618
0.41102567 -0.091447636 0.087767787
0.41064256 -0.091939509 0.087759957
0.41076481 -0.093327522 0.087429374
0.41038105 -0.093820252 0.087421529
0.40999728 -0.094312966 0.087413691
0.40961352 -0.094805688 0.087405846
0.40922976 -0.095298417 0.087398
0.40884599 -0.095791131 0.087390162
0.40846223 -0.096283861 0.087382317
0.40857914 -0.097678646 0.087051645
0.40819472 -0.098172218 0.087043785
0.4078103 -0.098665781 0.087035932
0.40792453 -0.10006397 0.086705208
0.40753946 -0.10055841 0.08669734
0.40715435 -0.10105283 0.086689465
0.40726596 -0.10245442 0.086358681
0.40688023 -0.10294969 0.086350799
0.40649447 -0.10344497 0.086342916
0.40660343 -0.10484996 0.086012088
0.40621701 -0.10534611 0.08600419
0.40583059 -0.10584223 0.085996293
0.40544418 -0.10633835 0.085988395
0.40505776 -0.10683447 0.085980497
0.4037942 -0.10691189 0.086287729
0.40340847 -0.10740717 0.086279847
0.40263695 -0.10839771 0.086264081
0.40176314 -0.10797476 0.086579278
0.50524735 -0.087461628 0.063728921
0.50481391 -0.088018171 0.063720062
0.5037899 -0.087788634 0.064033188
0.50013739 -0.086301163 0.065294787
0.49911937 -0.086063944 0.065608062
0.49868986 -0.086615376 0.065599285
0.49767384 -0.086375646 0.065912575
0.49665916 -0.086134195 0.066225894
0.49564579 -0.085891053 0.066539243
0.49463376 -0.08564619 0.066852614
0.49362302 -0.085399605 0.06716603
0.49261361 -0.085151352 0.067479454
0.49160555 -0.084901407 0.067792907
0.4905988 -0.084649749 0.068106398
0.48959339 -0.084396385 0.068419904
0.48858926 -0.084141299 0.068733461
0.48642671 -0.082285143 0.069691427
0.48542657 -0.082024939 0.070005067
0.48442778 -0.081763074 0.070318706
0.48285243 -0.080697261 0.070954628
0.48185694 -0.080431141 0.071268335
0.48028618 -0.07935933 0.071904369
0.47929403 -0.079088956 0.072218142
0.47830319 -0.078816868 0.072531953
0.47731364 -0.078543052 0.072845809
0.47632548 -0.078267567 0.073159665
0.47533861 -0.07799039 0.07347355
0.47378048 -0.076902449 0.074109823
0.47279689 -0.076620974 0.074423797
0.47181469 -0.076337822 0.07473778
0.47083378 -0.076052986 0.075051785
0.46928427 -0.074953988 0.075688228
0.46830666 -0.074664854 0.07600233
0.4667618 -0.073559888 0.07663887
0.46481454 -0.072971448 0.077267207
0.46384293 -0.072674684 0.077581406
0.46230668 -0.071558662 0.078218117
0.46077302 -0.070439205 0.078854911
0.46037138 -0.070954897 0.0788467
0.45884174 -0.069830358 0.079483554
0.45844141 -0.070344366 0.079475366
0.45691577 -0.069214717 0.080112301
0.4559547 -0.068904303 0.080426738
0.45499504 -0.068592235 0.080741175
0.45459735 -0.069102824 0.080733046
0.45363966 -0.068788193 0.081047535
0.45212391 -0.067645751 0.081684686
0.45116952 -0.067326866 0.081999242
0.45021647 -0.067006283 0.082313821
0.44926476 -0.066683993 0.082628421
0.44887105 -0.067189477 0.082620375
0.44792131 -0.06686464 0.08293502
0.44697285 -0.066538066 0.083249718
0.44602576 -0.066209815 0.083564416
0.44508001 -0.065879866 0.083879143
0.44413558 -0.065548226 0.084193893
0.44319242 -0.065214835 0.084508702
0.44225064 -0.064879775 0.084823512
0.44131017 -0.064543024 0.085138343
0.44037104 -0.064204566 0.085453205
0.43943325 -0.06386441 0.085768096
0.43849671 -0.063522518 0.086083032
0.43756157 -0.063178949 0.086397976
0.43662775 -0.062833682 0.086712949
0.43624264 -0.06332811 0.086705074
0.43531081 -0.062980294 0.087020084
0.43438029 -0.062630773 0.087335125
0.43306795 -0.06277138 0.087642387
0.43175831 -0.062908635 0.087949678
0.4308331 -0.062552296 0.088264823
0.43045133 -0.063042462 0.088257022
0.42952809 -0.062683605 0.088572204
0.42914698 -0.063172922 0.088564418
0.42876586 -0.063662231 0.088556625
0.42784527 -0.063299917 0.088871889
0.42746481 -0.063788384 0.088864118
0.42708436 -0.064276844 0.088856339
0.42670393 -0.064765312 0.088848568
0.42632347 -0.065253787 0.08884079
0.42594302 -0.065742254 0.088833012
0.42556256 -0.066230714 0.088825241
0.42518213 -0.066719182 0.088817462
0.42480168 -0.067207657 0.088809691
0.42442122 -0.067696117 0.088801913
0.42404076 -0.068184584 0.088794135
0.42366034 -0.068673044 0.088786364
0.42327988 -0.069161519 0.088778585
0.42289943 -0.069649987 0.088770814
0.422519 -0.070138447 0.088763036
0.42213854 -0.070626915 0.088755257
0.42175809 -0.071115375 0.088747486
0.42137763 -0.071603857 0.088739708
0.4209972 -0.072092317 0.08873193
0.42061675 -0.072580785 0.088724159
0.42023629 -0.073069245 0.08871638
0.41985583 -0.07355772 0.088708609
0.41947541 -0.074046187 0.088700831
0.41909495 -0.074534647 0.088693053
0.41871449 -0.075023115 0.088685282
0.41833407 -0.075511575 0.088677503
0.41795361 -0.07600005 0.088669732
0.41757315 -0.076488517 0.088661954
0.4171927 -0.076976977 0.088654175
0.41681227 -0.077465445 0.088646404
0.41643181 -0.07795392 0.088638626
0.41605136 -0.078442387 0.088630848
0.41567093 -0.078930847 0.088623077
0.41529047 -0.079419315 0.088615298
0.41491002 -0.07990779 0.088607527
0.41504589 -0.081277668 0.088276222
0.41466478 -0.081766993 0.088268436
0.41479862 -0.083139375 0.087937109
0.41441682 -0.083629556 0.087929308
0.41403505 -0.084119722 0.087921508
0.41365328 -0.084609888 0.087913707
0.41378379 -0.085986555 0.087582313
0.41340137 -0.086477563 0.087574497
0.41301891 -0.086968593 0.087566681
0.41314679 -0.088348657 0.087235242
0.41276368 -0.088840529 0.087227412
0.41238058 -0.089332402 0.087219581
0.4119975 -0.089824274 0.08721175
0.41161439 -0.090316139 0.08720392
0.41123131 -0.090808004 0.087196089
0.4108482 -0.091299869 0.087188259
0.41097081 -0.092686787 0.086856686
0.41058704 -0.093179502 0.086848848
0.41020328 -0.093672231 0.086841002
0.40981951 -0.094164953 0.086833157
0.40943575 -0.094657667 0.086825311
0.40905198 -0.095150396 0.086817473
0.40916991 -0.096543223 0.086485825
0.40878549 -0.097036794 0.086477965
0.40840104 -0.097530372 0.086470112
0.40801662 -0.098023944 0.086462252
0.40813124 -0.099421024 0.086130537
0.40774617 -0.099915445 0.086122669
0.40736106 -0.10040988 0.086114801
0.40747303 -0.10181037 0.085783035
0.40708727 -0.10230564 0.085775144
0.40670153 -0.10280091 0.085767262
0.40681082 -0.1042048 0.085435443
0.4064244 -0.10470092 0.085427545
0.40603799 -0.10519706 0.085419647
0.40565157 -0.10569318 0.08541175
0.40526518 -0.10618931 0.085403852
0.40487877 -0.10668543 0.085395955
0.40449235 -0.10718156 0.085388057
0.40410593 -0.10767768 0.085380159
0.40371951 -0.10817382 0.085372262
0.40245825 -0.10824893 0.085680544
0.50563806 -0.088078544 0.062750235
0.5046131 -0.08785098 0.063064337
0.50358945 -0.087621696 0.063378468
0.50095719 -0.086370483 0.064329855
0.50052637 -0.086923629 0.064321049
0.49950799 -0.086687542 0.064635284
0.4984909 -0.08644972 0.064949572
0.49747521 -0.086210243 0.065263867
0.49646083 -0.085969046 0.065578185
0.49544775 -0.085726157 0.065892532
0.49443603 -0.085481554 0.06620691
0.49342558 -0.085235231 0.066521339
0.4924165 -0.084987231 0.066835761
0.49140874 -0.084737539 0.06715022
0.49040231 -0.084486142 0.067464702
0.4893972 -0.084233031 0.067779213
0.48839337 -0.083978198 0.068093769
0.48623174 -0.08212281 0.069054753
0.48523191 -0.081862867 0.069369391
0.48423344 -0.081601247 0.069684036
0.48265868 -0.080535956 0.070321955
0.48166353 -0.080270089 0.070636675
0.48009336 -0.079198785 0.071274705
0.47910151 -0.078928664 0.071589492
0.478111 -0.07865683 0.071904302
0.47712174 -0.078383274 0.072219156
0.47613388 -0.078108042 0.072534017
0.47514734 -0.077831119 0.072848909
0.47358981 -0.076743692 0.073487177
0.47260654 -0.07646247 0.073802158
0.47162464 -0.076179579 0.074117139
0.47064403 -0.075894997 0.074432157
0.46909514 -0.074796513 0.075070605
0.46811783 -0.074507639 0.075385705
0.46616727 -0.073924832 0.076015949
0.46462694 -0.072815247 0.076654591
0.46365565 -0.072518744 0.076969795
0.46212 -0.071403228 0.077608511
0.46115202 -0.07110247 0.077923782
0.46018529 -0.070799977 0.078239098
0.45865628 -0.069675952 0.078877956
0.45825595 -0.070189953 0.078869775
0.45673093 -0.069060817 0.079508714
0.45577016 -0.068750665 0.07982415
0.4548108 -0.06843885 0.080139592
0.45441312 -0.068949439 0.080131464
0.45345575 -0.068635061 0.080446951
0.4519406 -0.067493133 0.081086114
0.45098653 -0.067174502 0.081401668
0.45003378 -0.066854171 0.081717245
0.44908237 -0.066532142 0.082032852
0.44868866 -0.067037627 0.082024805
0.44773924 -0.066713043 0.082340457
0.44679108 -0.066386722 0.082656153
0.44584432 -0.066058733 0.082971856
0.44489884 -0.065729037 0.083287589
0.44395474 -0.06539765 0.083603345
0.44301188 -0.06506452 0.083919153
0.44207042 -0.064729713 0.08423496
0.44113025 -0.064393215 0.084550798
0.44019142 -0.064055018 0.084866658
0.43925393 -0.063715115 0.085182555
0.43831772 -0.063373476 0.085498497
0.4379313 -0.063869596 0.085490599
0.43699712 -0.063525438 0.085806556
0.43606424 -0.063179582 0.086122543
0.43513271 -0.06283202 0.086438559
0.43420252 -0.062482752 0.086754598
0.43381876 -0.062975466 0.08674676
0.4325074 -0.063115492 0.087055027
0.43158114 -0.062761128 0.087371148
0.43119872 -0.063252136 0.087363333
0.43027449 -0.062895216 0.087679498
0.42989272 -0.063385382 0.087671697
0.42897043 -0.063025929 0.0879879
0.42858934 -0.063515238 0.087980106
0.4282082 -0.064004563 0.087972321
0.42782709 -0.06449388 0.087964535
0.42744601 -0.064983189 0.087956741
0.4270649 -0.065472513 0.087948956
0.42668378 -0.065961823 0.087941162
0.42630267 -0.066451147 0.087933376
0.42592156 -0.066940464 0.087925583
0.42554045 -0.067429774 0.087917797
0.42515934 -0.067919098 0.087910011
0.42477822 -0.068408415 0.087902218
0.42439711 -0.068897732 0.087894432
0.424016 -0.069387048 0.087886639
0.42363489 -0.069876373 0.087878853
0.42325377 -0.070365682 0.08787106
0.42287266 -0.070854999 0.087863274
0.42249155 -0.071344323 0.087855488
0.42211044 -0.071833633 0.087847695
0.42172933 -0.072322957 0.087839909
0.42134821 -0.072812274 0.087832116
0.4209671 -0.073301584 0.08782433
0.42058599 -0.073790908 0.087816536
0.42020488 -0.074280232 0.087808751
0.41982377 -0.074769542 0.087800965
0.41944265 -0.075258859 0.087793171
0.41906154 -0.075748183 0.087785386
0.41868046 -0.076237492 0.087777592
0.41829935 -0.076726817 0.087769806
0.41791821 -0.077216133 0.087762013
0.41753712 -0.077705443 0.087754227
0.41715601 -0.078194767 0.087746434
0.4167749 -0.078684092 0.087738648
0.41639379 -0.079173401 0.087730862
0.41601267 -0.079662718 0.087723069
0.41563156 -0.080152042 0.087715283
0.41525045 -0.080641352 0.08770749
0.41486934 -0.081130676 0.087699704
0.41500354 -0.082501955 0.087367393
0.41462177 -0.082992122 0.087359592
0.41423997 -0.083482303 0.087351792
0.41437152 -0.084857009 0.087019421
0.41398907 -0.085348018 0.087011606
0.41360664 -0.085839048 0.08700379
0.41373551 -0.087217152 0.086671375
0.41335243 -0.087709025 0.086663544
0.41296932 -0.088200897 0.086655714
0.41258621 -0.088692769 0.086647883
0.41220313 -0.089184634 0.086640052
0.41182002 -0.089676507 0.086632222
0.4119443 -0.091060594 0.086299688
0.41156054 -0.091553323 0.08629185
0.4111768 -0.092046045 0.086284004
0.41079301 -0.092538767 0.086276159
0.41040927 -0.093031488 0.086268321
0.41002551 -0.093524218 0.086260475
0.40964174 -0.094016932 0.08625263
0.40976068 -0.095407799 0.085920006
0.40937626 -0.095901377 0.085912153
0.40899181 -0.096394949 0.085904293
0.40860739 -0.09688852 0.08589644
0.40822297 -0.097382098 0.085888579
0.40833795 -0.098778076 0.085555874
0.40795285 -0.099272497 0.085548006
0.40756777 -0.099766918 0.085540138
0.40768006 -0.1011663 0.08520738
0.40729433 -0.10166158 0.085199498
0.40690857 -0.10215686 0.085191615
0.40701824 -0.10355964 0.084858805
0.40663183 -0.10405576 0.084850907
0.40624541 -0.10455188 0.08484301
0.40585899 -0.10504802 0.084835112
0.40547258 -0.10554414 0.084827214
0.40508616 -0.10604027 0.084819317
0.40469974 -0.10653639 0.084811419
0.40431333 -0.10703252 0.084803522
0.40305108 -0.1071096 0.085112773
0.40227956 -0.10810015 0.085097007
0.50484574 -0.087127246 0.06241747
0.50441229 -0.087683789 0.062408611
0.50338894 -0.087454759 0.062723741
0.50134617 -0.086991586 0.063354112
0.50032675 -0.086757459 0.063669331
0.49930874 -0.086521633 0.063984573
0.49829194 -0.086284064 0.064299867
0.49727654 -0.086044841 0.06461516
0.49626246 -0.085803896 0.064930484
0.49524972 -0.085561268 0.06524583
0.49423829 -0.085316919 0.065561213
0.49322817 -0.085070848 0.06587664
0.49221939 -0.084823109 0.066192068
0.49121192 -0.084573671 0.066507526
0.49020579 -0.084322527 0.066823013
0.48920101 -0.084069677 0.06713853
0.48819748 -0.083815098 0.067454092
0.48603678 -0.081960469 0.068418071
0.48503724 -0.081700787 0.068733715
0.48403907 -0.081439428 0.069049366
0.48246494 -0.080374643 0.069689289
0.48147008 -0.08010903 0.070005007
0.47990054 -0.07903824 0.070645049
0.47890899 -0.07876838 0.070960835
0.47791877 -0.078496799 0.071276642
0.47692984 -0.078223497 0.07159251
0.47594228 -0.077948518 0.07190837
0.47495604 -0.077671856 0.072224259
0.47397113 -0.077393472 0.072540179
0.47241616 -0.076303974 0.073180519
0.47143456 -0.076021336 0.073496506
0.47045431 -0.075737014 0.073812522
0.46890602 -0.074639037 0.074452974
0.46792901 -0.074350417 0.07476908
0.46597907 -0.073768124 0.075401329
0.46500608 -0.073474437 0.075717486
0.46346834 -0.072362795 0.076358184
0.46193331 -0.071247801 0.076998904
0.46096563 -0.070947297 0.077315181
0.45999923 -0.070645057 0.077631503
0.45847085 -0.069521539 0.078272358
0.45807049 -0.070035547 0.078264177
0.45710814 -0.069728225 0.078580558
0.45558566 -0.068597019 0.079221562
0.45462659 -0.068285465 0.07953801
0.45422891 -0.068796046 0.079529881
0.45327184 -0.06848193 0.079846367
0.45175731 -0.067340508 0.080487534
0.45080355 -0.067022137 0.080804095
0.4498511 -0.066702068 0.081120677
0.44889998 -0.066380285 0.08143729
0.4485063 -0.066885769 0.081429243
0.44755715 -0.066561446 0.081745893
0.44660932 -0.066235378 0.082062595
0.44566286 -0.065907642 0.082379296
0.44471771 -0.065578207 0.082696028
0.44377387 -0.065247074 0.083012789
0.44283134 -0.064914197 0.083329596
0.44189018 -0.064579651 0.083646409
0.44095033 -0.064243406 0.083963253
0.4400118 -0.063905463 0.084280118
0.43907461 -0.06356582 0.084597014
0.43813872 -0.063224435 0.084913954
0.43775231 -0.063720554 0.084906057
0.43681842 -0.063376658 0.085223019
0.43588588 -0.063031055 0.085540012
0.43495464 -0.062683746 0.085857026
0.43457022 -0.063177317 0.085849166
0.43364099 -0.062827453 0.086166225
0.43232992 -0.062967725 0.086475499
0.43102157 -0.06310463 0.08678481
0.43009764 -0.062747963 0.087101974
0.42971584 -0.063238129 0.087094173
0.42879388 -0.062878929 0.087411381
0.4284128 -0.063368246 0.087403595
0.42803168 -0.063857563 0.087395802
0.42765054 -0.064346887 0.087388016
0.42726946 -0.064836197 0.087380223
0.42688835 -0.065325513 0.087372437
0.42650723 -0.06581483 0.087364644
0.42612612 -0.066304147 0.087356858
0.42574501 -0.066793472 0.087349072
0.4253639 -0.067282781 0.087341279
0.42498279 -0.067772098 0.087333493
0.42460167 -0.068261422 0.0873257
0.42422056 -0.068750732 0.087317914
0.42383945 -0.069240056 0.08731012
0.42345834 -0.069729373 0.087302335
0.42307723 -0.070218682 0.087294549
0.42269611 -0.070708007 0.087286755
0.422315 -0.071197331 0.08727897
0.42193389 -0.07168664 0.087271176
0.42155278 -0.072175957 0.08726339
0.42117167 -0.072665282 0.087255597
0.42079055 -0.073154591 0.087247811
0.42040944 -0.073643915 0.087240025
0.42002833 -0.074133232 0.087232232
0.41964725 -0.074622542 0.087224446
0.4192661 -0.075111866 0.087216653
0.41888499 -0.07560119 0.087208867
0.41850391 -0.0760905 0.087201074
0.4181228 -0.076579817 0.087193288
0.41774169 -0.077069141 0.087185502
0.41736057 -0.07755845 0.087177709
0.41697946 -0.078047775 0.087169923
0.41659835 -0.078537092 0.08716213
0.41621724 -0.079026401 0.087154344
0.41583613 -0.079515725 0.08714655
0.41545501 -0.08000505 0.087138765
0.41559023 -0.08137437 0.086805478
0.41520846 -0.081864536 0.086797677
0.41482666 -0.082354702 0.086789869
0.41444489 -0.082844876 0.086782068
0.4145768 -0.084218472 0.086448714
0.41419435 -0.084709495 0.086440898
0.41381192 -0.085200511 0.086433083
0.41394114 -0.08657752 0.086099677
0.41355804 -0.087069392 0.086091846
0.41317496 -0.087561265 0.086084016
0.41279185 -0.08805313 0.086076185
0.41291782 -0.089434415 0.08574269
0.41253406 -0.089927144 0.085734852
0.41215029 -0.090419859 0.085727006
0.41176653 -0.09091258 0.085719161
0.41138276 -0.09140531 0.085711315
0.410999 -0.091898024 0.085703477
0.41061524 -0.092390753 0.085695632
0.41073588 -0.093778811 0.085362047
0.41035143 -0.09427239 0.085354187
0.40996701 -0.094765961 0.085346334
0.40958259 -0.095259525 0.085338473
0.40919816 -0.095753103 0.08533062
0.40881374 -0.096246675 0.08532276
0.40842932 -0.096740246 0.085314907
0.40854463 -0.098135129 0.084981211
0.40815955 -0.098629549 0.084973343
0.40777445 -0.09912397 0.084965475
0.40788713 -0.10052224 0.084631726
0.40750137 -0.10101751 0.084623843
0.40711564 -0.1015128 0.084615961
0.40722564 -0.10291447 0.08428216
0.40683922 -0.10341059 0.084274262
0.4064528 -0.10390672 0.084266365
0.40606642 -0.10440285 0.084258467
0.40567997 -0.10489898 0.084250569
0.40529358 -0.1053951 0.084242672
0.40490717 -0.10589123 0.084234774
0.40452075 -0.10638735 0.084226876
0.40413433 -0.10688347 0.084218979
0.4033615 -0.10787573 0.084203184
0.50464493 -0.086960047 0.061761744
0.50421149 -0.087516598 0.061752886
0.50318843 -0.087287821 0.062069021
0.50114626 -0.086825162 0.062701397
0.5001272 -0.086591288 0.063017614
0.49910945 -0.086355716 0.063333862
0.49867928 -0.086908005 0.06332507
0.4976635 -0.086669855 0.063641377
0.49664906 -0.086430028 0.063957684
0.49563596 -0.086188495 0.064274028
0.49462417 -0.085945264 0.064590394
0.49361372 -0.085700326 0.064906791
0.49260452 -0.085453659 0.065223232
0.49159673 -0.085205317 0.065539673
0.49059024 -0.084955283 0.065856151
0.48900482 -0.083906315 0.06649784
0.48800159 -0.083651997 0.066814408
0.48584181 -0.081798136 0.067781396
0.48484257 -0.081538707 0.068098046
0.48384473 -0.081277601 0.068414696
0.48227119 -0.080213331 0.069056623
0.48127663 -0.079947971 0.069373347
0.47970772 -0.078877695 0.070015393
0.47871649 -0.078608088 0.070332177
0.47772658 -0.078336768 0.070648991
0.47673795 -0.078063719 0.070965856
0.47575068 -0.077789001 0.071282722
0.47476476 -0.077512585 0.071599618
0.47378016 -0.077234462 0.071916543
0.47222582 -0.07614547 0.072558887
0.47124451 -0.075863093 0.07287588
0.47026455 -0.075579025 0.073192894
0.46871686 -0.074481562 0.073835351
0.46774018 -0.074193195 0.074152455
0.46579084 -0.073611416 0.074786708
0.46481815 -0.073317982 0.075103872
0.46328107 -0.072206855 0.075746574
0.46174663 -0.071092367 0.076389305
0.46077925 -0.070792124 0.076706573
0.45981318 -0.070490137 0.077023901
0.45828539 -0.069367133 0.077666767
0.45788506 -0.069881134 0.077658586
0.45692298 -0.069574073 0.077975966
0.45596224 -0.069265321 0.078293376
0.45444235 -0.068132073 0.078936428
0.45404467 -0.068642661 0.078928299
0.4530879 -0.068328798 0.079245791
0.45213246 -0.068013228 0.079563305
0.45117831 -0.067695938 0.079880871
0.4502255 -0.067376964 0.080198444
0.44927403 -0.067056298 0.080516048
0.44832391 -0.066733919 0.080833673
0.44737509 -0.066409849 0.081151329
0.44642755 -0.066084035 0.081469029
0.44548139 -0.065756559 0.081786737
0.44453654 -0.065427378 0.082104467
0.44359303 -0.065096505 0.082422234
0.44265079 -0.064763881 0.082740046
0.44170994 -0.064429589 0.083057858
0.44077042 -0.064093597 0.0833757
0.43983218 -0.063755915 0.083693571
0.43889531 -0.063416518 0.084011473
0.43850824 -0.063913487 0.08400356
0.43757328 -0.063571513 0.084321521
0.43663973 -0.06322787 0.084639482
0.43570748 -0.06288252 0.084957473
0.43477654 -0.062535472 0.085275494
0.43439212 -0.063029043 0.085267641
0.43346322 -0.062679432 0.085585698
0.43307945 -0.063172162 0.085577853
0.43215245 -0.062819965 0.085895978
0.43176934 -0.063311838 0.085888147
0.43046197 -0.063448146 0.086198471
0.429539 -0.063090876 0.086516656
0.42915723 -0.063581057 0.086508848
0.42823625 -0.063221246 0.086827077
0.42785513 -0.06371057 0.086819284
0.42747399 -0.064199887 0.086811498
0.42709291 -0.064689197 0.086803705
0.4267118 -0.065178521 0.086795919
0.42633069 -0.06566783 0.086788125
0.42594957 -0.066157155 0.086780339
0.42556846 -0.066646472 0.086772554
0.42518735 -0.067135781 0.08676476
0.42480624 -0.067625105 0.086756974
0.42442513 -0.06811443 0.086749181
0.42404401 -0.068603739 0.086741395
0.4236629 -0.069093056 0.086733602
0.42328179 -0.06958238 0.086725816
0.42290068 -0.07007169 0.08671803
0.42251956 -0.070561014 0.086710237
0.42213845 -0.071050331 0.086702451
0.42175734 -0.07153964 0.086694658
0.42137623 -0.072028965 0.086686872
0.42099512 -0.072518289 0.086679079
0.420614 -0.073007599 0.086671293
0.42023289 -0.073496915 0.086663507
0.41985178 -0.07398624 0.086655714
0.4194707 -0.074475549 0.086647928
0.41908959 -0.074964873 0.086640134
0.41870844 -0.07545419 0.086632349
0.41832736 -0.0759435 0.086624555
0.41794625 -0.076432824 0.086616769
0.41756514 -0.076922148 0.086608976
0.41718403 -0.077411458 0.08660119
0.41680291 -0.077900775 0.086593404
0.41694045 -0.079266451 0.086259164
0.41655868 -0.079756618 0.086251363
0.41617692 -0.080246784 0.086243562
0.41579515 -0.08073695 0.086235762
0.41541338 -0.081227116 0.086227953
0.41503158 -0.08171729 0.086220153
0.41464981 -0.082207456 0.086212352
0.41478205 -0.08357995 0.085878007
0.41439962 -0.084070966 0.085870191
0.4140172 -0.084561989 0.085862376
0.41414678 -0.085937887 0.085527979
0.41376367 -0.08642976 0.085520148
0.41338059 -0.086921625 0.085512318
0.41299748 -0.087413497 0.085504487
0.41312382 -0.08879368 0.085170008
0.41274005 -0.089286394 0.085162163
0.41235629 -0.089779124 0.085154317
0.41197252 -0.090271845 0.085146479
0.41158876 -0.09076456 0.085138634
0.41171107 -0.092149816 0.084804088
0.41132665 -0.092643395 0.084796228
0.4109422 -0.093136966 0.084788375
0.41055778 -0.093630537 0.084780514
0.41017336 -0.094124116 0.084772661
0.40978894 -0.094617687 0.084764801
0.40940452 -0.095111251 0.084756948
0.4090201 -0.095604829 0.084749088
0.40913641 -0.096997745 0.084414423
0.40875134 -0.097492166 0.084406555
0.40836623 -0.097986594 0.084398679
0.40798116 -0.098481014 0.084390812
0.40809417 -0.099878184 0.084056072
0.40770844 -0.10037345 0.084048189
0.40781945 -0.10177319 0.083713412
0.40743306 -0.10226931 0.083705515
0.40754214 -0.10367161 0.083370678
0.40715507 -0.10416859 0.083362766
0.40676799 -0.10466558 0.083354861
0.40638092 -0.10516255 0.083346948
0.40599385 -0.10565952 0.083339036
0.40560678 -0.10615649 0.083331123
0.40521967 -0.10665347 0.08332321
0.4048326 -0.10715046 0.083315305
0.40356892 -0.10723056 0.083626546
0.40318251 -0.10772669 0.083618648
0.50444418 -0.086792856 0.061106015
0.50401068 -0.0873494 0.061097156
0.50298792 -0.087120891 0.061414298
0.5009464 -0.086658739 0.062048677
0.49992761 -0.086425118 0.062365897
0.49891019 -0.086189806 0.062683143
0.49848002 -0.086742096 0.062674351
0.49746454 -0.086504191 0.062991664
0.49645039 -0.086264625 0.063308984
0.49543759 -0.086023346 0.063626319
0.49442613 -0.085780375 0.063943692
0.49341598 -0.08553569 0.064261086
0.49240711 -0.085289285 0.064578533
0.49139962 -0.085041195 0.06489598
0.49039343 -0.084791414 0.065213457
0.4888086 -0.083742961 0.06585715
0.48780569 -0.083488896 0.066174723
0.48564684 -0.081635803 0.067144722
0.48464793 -0.081376627 0.06746237
0.48365036 -0.081115782 0.067780025
0.48207745 -0.080052018 0.068423957
0.48108321 -0.079786919 0.068741679
0.4795149 -0.07871715 0.069385737
0.47852397 -0.078447796 0.069703527
0.47753438 -0.078176729 0.070021339
0.47654605 -0.077903941 0.070339203
0.47555912 -0.077629477 0.070657074
0.47457346 -0.077353321 0.070974968
0.47358918 -0.077075452 0.0712929
0.47260621 -0.076795876 0.071610853
0.47105446 -0.07570485 0.072255239
0.4700748 -0.075421035 0.072573259
0.46909645 -0.075135514 0.072891302
0.46755135 -0.074035972 0.073535837
0.46560264 -0.0734547 0.074172087
0.46463025 -0.073161528 0.074490257
0.46309376 -0.072050914 0.075134963
0.46212471 -0.071753472 0.075453199
0.4605929 -0.070636943 0.076097973
0.45962709 -0.070335217 0.076416299
0.45866269 -0.070031814 0.076734632
0.4576996 -0.069726728 0.077052988
0.45673785 -0.06941992 0.077371374
0.45577741 -0.069111422 0.077689789
0.45481825 -0.06880118 0.078008249
0.45386046 -0.068489276 0.07832671
0.45290399 -0.068175666 0.078645207
0.45194885 -0.067860357 0.078963727
0.450995 -0.06754332 0.079282299
0.45004252 -0.067224599 0.079600871
0.44909135 -0.066904195 0.079919472
0.44814152 -0.066582069 0.080238104
0.44719303 -0.066258252 0.080556758
0.44624579 -0.065932699 0.080875464
0.44529992 -0.065605476 0.081194177
0.4443554 -0.065276548 0.081512913
0.44341218 -0.064945929 0.081831679
0.44247025 -0.064613558 0.082150489
0.44152972 -0.064279519 0.082469307
0.44059047 -0.063943796 0.082788154
0.43965259 -0.063606359 0.083107024
0.43871599 -0.063267224 0.083425924
0.43832892 -0.063764192 0.083418019
0.43739429 -0.063422471 0.083736978
0.43646103 -0.063079081 0.084055945
0.43552908 -0.062733993 0.084374942
0.43514401 -0.063228413 0.084367067
0.43421406 -0.062880769 0.084686108
0.43382964 -0.063374333 0.084678248
0.43290165 -0.063024141 0.084997326
0.43251792 -0.063516863 0.084989481
0.4315919 -0.06316407 0.085308619
0.4302848 -0.063300639 0.085619949
0.42990237 -0.063791655 0.085612133
0.42898035 -0.063433804 0.085931331
0.42859858 -0.06392397 0.08592353
0.42767859 -0.06356357 0.086242765
0.42729747 -0.064052895 0.086234979
0.42691636 -0.064542204 0.086227186
0.42653525 -0.065031528 0.0862194
0.42615414 -0.065520838 0.086211607
0.42577302 -0.066010155 0.086203821
0.42539191 -0.066499479 0.086196028
0.4250108 -0.066988789 0.086188242
0.42462969 -0.067478113 0.086180456
0.42424858 -0.06796743 0.086172663
0.42386746 -0.068456739 0.086164877
0.42348635 -0.068946064 0.086157084
0.42310524 -0.06943538 0.086149298
0.42272413 -0.069924697 0.086141504
0.42234302 -0.070414014 0.086133718
0.4219619 -0.070903338 0.086125933
0.42158079 -0.071392648 0.086118139
0.42119968 -0.071881965 0.086110353
0.42081857 -0.072371289 0.08610256
0.42043748 -0.072860599 0.086094774
0.42005634 -0.073349923 0.086086981
0.41967523 -0.07383924 0.086079195
0.41929415 -0.074328549 0.086071409
0.41891304 -0.074817874 0.086063616
0.41853192 -0.075307198 0.08605583
0.41815081 -0.075796507 0.086048037
0.4177697 -0.076285824 0.086040251
0.41738859 -0.076775149 0.086032458
0.41700748 -0.077264458 0.086024672
0.41714537 -0.078629032 0.085689448
0.4167636 -0.079119198 0.085681647
0.41638184 -0.079609364 0.085673846
0.41651708 -0.080977343 0.085338563
0.41613466 -0.081468359 0.085330747
0.4157522 -0.081959382 0.085322931
0.41536978 -0.082450405 0.085315116
0.41498733 -0.08294142 0.0853073
0.4146049 -0.083432443 0.085299484
0.41422248 -0.083923459 0.085291669
0.41384003 -0.084414482 0.085283853
0.41396931 -0.085790128 0.08494845
0.4135862 -0.086281992 0.084940627
0.41320312 -0.086773865 0.084932797
0.41332981 -0.08815293 0.084597319
0.41294602 -0.088645659 0.084589474
0.41256228 -0.089138381 0.084581636
0.41217852 -0.08963111 0.08457379
0.41179475 -0.090123825 0.084565945
0.41191742 -0.091507971 0.084230416
0.41153297 -0.092001542 0.084222555
0.41114855 -0.092495121 0.084214695
0.41076413 -0.092988692 0.084206842
0.41037971 -0.093482263 0.084198982
0.40999529 -0.093975842 0.084191129
0.40961084 -0.094469413 0.084183268
0.4097282 -0.095860362 0.083847627
0.40934312 -0.09635479 0.083839759
0.40895802 -0.096849211 0.083831884
0.40857294 -0.097343631 0.083824016
0.408687 -0.098738849 0.083488308
0.40830123 -0.099234127 0.083480425
0.40791547 -0.099729404 0.083472535
0.40802687 -0.10112802 0.083136775
0.40764046 -0.10162415 0.083128877
0.40725404 -0.10212027 0.083120979
0.40736285 -0.10352232 0.082785137
0.40697575 -0.1040193 0.082777224
0.40658867 -0.10451628 0.082769312
0.4062016 -0.10501324 0.082761407
0.40581453 -0.10551023 0.082753494
0.40542746 -0.1060072 0.082745582
0.40504038 -0.10650418 0.082737669
0.40465328 -0.10700116 0.082729757
0.40300348 -0.10757765 0.083034106
0.50322026 -0.086398266 0.060768418
0.50176626 -0.086723968 0.061077762
0.50074649 -0.086492307 0.061395958
0.49972805 -0.086258955 0.06171418
0.49871093 -0.086023889 0.062032431
0.49828076 -0.086576179 0.06202364
0.49726558 -0.086338535 0.062341951
0.49625176 -0.086099222 0.062660269
0.49523926 -0.085858203 0.062978618
0.49422809 -0.085615478 0.063296989
0.49321824 -0.085371055 0.063615389
0.49220967 -0.085124902 0.063933834
0.4912025 -0.084877074 0.064252287
0.49019665 -0.084627546 0.064570762
0.48861241 -0.0835796 0.065216467
0.4876098 -0.083325788 0.065535039
0.48545188 -0.08147347 0.066508047
0.48445326 -0.081214547 0.066826694
0.48345602 -0.080953956 0.067145348
0.4818837 -0.079890706 0.067791291
0.48088977 -0.07962586 0.068110019
0.47932208 -0.078556605 0.068756074
0.47833145 -0.078287512 0.069074869
0.47734216 -0.078016698 0.069393687
0.47635415 -0.077744164 0.069712557
0.47536752 -0.077469952 0.070031427
0.47438219 -0.077194057 0.070350327
0.47339821 -0.076916441 0.070669256
0.47241554 -0.076637127 0.070988208
0.47086442 -0.075546607 0.071634606
0.46988505 -0.075263046 0.071953632
0.468907 -0.074977785 0.072272681
0.46736252 -0.07387875 0.072919212
0.4654144 -0.073297992 0.073557474
0.46444234 -0.073005073 0.073876642
0.46290648 -0.071894966 0.074523352
0.46193773 -0.071597777 0.074842587
0.46097028 -0.071298905 0.075161852
0.45944104 -0.070180297 0.075808704
0.45847693 -0.069877155 0.076128036
0.45751414 -0.069572315 0.07644739
0.45655268 -0.069265768 0.076766782
0.45559254 -0.06895753 0.077086195
0.45463371 -0.068647534 0.077405661
0.45367622 -0.068335891 0.077725127
0.45272008 -0.068022534 0.078044623
0.45176524 -0.067707479 0.078364149
0.45081168 -0.067390703 0.078683719
0.44985953 -0.067072235 0.079003297
0.44890866 -0.066752084 0.079322904
0.44795915 -0.066430211 0.079642534
0.44701093 -0.066106655 0.079962194
0.44606403 -0.065781355 0.080281898
0.44511846 -0.065454386 0.08060161
0.44417426 -0.065125719 0.080921352
0.44323134 -0.064795353 0.081241123
0.44228974 -0.064463243 0.08156094
0.44134948 -0.064129457 0.081880756
0.44041055 -0.063793987 0.082200609
0.44002214 -0.064292669 0.082192667
0.43908522 -0.063954636 0.082512558
0.43814963 -0.063614897 0.082832478
0.4372153 -0.06327343 0.083152443
0.43628234 -0.062930301 0.083472408
0.43589658 -0.063425578 0.083464526
0.43496561 -0.063079886 0.083784536
0.43403596 -0.062732495 0.084104575
0.43365154 -0.063226059 0.084096715
0.43326712 -0.063719638 0.084088862
0.43234012 -0.063368842 0.084408954
0.43141443 -0.06301631 0.08472909
0.43103132 -0.063508183 0.084721267
0.4297252 -0.063644148 0.08503361
0.4288035 -0.06328655 0.085353807
0.42842174 -0.063776724 0.085346006
0.42803997 -0.06426689 0.085338205
0.4276582 -0.064757057 0.085330404
0.42727643 -0.065247223 0.085322596
0.42689463 -0.065737389 0.085314795
0.42651287 -0.066227555 0.085306995
0.4261311 -0.066717729 0.085299194
0.42574933 -0.067207895 0.085291386
0.42536756 -0.067698061 0.085283585
0.42498577 -0.068188243 0.085275784
0.424604 -0.068678409 0.085267983
0.42422223 -0.069168575 0.085260175
0.42384046 -0.069658741 0.085252374
0.42345867 -0.070148908 0.085244574
0.4230769 -0.070639074 0.085236773
0.42269513 -0.071129248 0.085228965
0.42231336 -0.071619414 0.085221164
0.42193159 -0.07210958 0.085213363
0.42154983 -0.072599746 0.085205562
0.42116803 -0.073089927 0.085197754
0.42078626 -0.073580094 0.085189953
0.42040449 -0.07407026 0.085182153
0.42002273 -0.074560426 0.085174352
0.41964093 -0.075050592 0.085166544
0.41925916 -0.075540766 0.085158743
0.41887739 -0.076030932 0.085150942
0.41849563 -0.076521099 0.085143141
0.41811386 -0.077011265 0.085135333
0.41773209 -0.077501431 0.085127532
0.41735029 -0.077991612 0.085119732
0.41696852 -0.078481779 0.085111931
0.41658676 -0.078971945 0.085104123
0.41672236 -0.080338813 0.084767856
0.41633993 -0.080829836 0.08476004
0.41595748 -0.081320852 0.084752224
0.41557506 -0.081811875 0.084744409
0.4151926 -0.082302898 0.084736593
0.41481018 -0.082793914 0.084728777
0.41442773 -0.083284937 0.084720962
0.4140453 -0.083775952 0.084713146
0.41417494 -0.085150488 0.08437676
0.41379184 -0.08564236 0.084368929
0.41340876 -0.086134233 0.084361099
0.41353577 -0.087512195 0.08402463
0.41315201 -0.088004917 0.084016792
0.41276824 -0.088497646 0.084008947
0.41238451 -0.08899036 0.084001102
0.41200072 -0.08948309 0.083993264
0.41212374 -0.090866134 0.083656736
0.41173932 -0.091359697 0.083648883
0.4113549 -0.091853268 0.083641022
0.41097048 -0.092346847 0.08363317
0.41109017 -0.093734138 0.083296575
0.41070509 -0.094228573 0.083288707
0.41031998 -0.094722994 0.083280832
0.40993491 -0.095217414 0.083272964
0.40954983 -0.095711835 0.083265096
0.40916473 -0.096206263 0.083257221
0.40927979 -0.097599514 0.082920536
0.40889403 -0.098094791 0.082912654
0.4085083 -0.098590061 0.082904771
0.40812254 -0.099085338 0.082896888
0.4082343 -0.10048284 0.082560129
0.40784788 -0.10097898 0.082552232
0.40795767 -0.10237907 0.082215421
0.4075706 -0.10287605 0.082207508
0.40718353 -0.10337302 0.082199596
0.40679646 -0.10387 0.082191683
0.40640935 -0.10436698 0.082183771
0.40602228 -0.10486395 0.082175866
0.40563521 -0.10536093 0.082167953
0.40524814 -0.1058579 0.082160041
0.40486106 -0.10635488 0.082152128
0.40447399 -0.10685186 0.082144216
0.40408692 -0.10734884 0.082136311
0.40282449 -0.10742861 0.08244957
0.50199825 -0.086002447 0.060432874
0.50156611 -0.086557284 0.060424041
0.50054663 -0.086325884 0.060743239
0.49952847 -0.086092785 0.061062463
0.49851164 -0.08585798 0.061381716
0.49808148 -0.086410269 0.061372925
0.49706662 -0.086172879 0.061692242
0.4960531 -0.085933819 0.062011562
0.49504092 -0.085693054 0.062330909
0.49403006 -0.08545059 0.062650286
0.4930205 -0.085206419 0.062969685
0.49201226 -0.084960528 0.063289136
0.49100539 -0.084712945 0.063608594
0.48999983 -0.084463678 0.063928075
0.48841622 -0.083416246 0.064575776
0.48683521 -0.082365386 0.065223552
0.48525691 -0.081311136 0.065871365
0.48425859 -0.081052467 0.066191025
0.48326164 -0.080792136 0.066510677
0.48168996 -0.079729393 0.067158625
0.48069635 -0.079464808 0.067478351
0.47912925 -0.07839606 0.068126418
0.47813895 -0.07812722 0.068446212
0.47714996 -0.077856667 0.068766035
0.47616225 -0.077584386 0.069085903
0.47517592 -0.077310428 0.069405779
0.47419089 -0.077034786 0.069725685
0.47320721 -0.076757431 0.070045613
0.47222486 -0.07647837 0.07036557
0.47067434 -0.075388364 0.071013972
0.4696953 -0.075105056 0.071333997
0.46871758 -0.074820049 0.071654044
0.4671737 -0.073721528 0.072302587
0.4652262 -0.073141284 0.072942853
0.46425444 -0.072848618 0.073263027
0.46328399 -0.072554201 0.073583253
0.46175075 -0.07144209 0.074231982
0.4607836 -0.071143471 0.074552253
0.45981783 -0.07084313 0.074872546
0.45829117 -0.069722489 0.075521432
0.45732871 -0.069417909 0.075841799
0.45636755 -0.069111615 0.076162189
0.45540771 -0.068803631 0.076482609
0.45444918 -0.068493895 0.076803073
0.45349202 -0.068182498 0.077123545
0.45253617 -0.067869402 0.077444047
0.45158163 -0.067554608 0.077764571
0.4506284 -0.067238078 0.078085147
0.44967651 -0.066919871 0.078405723
0.44872597 -0.066599973 0.078726329
0.44777676 -0.066278361 0.079046965
0.44682887 -0.065955058 0.07936763
0.44588226 -0.065630011 0.07968834
0.44493702 -0.065303303 0.080009051
0.44399309 -0.064974882 0.080329798
0.4430505 -0.064644776 0.080650568
0.4421092 -0.06431292 0.080971383
0.44116926 -0.063979395 0.081292205
0.44023064 -0.063644178 0.081613056
0.43984222 -0.06414286 0.081605121
0.4389056 -0.063805081 0.081926011
0.43797031 -0.063465603 0.082246937
0.43703628 -0.063124396 0.0825679
0.43610364 -0.062781513 0.082888871
0.43571788 -0.06327679 0.082880989
0.43478721 -0.062931351 0.083202004
0.43440214 -0.063425772 0.083194129
0.43347347 -0.063077785 0.08351519
0.43308905 -0.063571364 0.083507329
0.43216234 -0.063220821 0.083828427
0.43177858 -0.063713551 0.083820581
0.43085384 -0.063360415 0.084141739
0.42954805 -0.063496642 0.084455088
0.4291656 -0.063987665 0.084447272
0.42824489 -0.063629471 0.084768482
0.42786312 -0.064119637 0.084760681
0.42748132 -0.064609803 0.08475288
0.42709956 -0.06509997 0.084745079
0.42671779 -0.065590136 0.084737279
0.42633602 -0.066080309 0.08472947
0.42595425 -0.066570476 0.08472167
0.42557248 -0.067060642 0.084713869
0.42519069 -0.067550808 0.084706068
0.42480892 -0.068040989 0.08469826
0.42442715 -0.068531156 0.084690459
0.42404538 -0.069021322 0.084682658
0.42366359 -0.069511488 0.08467485
0.42328182 -0.070001662 0.084667049
0.42290005 -0.070491828 0.084659249
0.42251828 -0.070981994 0.084651448
0.42213652 -0.071472161 0.084643647
0.42175475 -0.071962327 0.084635839
0.42137295 -0.072452493 0.084628038
0.42099118 -0.072942674 0.084620237
0.42060941 -0.07343284 0.084612429
0.42022765 -0.073923007 0.084604628
0.41984585 -0.07441318 0.084596828
0.41946408 -0.074903347 0.084589027
0.41908231 -0.075393513 0.084581226
0.41870055 -0.075883679 0.084573418
0.41831878 -0.076373845 0.084565617
0.41793701 -0.076864012 0.084557816
0.41755521 -0.077354178 0.084550016
0.41717345 -0.077844359 0.084542207
0.41731009 -0.079209268 0.084204972
0.41692764 -0.079700291 0.084197149
0.41654521 -0.080191307 0.084189333
0.41616276 -0.08068233 0.084181517
0.41578034 -0.081173345 0.084173702
0.41539788 -0.081664369 0.084165886
0.41501546 -0.082155392 0.08415807
0.41463301 -0.082646407 0.084150255
0.41476366 -0.084018983 0.083812892
0.41438058 -0.084510855 0.083805062
0.41399747 -0.085002728 0.083797231
0.41361436 -0.0854946 0.083789401
0.41374177 -0.08687146 0.083451949
0.413358 -0.087364182 0.083444104
0.41297424 -0.087856896 0.083436266
0.41259047 -0.088349625 0.08342842
0.41271451 -0.08973071 0.083090916
0.41233009 -0.090224281 0.083083063
0.41194567 -0.09071786 0.083075203
0.41156125 -0.091211423 0.08306735
0.4111768 -0.091704994 0.08305949
0.41129687 -0.09309119 0.082721911
0.41091177 -0.09358561 0.082714044
0.41052669 -0.094080038 0.082706168
0.41014162 -0.094574459 0.0826983
0.40975651 -0.095068879 0.082690433
0.40987259 -0.096460178 0.082352765
0.40948686 -0.096955456 0.082344882
0.4091011 -0.097450733 0.082336999
0.40871534 -0.097946011 0.082329117
0.40882811 -0.099341556 0.081991389
0.40844169 -0.099837676 0.081983492
0.40805528 -0.1003338 0.081975594
0.40766886 -0.10082994 0.081967697
0.40777835 -0.10222977 0.08162988
0.40739128 -0.10272675 0.081621967
0.40700421 -0.10322372 0.081614055
0.40661713 -0.1037207 0.081606142
0.40623006 -0.10421769 0.08159823
0.40584299 -0.10471465 0.081590325
0.40545592 -0.10521164 0.081582412
0.40506884 -0.10570861 0.0815745
0.40468174 -0.10620559 0.081566587
0.40429467 -0.10670257 0.081558675
0.4039076 -0.10719953 0.08155077
0.40313345 -0.10819349 0.081534944
0.50179803 -0.085835762 0.059779152
0.50077826 -0.085605465 0.060099337
0.50034672 -0.08615946 0.060090519
0.49932891 -0.085926615 0.060410749
0.49831238 -0.085692063 0.060731005
0.49788222 -0.086244352 0.060722213
0.49686766 -0.086007223 0.061042532
0.49585444 -0.085768417 0.061362855
0.49484256 -0.085527912 0.061683204
0.49383202 -0.085285701 0.062003579
0.4928228 -0.085041784 0.062323984
0.49181482 -0.084796146 0.062644437
0.49080825 -0.084548824 0.062964894
0.48922327 -0.083504461 0.063614562
0.48822001 -0.083252892 0.063935094
0.48663962 -0.082202539 0.064584874
0.48506194 -0.081148803 0.065234691
0.48406392 -0.080890395 0.065555349
0.4830673 -0.08063031 0.065876007
0.48149621 -0.079568081 0.066525958
0.4805029 -0.079303749 0.066846691
0.47893643 -0.078235514 0.067496762
0.47794643 -0.077966928 0.067817554
0.47695777 -0.077696629 0.068138383
0.47597036 -0.077424608 0.068459257
0.47498432 -0.077150911 0.068780132
0.47399962 -0.076875523 0.069101036
0.47301623 -0.076598421 0.069421969
0.47203419 -0.076319613 0.069742933
0.47048429 -0.075230114 0.070393339
0.46950555 -0.074947067 0.070714362
0.46852812 -0.07466232 0.071035422
0.46698487 -0.073564306 0.071685962
0.46601075 -0.07327529 0.072007082
0.46406654 -0.072692163 0.072649412
0.46309638 -0.072397999 0.072970636
0.46212757 -0.072102182 0.073291868
0.46059695 -0.070988037 0.073942646
0.45963144 -0.070687957 0.074263945
0.45866725 -0.070386149 0.074585289
0.45770442 -0.070082672 0.07490664
0.45618239 -0.068957463 0.075557597
0.45522287 -0.068649732 0.075879015
0.45426464 -0.068340249 0.076200485
0.45330778 -0.068029113 0.076521963
0.45235226 -0.067716271 0.076843463
0.45139804 -0.06740173 0.077164993
0.45044509 -0.06708546 0.077486567
0.44949353 -0.066767506 0.077808149
0.44854328 -0.066447869 0.078129761
0.44759437 -0.066126511 0.078451395
0.44664678 -0.065803461 0.078773066
0.4457005 -0.065478675 0.079094775
0.44475555 -0.065152213 0.079416491
0.44381195 -0.064824052 0.079738237
0.44286963 -0.0644942 0.080060013
0.44192865 -0.064162605 0.080381833
0.44098902 -0.063829333 0.080703661
0.44005072 -0.063494369 0.081025511
0.43966231 -0.063993052 0.081017576
0.43872598 -0.063655533 0.081339471
0.43779099 -0.063316301 0.081661388
0.43685728 -0.062975354 0.081983365
0.43647087 -0.063471474 0.081975468
0.43553919 -0.063128009 0.082297452
0.43460882 -0.062782824 0.082619466
0.43422374 -0.063277245 0.082611598
0.43329537 -0.062929511 0.082933657
0.43291095 -0.06342309 0.082925797
0.43198457 -0.063072808 0.083247893
0.43160081 -0.06356553 0.083240055
0.43067637 -0.063212655 0.08356221
0.43029329 -0.063704528 0.08355438
0.42898843 -0.063840158 0.083868742
0.42806804 -0.063482217 0.084190965
0.42768624 -0.063972384 0.084183164
0.42730448 -0.06446255 0.084175363
0.42692271 -0.064952724 0.084167555
0.42654094 -0.06544289 0.084159754
0.42615917 -0.065933056 0.084151953
0.42577738 -0.066423222 0.084144153
0.42539561 -0.066913389 0.084136344
0.42501384 -0.067403555 0.084128544
0.42463207 -0.067893736 0.084120743
0.42425027 -0.068383902 0.084112942
0.42386851 -0.068874069 0.084105134
0.42348674 -0.069364242 0.084097333
0.42310497 -0.069854409 0.084089532
0.4227232 -0.070344575 0.084081732
0.42234144 -0.070834741 0.084073924
0.42195964 -0.071324907 0.084066123
0.42157787 -0.071815073 0.084058322
0.4211961 -0.072305247 0.084050521
0.42081434 -0.072795421 0.084042713
0.42043254 -0.073285587 0.084034912
0.42005077 -0.073775761 0.084027112
0.419669 -0.074265927 0.084019311
0.41928723 -0.074756093 0.084011503
0.41890547 -0.07524626 0.084003702
0.4185237 -0.075736426 0.083995901
0.4181419 -0.076226592 0.0839881
0.41776013 -0.076716766 0.083980292
0.41737837 -0.077206932 0.083972491
0.4169966 -0.077697113 0.083964691
0.41713291 -0.079061761 0.083626442
0.41675046 -0.079552785 0.083618626
0.41636804 -0.0800438 0.08361081
0.41598561 -0.080534823 0.083602995
0.41560316 -0.081025839 0.083595179
0.41522074 -0.081516862 0.083587363
0.4153524 -0.082887478 0.083249025
0.4149693 -0.083379351 0.083241194
