# .PCD v0.7 - Point Cloud Data file format
VERSION 0.7
FIELDS x y z
SIZE 4 4 4
TYPE F F F
COUNT 1 1 1
WIDTH 1348
HEIGHT 1
VIEWPOINT 0 0 0 1 0 0 0
POINTS 1348
DATA ascii
0.42394581 0.028823633 0.010116461
0.42358261 0.02835729 0.010109037
0.42321938 0.027890949 0.010101615
0.42285615 0.027424606 0.010094191
0.42249295 0.026958264 0.010086767
0.42212972 0.026491921 0.010079344
0.42176652 0.026025591 0.010071921
0.42140332 0.025559248 0.010064498
0.42104009 0.025092907 0.010057074
0.42012489 0.025358116 0.010531844
0.41976234 0.024892632 0.010524434
0.41884911 0.025160436 0.010999266
0.41848722 0.024695797 0.01099187
0.41757599 0.024966117 0.011466721
0.41721478 0.024502335 0.011459338
0.41685355 0.024038544 0.011451956
0.41649231 0.023574751 0.011444573
0.41613108 0.023110969 0.011437191
0.41576985 0.022647176 0.011429807
0.41540864 0.022183396 0.011422425
0.41504741 0.021719603 0.011415042
0.41468617 0.02125581 0.011407659
0.42919698 0.045999277 0.013139114
0.42998686 0.044134118 0.012166292
0.43020052 0.042968821 0.011676194
0.42983994 0.042505886 0.011668826
0.42947939 0.042042945 0.011661456
0.42969036 0.040874235 0.011171297
0.42932916 0.040410448 0.011163915
0.42896792 0.03994666 0.011156532
0.42860669 0.039482877 0.011149149
0.42881438 0.038309909 0.010658923
0.42845249 0.037845269 0.010651526
0.4280906 0.037380632 0.010644129
0.42772871 0.036915991 0.010636734
0.4279331 0.035738736 0.010146418
0.42757055 0.035273246 0.010139007
0.42720801 0.034807757 0.010131598
0.42684546 0.034342267 0.010124188
0.42648289 0.033876777 0.010116778
0.42612034 0.033411287 0.010109369
0.4257578 0.032945793 0.010101958
0.42539525 0.032480311 0.010094549
0.42503268 0.032014821 0.010087139
0.42467013 0.031549323 0.010079729
0.42430758 0.031083839 0.01007232
0.42394501 0.030618342 0.010064909
0.42358246 0.030152857 0.0100575
0.42321992 0.029687373 0.01005009
0.42285737 0.029221877 0.01004268
0.42249483 0.028756393 0.010035271
0.42213225 0.028290896 0.01002786
0.42176971 0.027825411 0.010020451
0.42140716 0.027359914 0.010013041
0.42104462 0.02689443 0.010005631
0.42068204 0.026428934 0.0099982219
0.4203195 0.02596345 0.0099908123
0.41940525 0.026229294 0.01046662
0.41904336 0.025764655 0.010459224
0.41813111 0.026033016 0.010935051
0.41776988 0.025569236 0.010927669
0.41685963 0.025840145 0.011403536
0.41649908 0.02537721 0.011396167
0.4161385 0.024914276 0.011388798
0.41577795 0.02445134 0.011381429
0.41541737 0.023988405 0.01137406
0.41505682 0.023525469 0.011366691
0.41469628 0.023062535 0.011359322
0.4143357 0.022599587 0.011351952
0.4290309 0.046137579 0.012596692
0.42982015 0.044272933 0.011621864
0.42946026 0.043810848 0.011614508
0.42910033 0.043348763 0.011607152
0.42931235 0.042182017 0.011116018
0.4289518 0.041719079 0.011108648
0.42859122 0.041256145 0.011101279
0.42823067 0.040793203 0.01109391
0.42843935 0.039622203 0.010602707
0.42807811 0.039158408 0.010595324
0.42771691 0.038694624 0.010587942
0.42735568 0.038230836 0.010580559
0.42756104 0.037055574 0.010089288
0.42719916 0.036590938 0.010081892
0.42683727 0.036126297 0.010074495
0.42647538 0.03566166 0.0100671
0.42611349 0.03519702 0.010059703
0.4257516 0.034732379 0.010052308
0.42538971 0.034267742 0.010044911
0.42502782 0.033803102 0.010037514
0.42466593 0.033338465 0.010030119
0.42430404 0.032873824 0.010022722
0.42394215 0.03240918 0.010015326
0.42358026 0.031944543 0.01000793
0.42321837 0.031479903 0.010000533
0.42285648 0.031015266 0.0099931369
0.42249459 0.030550627 0.0099857412
0.4221327 0.030085988 0.0099783447
0.42177081 0.02962135 0.0099709481
0.42140892 0.029156709 0.0099635525
0.42104703 0.02869207 0.0099561559
0.42068514 0.028227432 0.0099487593
0.42032325 0.027762793 0.0099413637
0.41996136 0.027298154 0.0099339671
0.41959947 0.026833516 0.0099265715
0.41868624 0.027099919 0.010403374
0.41832501 0.026636137 0.010395992
0.41741374 0.026905099 0.010872836
0.41705319 0.026442165 0.010865467
0.41614389 0.026713664 0.011342351
0.415784 0.026251575 0.011334996
0.41542411 0.025789497 0.01132764
0.41506419 0.025327407 0.011320285
0.41470429 0.024865318 0.011312929
0.4143444 0.024403241 0.011305573
0.41398448 0.023941152 0.011298218
0.41362458 0.023479061 0.011290862
0.42807353 0.048136577 0.013031015
0.42886478 0.046275884 0.012054264
0.42907983 0.045113608 0.01156217
0.42872059 0.044652369 0.011554828
0.42893362 0.043487579 0.011062717
0.42857373 0.04302549 0.011055361
0.4282138 0.042563409 0.011048006
0.42842421 0.041395213 0.010555848
0.42806363 0.040932275 0.010548478
0.42770308 0.040469337 0.010541108
0.4273425 0.040006403 0.01053374
0.42698193 0.039543461 0.01052637
0.42718834 0.038370162 0.010034123
0.4268271 0.037906375 0.010026741
0.4264659 0.037442587 0.010019358
0.42610466 0.0369788 0.010011976
0.42574343 0.036515005 0.010004593
0.4253822 0.036051221 0.0099972105
0.42502099 0.035587434 0.0099898279
0.42465976 0.035123646 0.0099824453
0.42429852 0.034659859 0.0099750618
0.42393729 0.034196071 0.0099676792
0.42357606 0.03373228 0.0099602966
0.42321485 0.033268493 0.009952914
0.42285362 0.032804709 0.0099455314
0.42249238 0.032340918 0.0099381488
0.42213115 0.031877127 0.0099307662
0.42176995 0.031413343 0.0099233836
0.42140871 0.030949552 0.009916001
0.42104748 0.03048577 0.0099086184
0.42068624 0.030021977 0.0099012349
0.42032504 0.029558184 0.0098938523
0.41996381 0.029094404 0.0098864697
0.41960257 0.028630611 0.0098790871
0.41924134 0.028166829 0.0098717045
0.41888013 0.027703036 0.0098643219
0.41796783 0.027970038 0.010342142
0.41760728 0.027507104 0.010334773
0.41669697 0.027776659 0.010812627
0.41633707 0.02731457 0.010805272
0.41542876 0.027586671 0.011283172
0.41506952 0.027125439 0.011275831
0.41471028 0.026664207 0.011268488
0.41435105 0.026202975 0.011261147
0.41399181 0.025741732 0.011253804
0.41417766 0.024542056 0.010761138
0.41381776 0.024079967 0.010753782
0.41345787 0.023617877 0.010746426
0.42790803 0.048274372 0.012490593
0.42869866 0.046414185 0.011511834
0.42891341 0.045252167 0.011018738
0.42855418 0.044790931 0.011011397
0.42819494 0.044329699 0.011004054
0.42840698 0.043164305 0.010510926
0.42804709 0.042702224 0.010503571
0.4276872 0.042240135 0.010496215
0.42732731 0.04177805 0.010488859
0.42753604 0.04060841 0.0099956701
0.42717549 0.040145475 0.0099883005
0.42681491 0.039682534 0.0099809319
0.42645434 0.039219599 0.0099735623
0.42609379 0.038756661 0.0099661937
0.42573321 0.038293727 0.0099588241
0.42537266 0.037830785 0.0099514555
0.42501208 0.037367851 0.009944086
0.42465153 0.036904916 0.0099367173
0.42429096 0.036441974 0.0099293478
0.42393041 0.03597904 0.0099219782
0.42356983 0.035516106 0.0099146096
0.42320928 0.035053164 0.00990724
0.4228487 0.034590229 0.0098998714
0.42248815 0.034127291 0.0098925019
0.42212757 0.033664357 0.0098851332
0.42176703 0.033201423 0.0098777637
0.42140645 0.032738473 0.0098703941
0.42104587 0.032275539 0.0098630255
0.42068532 0.031812605 0.009855656
0.42032477 0.03134967 0.0098482873
0.41996419 0.030886734 0.0098409178
0.41960365 0.0304238 0.0098335491
0.41924307 0.029960863 0.0098261796
0.41888249 0.029497916 0.009818811
0.41852194 0.029034982 0.0098114414
0.41816136 0.028572045 0.0098040719
0.41725007 0.02883964 0.010282902
0.41689014 0.028377552 0.010275546
0.41598085 0.028647706 0.010754424
0.41562161 0.028186474 0.010747083
0.41526234 0.027725231 0.01073974
0.4149031 0.027263999 0.010732398
0.41454387 0.026802767 0.010725057
0.41418463 0.026341535 0.010717714
0.41382539 0.025880292 0.010710372
0.41346616 0.02541906 0.01070303
0.41310692 0.024957828 0.010695688
0.42752481 0.04956964 0.01244418
0.42774254 0.048412163 0.011950171
0.42795891 0.047252983 0.011456134
0.42817399 0.046092104 0.010962076
0.42781541 0.045631725 0.010954749
0.42745683 0.045171339 0.01094742
0.42766929 0.044007022 0.01045328
0.42731005 0.04354579 0.010445938
0.42752048 0.042378951 0.0099517787
0.42716056 0.041916866 0.0099444231
0.42680067 0.041454777 0.0099370675
0.42644078 0.040992692 0.0099297119
0.42608085 0.040530611 0.0099223563
0.42572096 0.040068518 0.0099150008
0.42536107 0.039606437 0.0099076452
0.42500117 0.039144348 0.0099002896
0.42464125 0.038682263 0.009892934
0.42428136 0.038220175 0.0098855784
0.42392147 0.03775809 0.0098782228
0.42356154 0.037296008 0.0098708672
0.42320165 0.036833916 0.0098635117
0.42284176 0.036371835 0.0098561561
0.42248186 0.035909746 0.0098488005
0.42212194 0.035447661 0.0098414449
0.42176205 0.034985572 0.0098340893
0.42140216 0.034523495 0.0098267337
0.42104226 0.034061406 0.0098193781
0.42068234 0.033599313 0.0098120226
0.42032245 0.033137225 0.009804667
0.41996256 0.032675147 0.0097973114
0.41960263 0.032213058 0.0097899558
0.41924274 0.03175097 0.0097826002
0.41888285 0.031288892 0.0097752446
0.41852295 0.030826801 0.009767889
0.41816303 0.030364713 0.0097605335
0.41780314 0.029902624 0.0097531779
0.41744325 0.029440546 0.0097458223
0.41617367 0.029247498 0.010218334
0.41581443 0.028786266 0.010210992
0.41490668 0.02905789 0.010690922
0.4145481 0.028597515 0.010683594
0.41418952 0.028137129 0.010676266
0.41383097 0.027676744 0.010668937
0.41347238 0.027216358 0.010661609
0.4131138 0.026755972 0.01065428
0.41329974 0.02555762 0.010159598
0.41239667 0.025835212 0.010639623
0.42735964 0.049707178 0.011904755
0.42757705 0.048549954 0.011409748
0.42779312 0.047391031 0.010914708
0.42743519 0.046931501 0.010907393
0.42707729 0.046471968 0.010900078
0.42729071 0.04530964 0.010404991
0.42693216 0.044849258 0.010397662
0.42714363 0.043684348 0.0099025052
0.4267844 0.043223109 0.0098951636
0.42642516 0.042761873 0.009887821
0.42606592 0.042300642 0.0098804794
0.42570668 0.041839402 0.0098731369
0.42534745 0.04137817 0.0098657953
0.42498821 0.040916935 0.0098584527
0.42462897 0.040455703 0.0098511111
0.42426974 0.039994463 0.0098437695
0.4239105 0.039533231 0.0098364269
0.42355123 0.039071996 0.0098290853
0.42319199 0.038610756 0.0098217428
0.42283276 0.038149524 0.0098144012
0.42247352 0.037688289 0.0098070586
0.42211428 0.037227057 0.009799717
0.42175505 0.036765818 0.0097923744
0.42139581 0.036304586 0.0097850328
0.42103657 0.03584335 0.0097776903
0.42067733 0.035382118 0.0097703487
0.4203181 0.034920886 0.0097630071
0.41995886 0.034459643 0.0097556645
0.41959962 0.033998411 0.0097483229
0.41924039 0.033537179 0.0097409803
0.41888115 0.033075936 0.0097336387
0.41852191 0.032614704 0.0097262962
0.41816267 0.032153472 0.0097189546
0.41780344 0.03169224 0.009711612
0.4174442 0.031230995 0.0097042704
0.41708496 0.030769764 0.0096969279
0.41672572 0.030308532 0.0096895862
0.41636646 0.029847289 0.0096822437
0.41545773 0.030116966 0.010163151
0.41509914 0.02965658 0.010155822
0.41419241 0.029928774 0.010636739
0.41383451 0.029469244 0.010629425
0.41347659 0.029009705 0.01062211
0.41311869 0.028550176 0.010614795
0.41276076 0.028090648 0.01060748
0.41240287 0.027631108 0.010600165
0.41204494 0.02717158 0.01059285
0.41078627 0.026991893 0.011066582
0.42719445 0.049844712 0.011365335
0.42741153 0.048687749 0.010869326
0.42705429 0.048229065 0.010862025
0.42669705 0.047770381 0.010854723
0.4269115 0.046610016 0.010358653
0.42655358 0.046150483 0.010351337
0.42676604 0.044987559 0.0098552331
0.42640746 0.044527173 0.0098479046
0.42604887 0.044066794 0.0098405769
0.42569032 0.043606408 0.0098332483
0.42533174 0.043146022 0.0098259198
0.42497316 0.042685643 0.0098185912
0.42461458 0.042225257 0.0098112626
0.424256 0.04176487 0.009803934
0.42389745 0.041304491 0.0097966054
0.42353886 0.040844105 0.0097892769
0.42318028 0.040383719 0.0097819483
0.4228217 0.03992334 0.0097746197
0.42246312 0.039462954 0.0097672911
0.42210457 0.039002568 0.0097599626
0.42174599 0.038542185 0.0097526349
0.4213874 0.038081802 0.0097453063
0.42102882 0.037621416 0.0097379778
0.42067024 0.037161034 0.0097306492
0.42031169 0.036700647 0.0097233206
0.41995311 0.036240261 0.009715992
0.41959453 0.035779878 0.0097086634
0.41923594 0.035319492 0.0097013349
0.41887736 0.034859117 0.0096940063
0.41851881 0.034398731 0.0096866777
0.41816023 0.033938345 0.0096793491
0.41780165 0.033477958 0.0096720206
0.41744307 0.033017572 0.009664692
0.41708449 0.032557186 0.0096573634
0.41672593 0.032096814 0.0096500358
0.41636735 0.031636428 0.0096427072
0.41600877 0.031176042 0.0096353786
0.41565019 0.030715656 0.00962805
0.41474244 0.03098589 0.010109944
0.41438454 0.030526362 0.01010263
0.41347879 0.030799143 0.010584571
0.41312152 0.030340461 0.01057727
0.41276428 0.029881779 0.010569968
0.41240704 0.029423097 0.010562667
0.41204977 0.028964413 0.010555365
0.41169253 0.028505731 0.010548064
0.41133529 0.028047049 0.010540763
0.41152123 0.026850088 0.010044109
0.42623639 0.051834464 0.011812628
0.42702925 0.04998225 0.010825916
0.42667267 0.049524419 0.010818629
0.42631608 0.049066581 0.01081134
0.42653155 0.047908176 0.010314301
0.42617428 0.047449492 0.010306999
0.42638779 0.046288531 0.0098099122
0.42602986 0.045828998 0.0098025966
0.42567194 0.045369461 0.009795282
0.42531404 0.044909935 0.0097879674
0.42495611 0.044450399 0.0097806519
0.42459822 0.043990865 0.0097733373
0.42424029 0.043531332 0.0097660227
0.4238824 0.043071799 0.0097587071
0.42352447 0.04261227 0.0097513925
0.42316657 0.042152736 0.0097440779
0.42280865 0.041693199 0.0097367624
0.42245072 0.041233666 0.0097294478
0.42209283 0.040774133 0.0097221322
0.4217349 0.040314596 0.0097148176
0.421377 0.03985507 0.009707503
0.42101908 0.039395537 0.0097001875
0.42066118 0.038936 0.0096928729
0.42030326 0.038476467 0.0096855573
0.41994533 0.038016934 0.0096782427
0.41958743 0.037557404 0.0096709281
0.41922951 0.037097871 0.0096636126
0.41887161 0.036638338 0.009656298
0.41851369 0.036178809 0.0096489834
0.41815579 0.035719268 0.0096416678
0.41779786 0.035259739 0.0096343532
0.41743994 0.034800198 0.0096270377
0.41708204 0.034340672 0.0096197231
0.41672415 0.033881143 0.0096124085
0.41636622 0.033421602 0.0096050929
0.41600829 0.032962076 0.0095977783
0.4156504 0.032502536 0.0095904637
0.41529247 0.032043006 0.0095831482
0.41493458 0.031583477 0.0095758336
0.41402778 0.031854302 0.010058751
0.41367054 0.031395618 0.01005145
0.41276577 0.031669006 0.010534402
0.41240916 0.031211168 0.010527113
0.4120526 0.030753342 0.010519826
0.41169599 0.030295506 0.010512538
0.4113394 0.029837681 0.010505251
0.41098282 0.029379845 0.010497962
0.41062623 0.02892202 0.010490675
0.425852 0.053123686 0.011773158
0.42607182 0.051971491 0.011275209
0.42629027 0.050817586 0.010777234
0.42650747 0.049661957 0.010279209
0.42615089 0.049204119 0.010271922
0.4257943 0.048746288 0.010264633
0.42600879 0.047587287 0.0097665703
0.42565155 0.047128603 0.0097592687
0.42529431 0.046669923 0.0097519672
0.42493704 0.046211239 0.0097446656
0.4245798 0.045752555 0.009737364
0.42422256 0.045293875 0.0097300634
0.42386529 0.044835191 0.0097227618
0.42350805 0.044376507 0.0097154602
0.42315081 0.043917831 0.0097081587
0.42279354 0.043459151 0.0097008571
0.4224363 0.043000467 0.0096935565
0.42207906 0.042541783 0.0096862549
0.42172179 0.042083103 0.0096789533
0.42136455 0.041624419 0.0096716518
0.42100731 0.041165739 0.0096643502
0.42065004 0.040707055 0.0096570486
0.42029279 0.040248372 0.009649748
0.41993555 0.039789692 0.0096424464
0.41957828 0.039331008 0.0096351448
0.41922104 0.038872324 0.0096278433
0.4188638 0.038413644 0.0096205417
0.41850653 0.03795496 0.0096132401
0.41814929 0.037496284 0.0096059395
0.41779205 0.0370376 0.0095986379
0.41743481 0.03657892 0.0095913364
0.41707754 0.036120236 0.0095840348
0.4167203 0.035661556 0.0095767332
0.41636306 0.035202872 0.0095694326
0.41600579 0.034744188 0.009562131
0.41564855 0.034285508 0.0095548294
0.41529131 0.033826824 0.0095475279
0.41493404 0.03336814 0.0095402263
0.4145768 0.03290946 0.0095329247
0.41421956 0.032450777 0.0095256232
0.41331375 0.032722201 0.010009559
0.41295716 0.032264367 0.01000227
0.41205332 0.032538388 0.010486261
0.41169739 0.032081407 0.010478987
0.41134146 0.031624429 0.010471713
0.41098553 0.031167449 0.010464438
0.4106296 0.030710459 0.010457164
0.41027367 0.030253479 0.010449889
0.40991774 0.029796502 0.010442615
0.42511299 0.05395627 0.011728439
0.42590722 0.052108515 0.010737797
0.42555198 0.051652383 0.010730536
0.42576948 0.05049789 0.010231544
0.42541355 0.050040908 0.01022427
0.42505762 0.049583931 0.010216995
0.42527252 0.048425995 0.0097179199
0.42491594 0.047968164 0.0097106323
0.42455935 0.047510333 0.0097033437
0.42420277 0.047052503 0.0096960561
0.42441431 0.04589035 0.0091969417
0.42405707 0.045431666 0.0091896411
0.4236998 0.044972982 0.0091823395
0.42334256 0.044514302 0.009175038
0.42298532 0.044055626 0.0091677364
0.42262805 0.043596942 0.0091604348
0.4222708 0.043138258 0.0091531342
0.42191356 0.042679578 0.0091458326
0.42155629 0.042220894 0.0091385311
0.42119905 0.041762214 0.0091312295
0.42084181 0.04130353 0.0091239279
0.42048454 0.040844847 0.0091166263
0.4201273 0.040386166 0.0091093257
0.41977006 0.039927483 0.0091020241
0.41941279 0.039468799 0.0090947226
0.41905555 0.039010119 0.009087421
0.41869831 0.038551435 0.0090801194
0.41834104 0.038092755 0.0090728179
0.4179838 0.037634075 0.0090655172
0.41762656 0.037175395 0.0090582157
0.41726932 0.036716711 0.0090509141
0.41691205 0.036258031 0.0090436125
0.41655481 0.035799347 0.0090363109
0.41619757 0.035340663 0.0090290094
0.4158403 0.034881983 0.0090217087
0.41548306 0.034423299 0.0090144072
0.41512582 0.033964615 0.0090071056
0.41421834 0.034233239 0.0094919959
0.41386172 0.0337754 0.0094847083
0.41350514 0.033317577 0.0094774207
0.41260028 0.033589624 0.0099623939
0.41224435 0.033132646 0.0099551203
0.41188842 0.032675669 0.0099478457
0.41153249 0.032218687 0.0099405712
0.41117659 0.03176171 0.0099332966
0.41082066 0.031304732 0.009926023
0.41046473 0.030847739 0.0099187484
0.4101088 0.03039076 0.0099114738
0.40975288 0.029933782 0.0099041993
0.42494902 0.054092783 0.011193027
0.42516887 0.052941944 0.010693085
0.42538741 0.05178941 0.010193117
0.42503214 0.051333282 0.010185856
0.42467687 0.050877154 0.010178595
0.42489275 0.049721211 0.0096785724
0.42453682 0.049264234 0.0096712979
0.4241809 0.048807248 0.0096640242
0.42382497 0.048350271 0.0096567497
0.42403758 0.04719004 0.0091566369
0.42368099 0.04673221 0.0091493493
0.42332441 0.046274379 0.0091420617
0.42296782 0.045816548 0.0091347741
0.42261124 0.045358717 0.0091274856
0.42225465 0.044900887 0.009120198
0.42189807 0.044443056 0.0091129104
0.42154148 0.043985225 0.0091056218
0.4211849 0.043527395 0.0090983342
0.42082828 0.043069564 0.0090910466
0.4204717 0.042611726 0.009083759
0.42011511 0.042153895 0.0090764705
0.41975853 0.041696064 0.0090691829
0.41940194 0.041238233 0.0090618953
0.41904536 0.040780403 0.0090546068
0.41868877 0.040322572 0.0090473192
0.41833219 0.039864741 0.0090400316
0.4179756 0.039406911 0.009032744
0.41761902 0.03894908 0.0090254555
0.41726243 0.038491249 0.0090181679
0.41690582 0.038033418 0.0090108803
0.41654924 0.037575584 0.0090035917
0.41619265 0.037117761 0.0089963041
0.41583607 0.036659922 0.0089890165
0.41547948 0.036202099 0.0089817289
0.4151229 0.035744261 0.0089744404
0.41476631 0.035286438 0.0089671528
0.41440973 0.0348286 0.0089598652
0.41350317 0.035097845 0.0094457949
0.41314724 0.034640867 0.0094385203
0.41279131 0.034183886 0.0094312457
0.41188747 0.034456506 0.0099172071
0.41153219 0.034000371 0.0099099465
0.41117695 0.03354425 0.0099026859
0.41082168 0.033088118 0.0098954253
0.4104664 0.032631986 0.0098881647
0.41011116 0.032175861 0.0098809041
0.40975589 0.031719729 0.0098736426
0.40940061 0.031263597 0.009866382
0.42478508 0.0542293 0.010657614
0.4250046 0.053078715 0.010156676
0.42465001 0.05262344 0.010149429
0.42429543 0.052168164 0.010142182
0.4245123 0.051014181 0.0096411826
0.42415705 0.050558046 0.009633922
0.42380178 0.050101921 0.0096266614
0.42344654 0.049645793 0.0096194008
0.42309126 0.049189661 0.0096121393
0.42330417 0.04803057 0.0091110598
0.42294824 0.047573593 0.0091037853
0.42259231 0.047116615 0.0090965107
0.42223638 0.04665963 0.0090892371
0.42188048 0.046202648 0.0090819625
0.42152455 0.045745671 0.009074688
0.42116863 0.045288693 0.0090674134
0.4208127 0.044831712 0.0090601398
0.42045677 0.044374727 0.0090528652
0.42010084 0.043917749 0.0090455906
0.41974494 0.043460771 0.0090383161
0.41938901 0.04300379 0.0090310425
0.41903308 0.042546812 0.0090237679
0.41867715 0.042089827 0.0090164933
0.41832122 0.04163285 0.0090092188
0.41796529 0.041175868 0.0090019451
0.41760939 0.040718891 0.0089946706
0.41725346 0.040261913 0.008987396
0.41689754 0.039804932 0.0089801224
0.41654161 0.039347947 0.0089728478
0.41618568 0.038890969 0.0089655733
0.41582975 0.038433991 0.0089582987
0.41547385 0.03797701 0.0089510251
0.41511792 0.037520032 0.0089437505
0.41476199 0.037063051 0.008936476
0.41440606 0.036606073 0.0089292014
0.41405013 0.036149085 0.0089219268
0.4136942 0.035692103 0.0089146532
0.41278866 0.035961919 0.0094015775
0.41243342 0.035505783 0.0093943169
0.41207814 0.035049662 0.0093870563
0.4117229 0.03459353 0.0093797948
0.41082066 0.034867596 0.0098667871
0.41046605 0.03441231 0.0098595396
0.41011146 0.033957034 0.0098522929
0.40975687 0.033501759 0.0098450454
0.40940225 0.03304648 0.0098377978
0.40904766 0.032591205 0.0098305512
0.40869308 0.032135919 0.0098233037
0.42382601 0.056208666 0.011118831
0.42462111 0.054365814 0.010122208
0.42426717 0.053911384 0.010114974
0.42448574 0.05276021 0.0096130129
0.42413116 0.052304935 0.0096057653
0.42377654 0.051849652 0.0095985187
0.42342195 0.051394377 0.0095912712
0.42306736 0.050939098 0.0095840236
0.42271274 0.050483819 0.009576777
0.42292669 0.049326684 0.0090747206
0.42257142 0.04887056 0.00906746
0.42221618 0.048414432 0.0090601984
0.4218609 0.0479583 0.0090529379
0.42207152 0.04679691 0.0085508209
0.42171559 0.046339929 0.0085435463
0.42135966 0.045882951 0.0085362727
0.42100376 0.045425974 0.0085289981
0.42064783 0.044968992 0.0085217236
0.4202919 0.044512007 0.008514449
0.41993597 0.04405503 0.0085071754
0.41958004 0.043598052 0.0084999008
0.41922411 0.043141071 0.0084926262
0.41886821 0.042684093 0.0084853517
0.41851228 0.042227108 0.0084780781
0.41815636 0.04177013 0.0084708035
0.41780043 0.041313149 0.0084635289
0.4174445 0.040856171 0.0084562553
0.41708857 0.040399194 0.0084489807
0.41673267 0.039942212 0.0084417062
0.41637674 0.039485227 0.0084344316
0.41546619 0.039747972 0.0089222444
0.41511095 0.039291851 0.0089149838
0.41475567 0.038835719 0.0089077223
0.4144004 0.038379587 0.0089004617
0.41404516 0.037923463 0.0088932011
0.41368988 0.037467331 0.0088859405
0.41333461 0.037011199 0.0088786799
0.41297936 0.036555078 0.0088714194
0.41262409 0.036098942 0.0088641578
0.41172019 0.036370192 0.0093521131
0.4113656 0.035914917 0.0093448656
0.41101098 0.035459641 0.009337618
0.41065639 0.035004366 0.0093303714
0.41030177 0.03454908 0.0093231238
0.40994719 0.034093805 0.0093158763
0.4095926 0.033638529 0.0093086297
0.40923801 0.033183254 0.0093013821
0.40888339 0.032727979 0.0092941355
0.4085288 0.032272689 0.0092868879
0.42366266 0.056344666 0.010585432
0.42388362 0.055197116 0.010082499
0.4241032 0.054047897 0.0095795617
0.42374927 0.053593475 0.0095723281
0.42339534 0.053139046 0.0095650945
0.4230414 0.05268462 0.0095578609
0.42268747 0.05223019 0.0095506273
0.42290309 0.051075865 0.0090476144
0.4225485 0.050620589 0.0090403678
0.42219388 0.050165307 0.0090331202
0.4218393 0.049710032 0.0090258736
0.42148468 0.049254753 0.0090186261
0.42169634 0.048095323 0.0085155256
0.42134106 0.047639195 0.008508265
0.42098582 0.04718307 0.0085010044
0.42063054 0.046726935 0.0084937429
0.42027527 0.04627081 0.0084864823
0.41992003 0.045814682 0.0084792217
0.41956475 0.04535855 0.0084719611
0.41920951 0.044902422 0.0084647005
0.41885424 0.044446293 0.00845744
0.41849896 0.043990161 0.0084501784
0.41814372 0.043534033 0.0084429178
0.41778845 0.043077905 0.0084356572
0.41743317 0.042621773 0.0084283967
0.41707793 0.042165644 0.0084211361
0.41672266 0.04170952 0.0084138745
0.41636741 0.041253384 0.008406614
0.41601214 0.04079726 0.0083993534
0.41565689 0.040341131 0.0083920928
0.41530162 0.039884999 0.0083848322
0.41494635 0.039428879 0.0083775707
0.4145911 0.038972743 0.0083703101
0.41423583 0.038516611 0.0083630495
0.41388059 0.03806049 0.0083557889
0.41297433 0.038328074 0.0088446923
0.41261971 0.037872799 0.0088374456
0.41226512 0.037417524 0.0088301981
0.41191053 0.036962248 0.0088229505
0.41100758 0.03723409 0.0093119154
0.41065365 0.036779672 0.0093046818
0.41029972 0.036325242 0.0092974482
0.40994576 0.035870813 0.0092902146
0.40959182 0.035416383 0.009282981
0.40923789 0.034961954 0.0092757475
0.40888396 0.034507535 0.0092685139
0.40853003 0.034053106 0.0092612794
0.40817609 0.033598676 0.0092540458
0.40782216 0.033144247 0.0092468122
0.42235154 0.057868034 0.011045407
0.42371997 0.055333376 0.0095480969
0.4233667 0.054879796 0.0095408764
0.42301342 0.054426223 0.0095336568
0.42266014 0.053972647 0.0095264362
0.42287746 0.052821137 0.0090224482
0.4225235 0.052366707 0.0090152146
0.42216957 0.051912278 0.0090079801
0.42181563 0.051457852 0.0090007465
0.4214617 0.051003423 0.008993513
0.42110777 0.050549001 0.0089862794
0.42132041 0.049391523 0.0084822103
0.42096582 0.048936248 0.0084749628
0.42061123 0.048480965 0.0084677152
0.42025661 0.04802569 0.0084604686
0.41990203 0.047570415 0.0084532211
0.41954744 0.047115132 0.0084459735
0.41919282 0.046659857 0.0084387269
0.41883823 0.046204578 0.0084314793
0.41848364 0.045749299 0.0084242318
0.41812903 0.04529402 0.0084169852
0.41777444 0.044838745 0.0084097376
0.41741982 0.044383463 0.0084024901
0.41706523 0.043928187 0.0083952434
0.41671064 0.043472905 0.0083879959
0.41635603 0.04301763 0.0083807483
0.41600144 0.042562354 0.0083735017
0.41564685 0.042107075 0.0083662542
0.41529223 0.041651797 0.0083590075
0.41493765 0.041196518 0.00835176
0.41458306 0.040741242 0.0083445124
0.41422844 0.04028596 0.0083372658
0.41387385 0.039830685 0.0083300183
0.41351926 0.039375409 0.0083227707
0.41316465 0.038920123 0.0083155241
0.41225937 0.039188322 0.0088054379
0.41190544 0.038733892 0.0087982034
0.41155151 0.038279463 0.0087909698
0.41119754 0.037825033 0.0087837363
0.41029561 0.038097486 0.0092737321
0.4099423 0.037643902 0.0092665115
0.40958905 0.037190329 0.0092592919
0.40923578 0.036736745 0.0092520714
0.4088825 0.036283173 0.0092448508
0.40852922 0.035829604 0.0092376312
0.40817595 0.03537602 0.0092304107
0.40782267 0.034922447 0.0092231911
0.40746939 0.034468874 0.0092159705
0.42218882 0.058003526 0.010514007
0.42298335 0.056163948 0.0095114131
0.42263076 0.055711221 0.0095042065
0.42284977 0.054562483 0.0089992471
0.4224965 0.054108907 0.0089920275
0.42214322 0.053655326 0.0089848069
0.42178994 0.05320175 0.0089775864
0.4214367 0.052748177 0.0089703668
0.42165169 0.051594365 0.0084653413
0.42129773 0.051139936 0.0084581077
0.4209438 0.050685514 0.0084508741
0.42058986 0.050231084 0.0084436396
0.42023593 0.049776658 0.008436406
0.42044696 0.048617736 0.007931306
0.42009237 0.04816246 0.0079240594
0.41973776 0.047707185 0.0079168119
0.41938317 0.047251903 0.0079095643
0.41902858 0.046796627 0.0079023177
0.41867396 0.046341345 0.0078950701
0.41831937 0.04588607 0.0078878235
0.41796476 0.045430787 0.007880576
0.41761017 0.044975512 0.0078733284
0.41725558 0.044520233 0.0078660809
0.41690096 0.044064958 0.0078588342
0.41654637 0.043609675 0.0078515867
0.41619179 0.0431544 0.0078443401
0.41583717 0.042699125 0.0078370925
0.41548258 0.042243842 0.007829845
0.41512799 0.041788567 0.0078225983
0.41477337 0.041333284 0.0078153508
0.41386509 0.041596968 0.0083061997
0.41351116 0.041142542 0.0082989661
0.41315722 0.040688112 0.0082917325
0.41280326 0.040233683 0.0082844989
0.41244933 0.039779253 0.0082772654
0.41154504 0.040048044 0.0087682027
0.41119176 0.039594471 0.0087609831
0.41083848 0.039140888 0.0087537626
0.41048521 0.038687315 0.008746543
0.41013193 0.038233746 0.0087393224
0.40923154 0.03850767 0.0092303567
0.40887895 0.038054943 0.0092231501
0.40852633 0.037602216 0.0092159435
0.40817371 0.037149489 0.0092087369
0.40782112 0.036696766 0.0092015304
0.4074685 0.036244038 0.0091943238
0.40711588 0.035791311 0.0091871163
0.40730575 0.034605134 0.0086815618
0.4220261 0.058139019 0.0099826073
0.42224741 0.056993973 0.0094767213
0.42246741 0.055847224 0.0089708008
0.42211479 0.055394497 0.0089635942
0.4217622 0.054941773 0.0089563876
0.42197958 0.053791586 0.0084503973
0.4216263 0.05333801 0.0084431777
0.42127302 0.052884437 0.0084359571
0.42091975 0.052430861 0.0084287375
0.42056647 0.051977281 0.008421517
0.42077985 0.050822027 0.0079154614
0.42042592 0.050367597 0.0079082269
0.42007199 0.049913175 0.0079009933
0.41971803 0.049458746 0.0078937598
0.41936409 0.049004316 0.0078865262
0.41901016 0.048549891 0.0078792926
0.41865623 0.048095461 0.007872059
0.4183023 0.047641039 0.0078648254
0.41794837 0.047186609 0.0078575918
0.41759443 0.04673218 0.0078503583
0.4172405 0.046277754 0.0078431237
0.41688654 0.045823324 0.0078358902
0.41653261 0.045368902 0.0078286566
0.41617867 0.044914473 0.007821423
0.41582474 0.044460047 0.0078141894
0.41547081 0.044005617 0.0078069558
0.41511688 0.043551188 0.0077997223
0.41476294 0.043096766 0.0077924887
0.41440901 0.042642336 0.0077852546
0.41405508 0.042187911 0.007778021
0.41370112 0.041733481 0.0077707875
0.41334718 0.041279059 0.0077635539
0.41244119 0.04154503 0.0082554538
0.41208792 0.041091461 0.0082482342
0.41173464 0.040637877 0.0082410136
0.41083127 0.04090729 0.0087329829
0.41047865 0.040454566 0.0087257763
0.41012603 0.040001839 0.0087185698
0.40977344 0.039549123 0.0087113632
0.40942082 0.039096396 0.0087041566
0.40906823 0.038643673 0.00869695
0.40871561 0.038190946 0.0086897435
0.40836298 0.037738219 0.0086825369
0.40801036 0.037285492 0.0086753303
0.40765777 0.036832768 0.0086681237
0.40730515 0.036380041 0.0086609172
0.40695253 0.035927314 0.0086537106
0.4055157 0.036940925 0.0096451715
0.42164102 0.059417602 0.0099580707
0.42186335 0.058274511 0.0094512077
0.42208436 0.057129718 0.0089443186
0.42173243 0.056677844 0.0089371251
0.42138049 0.05622597 0.0089299325
0.42159885 0.055077776 0.008422981
0.42124623 0.054625053 0.0084157744
0.42089361 0.05417233 0.0084085679
0.42054102 0.053719603 0.0084013613
0.4201884 0.053266875 0.0083941547
0.42040282 0.052113537 0.0078871148
0.42004955 0.051659968 0.0078798942
0.4196963 0.051206388 0.0078726746
0.41934302 0.050752811 0.0078654541
0.41898975 0.050299235 0.0078582335
0.41863647 0.049845662 0.0078510139
0.41828319 0.049392082 0.0078437934
0.41792992 0.048938505 0.0078365738
0.41757664 0.048484933 0.0078293532
0.41722336 0.048031356 0.0078221336
0.41687009 0.047577776 0.0078149131
0.41651681 0.0471242 0.007807693
0.41616356 0.046670627 0.0078004729
0.41581029 0.04621705 0.0077932528
0.41545701 0.04576347 0.0077860327
0.41510373 0.045309901 0.0077788127
0.41475046 0.044856321 0.0077715926
0.41439718 0.044402745 0.007764372
0.4140439 0.043949172 0.007757152
0.41369063 0.043495595 0.0077499319
0.41333738 0.043042015 0.0077427118
0.4129841 0.042588439 0.0077354917
0.41263083 0.042134866 0.0077282717
0.41172576 0.042401474 0.0082211969
0.41137314 0.041948747 0.0082139904
0.41102052 0.04149602 0.0082067838
0.41011816 0.041766003 0.0086997552
0.4097662 0.041314121 0.0086925616
0.40941426 0.040862255 0.008685369
0.4090623 0.040410373 0.0086781755
0.40871036 0.039958503 0.0086709829
0.40835842 0.039506625 0.0086637894
0.40800646 0.039054755 0.0086565968
0.40765452 0.038602874 0.0086494032
0.40730259 0.038151007 0.0086422106
0.40695062 0.037699126 0.0086350171
0.40659869 0.037247259 0.0086278245
0.40624672 0.036795378 0.0086206309
0.42090523 0.060244679 0.0099283904
0.42170063 0.058410004 0.0089198081
0.42192134 0.057265468 0.008411915
0.42156938 0.056813594 0.0084047224
0.42121744 0.05636172 0.0083975289
0.42086551 0.055909842 0.0083903363
0.42051354 0.055457968 0.0083831428
0.42073029 0.054308329 0.0078751687
0.42037767 0.053855605 0.0078679621
0.42002505 0.053402878 0.0078607555
0.41967246 0.052950151 0.007853549
0.41931984 0.052497424 0.0078463424
0.41896722 0.052044705 0.0078391358
0.41861463 0.051591977 0.0078319293
0.418262 0.051139254 0.0078247227
0.41790938 0.050686527 0.0078175161
0.41755679 0.0502338 0.0078103095
0.41720417 0.049781073 0.007803103
0.41685155 0.049328353 0.0077958964
0.41649896 0.04887563 0.0077886898
0.41614634 0.048422903 0.0077814832
0.41579372 0.047970176 0.0077742767
0.41544113 0.047517449 0.0077670701
0.4150885 0.047064725 0.0077598635
0.41473591 0.046612002 0.0077526569
0.41438329 0.046159279 0.0077454504
0.41403067 0.045706552 0.0077382438
0.41367808 0.045253824 0.0077310372
0.41332546 0.044801097 0.0077238306
0.41297284 0.044348374 0.0077166241
0.41262025 0.043895654 0.0077094175
0.41226763 0.043442927 0.0077022109
0.411915 0.0429902 0.0076950043
0.41156241 0.042537473 0.0076877978
0.41065902 0.042805497 0.0081817387
0.41030705 0.042353619 0.0081745451
0.40995511 0.041901749 0.0081673525
0.40960318 0.041449871 0.008160159
0.40870309 0.041722145 0.0086541669
0.40835181 0.041271124 0.0086469874
0.40800053 0.040820099 0.0086398087
0.40764925 0.040369079 0.0086326292
0.40729794 0.039918054 0.0086254496
0.40694666 0.039467033 0.00861827
0.40659538 0.039016012 0.0086110905
0.4062441 0.038564987 0.0086039109
0.40589282 0.038113967 0.0085967313
0.42074311 0.060379662 0.0093989968
0.42153791 0.058545493 0.0083884094
0.42118663 0.058094472 0.0083812298
0.42083532 0.057643447 0.0083740503
0.42048404 0.057192426 0.0083668707
0.42070246 0.056045588 0.0078579402
0.42035052 0.055593714 0.0078507476
0.41999856 0.05514184 0.007843554
0.41964662 0.054689966 0.0078363614
0.41929466 0.054238092 0.0078291679
0.41894272 0.053786218 0.0078219753
0.41915649 0.052633431 0.0073129362
0.41880387 0.052180707 0.0073057297
0.41845128 0.051727984 0.0072985231
0.41809866 0.051275257 0.0072913165
0.41774604 0.05082253 0.0072841099
0.41739345 0.050369803 0.0072769034
0.41704082 0.04991708 0.0072696968
0.41668823 0.049464356 0.0072624902
0.41633561 0.049011633 0.0072552837
0.41598299 0.048558906 0.0072480771
0.41563037 0.048106179 0.0072408705
0.41527778 0.047653452 0.0072336639
0.41492516 0.047200728 0.0072264574
0.41457257 0.046748009 0.0072192508
0.41421995 0.046295281 0.0072120442
0.41386732 0.045842554 0.0072048376
0.41295961 0.04610436 0.0076996936
0.41260767 0.045652486 0.0076925005
0.4122557 0.045200609 0.0076853074
0.41190377 0.044748735 0.0076781143
0.41155183 0.044296861 0.0076709213
0.41119987 0.043844987 0.0076637282
0.41084793 0.043393113 0.0076565351
0.40994549 0.043661729 0.0081514856
0.40959421 0.043210708 0.008144306
0.40924293 0.042759683 0.0081371265
0.40889165 0.042308662 0.0081299469
0.40854037 0.041857637 0.0081227683
0.40764192 0.042131349 0.0086178062
0.40729129 0.041681185 0.0086106407
0.40694067 0.04123101 0.0086034741
0.40659004 0.040780842 0.0085963085
0.40623942 0.040330667 0.0085891429
0.4058888 0.039880492 0.0085819764
0.40553817 0.039430324 0.0085748108
0.40518755 0.038980149 0.0085676452
0.42035758 0.061654411 0.0093794297
0.42058101 0.060514644 0.0088695977
0.42080313 0.059373133 0.0083597163
0.42045251 0.058922965 0.0083525507
0.4206726 0.05777894 0.0078426506
0.42032132 0.057327919 0.0078354711
0.41997004 0.056876894 0.0078282915
0.41961876 0.056425873 0.0078211119
0.41983554 0.05527759 0.0073111514
0.41948357 0.054825716 0.0073039583
0.41913164 0.054373838 0.0072967652
0.41877967 0.053921964 0.0072895726
0.41842774 0.05347009 0.0072823795
0.41807577 0.053018216 0.0072751865
0.41772383 0.052566342 0.0072679934
0.4173719 0.052114468 0.0072608003
0.41701993 0.051662594 0.0072536073
0.416668 0.051210724 0.0072464142
0.41631606 0.05075885 0.0072392211
0.4159641 0.050306976 0.0072320281
0.41561216 0.049855102 0.007224835
0.4152602 0.049403228 0.0072176419
0.41490826 0.048951354 0.0072104488
0.41455632 0.04849948 0.0072032558
0.41420436 0.048047606 0.0071960627
0.41385242 0.047595728 0.0071888701
0.41350046 0.047143854 0.007181677
0.41314852 0.04669198 0.007174484
0.41279659 0.046240106 0.0071672909
0.41244462 0.045788232 0.0071600978
0.41209269 0.045336358 0.0071529048
0.41174072 0.044884484 0.0071457117
0.41138878 0.04443261 0.0071385186
0.41048533 0.044699267 0.0076344451
0.41013405 0.044248242 0.0076272655
0.40978277 0.043797221 0.0076200864
0.40943149 0.043346196 0.0076129069
0.40853134 0.043617107 0.0081089083
0.40818074 0.043166939 0.0081017418
0.40783012 0.042716764 0.0080945762
0.40747949 0.042266589 0.0080874106
0.40712887 0.041816421 0.0080802441
0.40677825 0.041366246 0.0080730785
0.40642762 0.040916082 0.0080659129
0.406077 0.040465903 0.0080587463
0.40572637 0.040015727 0.0080515807
0.40537575 0.039565559 0.0080444142
0.40502512 0.039115384 0.0080372486
0.41962272 0.062479325 0.0093547227
0.42041889 0.060649622 0.0083402041
0.42006892 0.060200296 0.0083330525
0.42029008 0.059058201 0.0078221541
0.41993946 0.058608029 0.0078149885
0.41958883 0.058157858 0.0078078224
0.41980729 0.057012387 0.0072968923
0.41945601 0.056561366 0.0072897128
0.41910473 0.056110341 0.0072825332
0.41875345 0.05565932 0.0072753537
0.41840217 0.055208292 0.0072681741
0.41805089 0.054757267 0.0072609945
0.41826469 0.05360584 0.0067499764
0.41791275 0.053153966 0.0067427834
0.41756079 0.052702088 0.0067355903
0.41720885 0.052250214 0.0067283972
0.41685691 0.05179834 0.0067212046
0.41650495 0.051346473 0.0067140115
0.41615301 0.050894599 0.0067068185
0.41580108 0.050442725 0.0066996254
0.41544911 0.049990848 0.0066924323
0.41509718 0.049538974 0.0066852393
0.41474521 0.0490871 0.0066780462
0.41439328 0.048635226 0.0066708531
0.41404134 0.048183352 0.0066636601
0.41368937 0.047731478 0.006656467
0.41333744 0.047279604 0.0066492739
0.41298547 0.04682773 0.0066420808
0.41263354 0.046375856 0.0066348878
0.41172776 0.046638854 0.0071317637
0.41137648 0.046187833 0.0071245842
0.41102517 0.045736801 0.0071174046
0.41067389 0.04528578 0.007110225
0.41032261 0.044834759 0.0071030459
0.40942079 0.045102861 0.0076000099
0.40907019 0.044652697 0.0075928438
0.40871954 0.044202518 0.0075856778
0.40836892 0.043752342 0.0075785117
0.40747038 0.044024732 0.008075566
0.40712044 0.04357541 0.0080684135
0.40677047 0.043126091 0.0080612609
0.40642053 0.042676773 0.0080541084
0.40607056 0.042227454 0.0080469558
0.40572059 0.041778136 0.0080398042
0.40537062 0.041328803 0.0080326516
0.40502068 0.040879484 0.0080254991
0.40467072 0.040430166 0.0080183465
0.41946122 0.062613793 0.0088273361
0.41968468 0.061475389 0.0083155045
0.4199068 0.060335279 0.007803659
0.41955686 0.059885956 0.0077965069
0.41920689 0.059436638 0.0077893543
0.41942641 0.058293093 0.0072774263
0.41907579 0.057842918 0.0072702602
0.41872516 0.057392746 0.0072630942
0.41837454 0.056942575 0.0072559281
0.41859072 0.055794809 0.006743954
0.41823941 0.055343781 0.0067367745
0.41788813 0.05489276 0.0067295949
0.41753685 0.054441735 0.0067224158
0.4177497 0.053289711 0.0062103807
0.41739777 0.052837837 0.0062031876
0.4170458 0.052385963 0.0061959946
0.41669387 0.05193409 0.0061888015
0.41634193 0.051482219 0.0061816084
0.41598997 0.051030345 0.0061744158
0.41563803 0.050578471 0.0061672227
0.41528609 0.050126597 0.0061600297
0.41493413 0.049674723 0.0061528366
0.41458219 0.049222849 0.0061456435
0.41423023 0.048770975 0.0061384505
0.41387829 0.048319098 0.0061312574
0.41352633 0.047867224 0.0061240643
0.41317439 0.04741535 0.0061168713
0.41282246 0.046963476 0.0061096782
0.41247049 0.046511602 0.0061024851
0.41156501 0.046774346 0.0066003641
0.41121373 0.046323322 0.006593185
0.41031024 0.046588615 0.0070911115
0.40995961 0.046138443 0.0070839454
0.40960899 0.045688268 0.0070767794
0.40870813 0.045956999 0.0075747822
0.40835816 0.045507681 0.0075676301
0.40800819 0.045058362 0.0075604776
0.40765825 0.04460904 0.0075533255
0.40676069 0.044881988 0.0080513665
0.40641141 0.044433527 0.008044228
0.40606213 0.043985054 0.0080370894
0.40571281 0.043536581 0.0080299499
0.40536353 0.043088108 0.0080228113
0.40501422 0.042639647 0.0080156727
0.40466493 0.042191174 0.0080085341
0.40431562 0.041742697 0.0080013946
0.40396634 0.041294225 0.007994256
0.41850215 0.064573541 0.0093184207
0.41872728 0.063437946 0.0088056326
0.41952288 0.061610114 0.0077871149
0.41917357 0.061161645 0.0077799759
0.41939473 0.060020939 0.0072671138
0.41904476 0.05957162 0.0072599617
0.41869482 0.059122294 0.0072528091
0.41891336 0.057978153 0.0067398571
0.41856274 0.057527982 0.0067326911
0.41821212 0.057077814 0.006725525
0.41786149 0.056627642 0.0067183594
0.41807669 0.055479273 0.0062053753
0.41772541 0.055028252 0.0061981957
0.41737413 0.054577228 0.0061910162
0.41702285 0.054126207 0.0061838366
0.41667154 0.053675182 0.006176657
0.41632026 0.053224161 0.0061694775
0.41596898 0.052773137 0.0061622984
0.4156177 0.052322116 0.0061551188
0.41526642 0.051871091 0.0061479392
0.41491514 0.05142007 0.0061407597
0.41456386 0.050969046 0.0061335801
0.41421255 0.050518017 0.0061264005
0.41386127 0.050066996 0.0061192214
0.41350999 0.049615972 0.0061120419
0.41315871 0.049164951 0.0061048623
0.41280743 0.048713926 0.0060976828
0.41245613 0.048262905 0.0060905032
0.41210485 0.047811881 0.0060833236
0.41175357 0.04736086 0.0060761445
0.41084906 0.047624193 0.0065750401
0.41049844 0.047174022 0.0065678745
0.41014782 0.046723854 0.0065607084
0.40924591 0.046990622 0.0070596943
0.40889597 0.046541303 0.0070525422
0.40799609 0.046810593 0.0075515327
0.40764678 0.046362128 0.0075443937
0.40729749 0.045913659 0.0075372551
0.40694821 0.045465186 0.007530116
0.4065989 0.045016713 0.0075229774
0.40570301 0.045291118 0.008022056
0.40535438 0.044843491 0.0080149313
0.40500575 0.044395875 0.0080078058
0.4052017 0.04322283 0.0074944217
0.40485242 0.042774372 0.0074872831
0.40395984 0.043053016 0.0079864301
0.40361121 0.0426054 0.0079793045
0.41834125 0.064707503 0.0087930337
0.41856608 0.063572161 0.0082792426
0.4187896 0.062435113 0.0077654319
0.41901177 0.06129637 0.0072515863
0.41866246 0.060847897 0.0072444477
0.41888267 0.059706599 0.0067305686
0.4185327 0.059257273 0.006723416
0.41818273 0.058807954 0.0067162639
0.41840032 0.057663221 0.006202295
0.41804969 0.057213049 0.0061951289
0.41769907 0.056762878 0.0061879628
0.41734844 0.056312706 0.0061807972
0.41699782 0.055862531 0.0061736312
0.41721138 0.05471272 0.0056596166
0.4168601 0.054261696 0.005652437
0.41650882 0.053810675 0.0056452579
0.41615754 0.053359654 0.0056380783
0.41580626 0.052908629 0.0056308988
0.41545498 0.052457608 0.0056237192
0.4151037 0.052006584 0.0056165396
0.41475239 0.051555563 0.0056093601
0.41440111 0.051104538 0.005602181
0.41404983 0.05065351 0.0055950014
0.41369855 0.050202489 0.0055878218
0.41334727 0.049751464 0.0055806423
0.41299596 0.049300443 0.0055734627
0.41264468 0.048849419 0.0055662831
0.4122934 0.048398398 0.0055591036
0.41194212 0.047947373 0.0055519245
0.41159084 0.047496352 0.0055447449
0.41068664 0.047759429 0.0060446439
0.40978372 0.048024248 0.0065446063
0.40943375 0.047574922 0.0065374537
0.40853286 0.04784226 0.0070374208
0.40818357 0.047393791 0.0070302822
0.40783426 0.046945319 0.0070231431
0.40748498 0.04649685 0.0070160045
0.4071357 0.046048384 0.0070088655
0.40623876 0.046320818 0.0075089205
0.40589014 0.045873202 0.0075017954
0.40554151 0.045425586 0.0074946699
0.40519288 0.044977959 0.0074875448
0.40484422 0.044530343 0.0074804192
0.4044956 0.044082727 0.0074732942
0.40414697 0.043635111 0.0074661691
0.40379834 0.043187484 0.0074590435
0.40344971 0.042739868 0.007451918
0.41818038 0.064841457 0.0082676541
0.41840488 0.063706368 0.00775286
0.41805691 0.063259609 0.0077457484
0.41827944 0.062121965 0.0072309203
0.41793081 0.061674342 0.0072237947
0.41815135 0.060534157 0.0067089126
0.41780207 0.060085684 0.0067017735
0.41802064 0.058942936 0.0061868639
0.41767067 0.058493618 0.0061797118
0.41788727 0.057348285 0.0056647328
0.41753665 0.056898113 0.0056575667
0.41718602 0.056447942 0.0056504011
0.4168354 0.055997767 0.0056432351
0.41704866 0.054848213 0.0051282174
0.41669738 0.054397188 0.0051210378
0.4163461 0.053946167 0.0051138583
0.41599482 0.053495143 0.0051066787
0.41564351 0.053044122 0.0050994991
0.41529223 0.052593097 0.0050923196
0.41494095 0.052142076 0.0050851405
0.41458967 0.051691052 0.0050779609
0.41423839 0.051240031 0.0050707813
0.41388711 0.050789002 0.0050636018
0.4135358 0.050337978 0.0050564222
0.41283324 0.049435932 0.0050420631
0.41248196 0.048984911 0.005034884
0.41213068 0.04853389 0.0050277044
0.4117794 0.048082866 0.0050205248
0.41087484 0.048344843 0.0055214139
0.41052422 0.047894664 0.0055142478
0.4096216 0.048159231 0.0060152067
0.40872034 0.048425458 0.0065161632
0.40837106 0.047976986 0.0065090242
0.40747181 0.048245765 0.0070100357
0.40712318 0.047798146 0.0070029101
0.40677455 0.04735053 0.0069957851
0.40642589 0.046902906 0.0069886595
0.40552998 0.047175951 0.007489725
0.405182 0.046729181 0.007482613
0.40483403 0.046282411 0.0074755014
0.40448606 0.04583564 0.0074683893
0.40413809 0.04538887 0.0074612778
0.40379012 0.044942103 0.0074541657
0.40398547 0.043769579 0.0069387825
0.40363684 0.043321952 0.006931657
0.40328822 0.042874336 0.0069245319
0.41722104 0.066795789 0.0087667257
0.41801947 0.064975418 0.007742268
0.41824368 0.063840583 0.0072264699
0.4178957 0.063393824 0.0072193583
0.41754773 0.06294705 0.0072122468
0.41776931 0.061808813 0.0066964016
0.41798955 0.060668882 0.006180523
0.41764024 0.060220405 0.0061733839
0.41785851 0.059077919 0.0056574713
0.41750854 0.058628596 0.0056503187
0.41715857 0.058179274 0.0056431666
0.41737422 0.057033349 0.0051271706
0.4170236 0.056583177 0.0051200045
0.41667297 0.056133002 0.0051128389
0.40980944 0.048743527 0.0054929662
0.40945947 0.048294209 0.0054858136
0.40855855 0.048560183 0.0059877736
0.40765893 0.048827857 0.0064897677
0.40641269 0.04865047 0.0069846702
0.40606472 0.048203699 0.0069775586
0.40571675 0.047756929 0.0069704466
0.40536878 0.047310166 0.006963335
0.4050208 0.046863396 0.0069562234
0.40467283 0.046416625 0.0069491114
0.40432486 0.045969855 0.0069419998
0.40397689 0.045523085 0.0069348877
0.40362892 0.045076318 0.0069277762
0.40328094 0.044629548 0.0069206641
0.40293297 0.044182789 0.0069135525
0.41706076 0.066929229 0.0082433531
0.4178586 0.065109372 0.007216888
0.41751128 0.064663455 0.0072097899
0.41716397 0.064217538 0.0072026919
0.41738656 0.063081264 0.0066858637
0.41703859 0.06263449 0.0066787517
0.41725919 0.061495665 0.00616189
0.41747844 0.060355131 0.0056449943
0.41769639 0.059212897 0.0051280782
0.41734642 0.058763579 0.0051209261
0.41699648 0.058314253 0.0051137735
0.40839675 0.048694909 0.0054593841
0.40659946 0.049231447 0.0064653992
0.40625149 0.048784681 0.0064582871
0.40590352 0.04833791 0.0064511755
0.4050082 0.048610438 0.0069542541
0.40466088 0.048164517 0.006947156
0.40431356 0.047718607 0.006940058
0.40396625 0.047272682 0.0069329594
0.40361896 0.046826769 0.0069258614
0.40327165 0.046380844 0.0069187628
0.40346771 0.045210529 0.0064013931
0.40311974 0.044763759 0.0063942815
0.40277177 0.044317 0.0063871699
0.41690049 0.067062676 0.0077199726
0.41712609 0.065930918 0.007202209
0.41735038 0.064797416 0.0066844034
0.4170031 0.064351499 0.0066773053
0.41665578 0.063905582 0.0066702068
0.41687739 0.062768705 0.0061523621
0.41709769 0.061630134 0.0056345039
0.41731665 0.060489856 0.0051166047
0.41696733 0.060041387 0.0051094661
0.40768456 0.049544413 0.0054421206
0.40643826 0.049365658 0.0059390091
0.40554193 0.04963623 0.0064430642
0.40519461 0.049190313 0.0064359657
0.40430021 0.04946347 0.0069400766
0.40395355 0.049018402 0.0069329916
0.40360692 0.04857333 0.006925907
0.40326026 0.048128262 0.0069188224
0.40291363 0.047683198 0.0069117378
0.40256697 0.04723813 0.0069046528
0.40330651 0.045344744 0.0058750031
0.40295854 0.044897974 0.0058678915
0.40261057 0.044451214 0.0058607799
0.415941 0.069011532 0.0082269805
0.41674021 0.067196123 0.0071965926
0.41696548 0.066064619 0.0066778259
0.41661885 0.065619551 0.0066707414
0.41684219 0.064485453 0.0061519253
0.41649488 0.064039536 0.0061448272
0.41614759 0.063593619 0.0061377292
0.41636822 0.062456157 0.0056188675
0.41658753 0.061316982 0.0050999853
0.40662503 0.049946643 0.0054197381
0.40572834 0.050216101 0.0059247827
