# .PCD v0.7 - Point Cloud Data file format
VERSION 0.7
FIELDS x y z
SIZE 4 4 4
TYPE F F F
COUNT 1 1 1
WIDTH 1379
HEIGHT 1
VIEWPOINT 0 0 0 1 0 0 0
POINTS 1379
DATA ascii
0.40110868 0.15033744 0.0053329668
0.39126739 0.13770197 0.0051318328
0.39095986 0.13730712 0.0051255473
0.39065233 0.13691226 0.0051192618
0.38975826 0.13714026 0.0056931069
0.38945135 0.13674624 0.0056868349
0.38914448 0.13635224 0.0056805629
0.38825303 0.13658366 0.0062544663
0.38794681 0.1361905 0.0062482082
0.38764063 0.13579734 0.0062419497
0.38733441 0.13540418 0.0062356913
0.40219706 0.15478694 0.0060791275
0.40127677 0.15498064 0.0066534341
0.40158463 0.15400063 0.006066611
0.40127841 0.15360747 0.0060603525
0.40097219 0.15321432 0.0060540941
0.40066597 0.15282117 0.0060478356
0.40035978 0.152428 0.0060415776
0.40066367 0.15144287 0.0054546688
0.39022985 0.13804664 0.0052414243
0.38992295 0.13765262 0.0052351523
0.38961607 0.13725862 0.0052288808
0.38872361 0.13748808 0.0058037601
0.38841739 0.13709491 0.0057975017
0.3881112 0.13670176 0.0057912432
0.38780499 0.13630861 0.0057849851
0.38749877 0.13591544 0.0057787267
0.38602802 0.13677771 0.0069349026
0.40082633 0.15607657 0.0067790248
0.40174899 0.1545119 0.005609653
0.40082967 0.15470618 0.0061849761
0.40052414 0.15431388 0.0061787316
0.40021858 0.15392157 0.0061724866
0.40052414 0.15293927 0.0055846195
0.40021792 0.15254611 0.005578361
0.3999117 0.15215296 0.005572103
0.38950041 0.13878565 0.005359319
0.38919419 0.13839249 0.0053530606
0.38888797 0.13799934 0.0053468021
0.38858178 0.13760619 0.005340544
0.38827556 0.13721302 0.0053342856
0.3873854 0.13744476 0.0059102047
0.38707986 0.13705246 0.0059039602
0.3867743 0.13666016 0.0058977152
0.38588679 0.13689531 0.0064736931
0.4006851 0.15619417 0.0063178083
0.40038022 0.15580271 0.0063115768
0.40068814 0.15482403 0.0057227565
0.40038258 0.15443173 0.0057165115
0.40007704 0.15403943 0.005710267
0.39977148 0.15364712 0.005704022
0.39946592 0.15325482 0.0056977775
0.39976984 0.15227106 0.0051088799
0.39946362 0.15187791 0.0051026214
0.38785496 0.13834722 0.0054604746
0.3875494 0.13795492 0.0054542301
0.38724387 0.13756262 0.0054479851
0.3869383 0.13717031 0.0054417402
0.38663277 0.136778 0.0054354956
0.3851639 0.1376401 0.0065956982
0.40023896 0.1559203 0.0058503603
0.39993408 0.15552884 0.0058441292
0.39962921 0.15513739 0.0058378978
0.39993548 0.15415728 0.0052480539
0.39962992 0.15376498 0.0052418094
0.39932439 0.15337268 0.0052355644
0.39901882 0.15298037 0.0052293194
0.38832453 0.13924968 0.0050107515
0.38801897 0.13885738 0.0050045066
0.38682386 0.13869631 0.005576185
0.38651899 0.13830486 0.0055699539
0.38621408 0.13791341 0.0055637225
0.3859092 0.13752195 0.0055574914
0.385023 0.13775744 0.0061354851
0.39978912 0.15701433 0.0059799398
0.3994849 0.15662374 0.0059737219
0.39979285 0.15564644 0.0053829127
0.39948794 0.15525499 0.0053766812
0.39918306 0.15486354 0.0053704502
0.39887819 0.15447208 0.0053642187
0.39857328 0.15408063 0.0053579877
0.38729241 0.13959683 0.0051274314
0.38698751 0.13920537 0.0051211999
0.38579473 0.13904659 0.0056939251
0.38549051 0.13865599 0.0056877071
0.38518628 0.13826539 0.0056814896
0.38488206 0.13787478 0.0056752716
0.39934397 0.15674107 0.0055135088
0.39903975 0.15635046 0.0055072913
0.39873552 0.15595986 0.0055010733
0.3984313 0.15556926 0.0054948558
0.39812708 0.15517867 0.0054886378
0.39782283 0.15478806 0.0054824203
0.38656649 0.14033574 0.005252365
0.38626224 0.13994513 0.005246147
0.38595802 0.13955453 0.0052399295
0.38565379 0.13916394 0.005233712
0.38534957 0.13877332 0.0052274941
0.38504535 0.13838272 0.0052212765
0.38474113 0.13799213 0.0052150586
0.3985908 0.15744373 0.0056398734
0.39889881 0.15646781 0.0050470778
0.39859459 0.15607721 0.0050408603
0.39829037 0.1556866 0.0050346428
0.39798614 0.155296 0.0050284248
0.39768189 0.15490539 0.0050222073
0.38553759 0.1406844 0.0053730942
0.38523403 0.14029464 0.0053668902
0.38493046 0.13990489 0.0053606862
0.3846269 0.13951513 0.0053544817
0.38432336 0.13912538 0.0053482777
0.38401979 0.13873564 0.0053420737
0.38371623 0.13834588 0.0053358693
0.3984502 0.15756083 0.0051806634
0.39814663 0.15717107 0.0051744594
0.39784306 0.15678132 0.0051682554
0.3975395 0.15639156 0.0051620509
0.39723593 0.15600181 0.0051558469
0.39693236 0.15561207 0.0051496429
0.38481355 0.14142315 0.0055020521
0.38451064 0.14103425 0.0054958616
0.38420773 0.14064535 0.0054896707
0.38390484 0.14025645 0.0054834802
0.38360193 0.13986754 0.0054772897
0.38329902 0.13947865 0.0054710992
0.38299614 0.13908975 0.0054649082
0.38497612 0.14192888 0.0050500361
0.38467321 0.14153999 0.0050438456
0.38378787 0.14177334 0.0056268354
0.38348565 0.14138529 0.0056206584
0.38318339 0.14099723 0.0056144814
0.38288116 0.14060919 0.0056083039
0.38257891 0.14022113 0.0056021269
0.38227668 0.13983309 0.0055959499
0.38139597 0.14007241 0.0061790454
0.38425234 0.14266601 0.0051819864
0.38395011 0.14227796 0.0051758089
0.38364786 0.14188991 0.0051696319
0.38334563 0.14150186 0.0051634549
0.38304338 0.14111382 0.0051572779
0.38274115 0.14072576 0.0051511009
0.38185939 0.14096312 0.0057351659
0.38155782 0.14057593 0.0057290024
0.38125625 0.14018872 0.0057228389
0.3832469 0.14440903 0.0059132571
0.38352916 0.14340265 0.0053159469
0.38322759 0.14301544 0.0053097834
0.38292599 0.14262824 0.0053036199
0.38262442 0.14224105 0.0052974564
0.38232285 0.14185385 0.0052912929
0.38202128 0.14146665 0.0052851294
0.38171971 0.14107944 0.0052789659
0.38141814 0.14069225 0.0052728024
0.38111654 0.14030504 0.0052666389
0.38310751 0.1445251 0.0054580602
0.38296813 0.14464116 0.0050028637
0.39424554 0.16214922 0.0059931381
0.3934963 0.16284719 0.0061345249
0.39335784 0.16296248 0.005682331
0.39260954 0.16365971 0.0058267456
0.39247134 0.16377476 0.0053755557
0.39296401 0.1692564 0.011314653
0.39332744 0.17043723 0.011333643
0.39285162 0.17210075 0.01100907
0.39321542 0.17328262 0.011028077
0.39357919 0.17446448 0.011047085
0.39394295 0.17564633 0.011066092
0.39430675 0.17682818 0.011085099
0.39805847 0.16229734 0.012470827
0.39841971 0.16347091 0.012489702
0.39878094 0.16464449 0.012508575
0.3983025 0.16629867 0.012182806
0.39782459 0.16795494 0.011857032
0.39734745 0.16961323 0.011531314
0.39770964 0.17078991 0.011550237
0.39723331 0.17245133 0.011224547
0.39759582 0.17362906 0.011243488
0.39712048 0.17529361 0.010917847
0.39748329 0.17647235 0.010936804
0.39700899 0.17813995 0.010611243
0.39737213 0.17931974 0.010630217
0.39940834 0.17951766 0.01133819
0.39977086 0.18069538 0.011357131
0.4021993 0.15866806 0.012988393
0.40255895 0.15983646 0.013007184
0.40123829 0.16196184 0.012334438
0.40075883 0.1636118 0.012007548
0.40027994 0.16526386 0.011680653
0.39980164 0.16691798 0.011353792
0.39932412 0.16857415 0.011027008
0.39968568 0.16974877 0.011045898
0.39920899 0.17140807 0.010719121
0.39957085 0.17258371 0.010738028
0.39909524 0.17424607 0.01041133
0.39945742 0.17542276 0.010430253
0.39898264 0.17708828 0.010103575
0.39934516 0.178266 0.010122516
0.39970765 0.17944372 0.010141456
0.40007016 0.18062145 0.010160397
0.40043265 0.18179916 0.010179338
0.40827659 0.14851217 0.014829437
0.40863338 0.14967129 0.014848079
0.40814868 0.15130365 0.014519814
0.40766472 0.15293802 0.014191628
0.40718129 0.15457451 0.013863437
0.4058581 0.15668939 0.013188453
0.40453619 0.15880838 0.012513543
0.40321553 0.16093151 0.0118387
0.40273559 0.16257939 0.011510684
0.40225631 0.1642293 0.01118271
0.40177777 0.16588128 0.010854806
0.40129974 0.16753533 0.01052689
0.40082237 0.16919146 0.010199015
0.40034574 0.17084965 0.0098712035
0.40070727 0.17202425 0.0098900944
0.40023151 0.17368557 0.0095623024
0.39975646 0.17534889 0.0092345662
0.40011865 0.17652558 0.0092534907
0.39964446 0.17819206 0.0089257816
0.40000695 0.17936978 0.0089447228
0.40036947 0.18054751 0.0089636631
0.40073195 0.18172522 0.0089826034
0.41424295 0.14121811 0.016379865
0.41459718 0.14236896 0.016398374
0.41410923 0.14398988 0.016068887
0.4127802 0.14608392 0.015391469
0.41061091 0.14865425 0.014366156
0.41012594 0.15028444 0.014036849
0.4096415 0.15191673 0.013707537
0.40831724 0.15402631 0.013030376
0.40783438 0.15566376 0.012701148
0.40651235 0.15778057 0.012024097
0.4051916 0.1599015 0.011347119
0.40471131 0.16154723 0.011018024
0.40423173 0.16319498 0.010689006
0.40375271 0.16484486 0.010359977
0.40327433 0.16649677 0.010030974
0.40279669 0.16815075 0.0097020566
0.40231958 0.16980682 0.0093731275
0.4018431 0.17146495 0.0090442309
0.40136737 0.17312513 0.0087154061
0.40089214 0.1747874 0.0083865765
0.40041769 0.1764517 0.0080578104
0.39994377 0.17811812 0.0077290479
0.40030625 0.17929584 0.0077479882
0.40066877 0.18047355 0.007766929
0.40019611 0.18214411 0.0074382401
0.42022038 0.13397473 0.017947908
0.42057204 0.13511728 0.017966283
0.41923812 0.13719364 0.017286496
0.41790536 0.13927415 0.016606724
0.41741621 0.14088979 0.016276138
0.41524389 0.14344753 0.015247462
0.41391504 0.14554043 0.014567941
0.41258737 0.1476375 0.01388845
0.41210204 0.14926554 0.013558048
0.41161722 0.1508957 0.013227656
0.41029286 0.15300307 0.012548362
0.40980965 0.15463839 0.012218046
0.4084875 0.156753 0.011538867
0.40800598 0.15839346 0.011208672
0.40752497 0.16003603 0.010878473
0.40704462 0.16168064 0.010548321
0.40656501 0.16332731 0.010218217
0.40608594 0.16497606 0.0098881247
0.40476984 0.16711034 0.0092092622
0.40429235 0.16876425 0.0088792462
0.4038156 0.17042023 0.0085493075
0.40333939 0.17207831 0.0082193576
0.4028638 0.17373843 0.0078894477
0.4015528 0.17588924 0.0072108512
0.40107891 0.1775545 0.0068810475
0.40060556 0.17922188 0.0065512545
0.40096807 0.18039961 0.0065701948
0.40049568 0.18207011 0.0062404522
0.39918944 0.18423638 0.0055620973
0.42353302 0.13090551 0.018169271
0.42388344 0.13204394 0.018187581
0.42339104 0.13364816 0.017855749
0.42205659 0.1357213 0.017173775
0.41988134 0.1382664 0.016141789
0.41854975 0.14034885 0.015459956
0.41721952 0.14243542 0.014778228
0.41589057 0.14452612 0.014096558
0.41540381 0.14614898 0.013765003
0.4140771 0.1482469 0.01308345
0.41359192 0.14987493 0.012751978
0.41226742 0.15198009 0.012070541
0.41178393 0.15361325 0.011739182
0.41046157 0.1557257 0.011057832
0.40997967 0.15736403 0.010726557
0.4094983 0.15900443 0.010395277
0.40901768 0.1606469 0.010064061
0.4085376 0.16229148 0.009732848
0.40805814 0.16393811 0.0094016753
0.40757945 0.16558678 0.0090705585
0.40626419 0.16772193 0.0083896108
0.40578696 0.16937579 0.008058548
0.40447393 0.17151819 0.0073777172
0.40399829 0.17317724 0.0070467368
0.40268749 0.17532685 0.0063660224
0.40137795 0.17748062 0.0056853676
0.40090486 0.17914794 0.0053545204
0.40043241 0.18081734 0.0050237137
0.40079525 0.18199609 0.0050426712
0.40152088 0.1843536 0.0050805854
0.40188372 0.18553235 0.0050995424
0.42937687 0.12645721 0.019452952
0.42972505 0.12758841 0.019471144
0.4283874 0.12964898 0.01878689
0.42536584 0.13264516 0.017400293
0.42403138 0.13471608 0.016716214
0.42185616 0.13725895 0.015681017
0.42052457 0.13933916 0.014997087
0.41919413 0.14142355 0.014313187
0.41870612 0.14304113 0.013980525
0.41737792 0.14513277 0.013296741
0.41689152 0.14675553 0.012964155
0.41640565 0.1483804 0.012631586
0.41508073 0.15048233 0.011947999
0.41459644 0.15211235 0.011615505
0.41327375 0.15422153 0.010932035
0.41279116 0.1558567 0.010599662
0.41230911 0.15749393 0.010267278
0.41182768 0.15913329 0.0099349348
0.41134703 0.16077465 0.0096026547
0.41086686 0.16241811 0.0092703784
0.40955022 0.16454694 0.0085872235
0.40907168 0.16619556 0.00825503
0.40775725 0.16833162 0.0075719906
0.40644413 0.17047182 0.0068890257
0.4059681 0.17212872 0.006556958
0.40382156 0.17476466 0.0055232579
0.43100348 0.12433191 0.018989971
0.43135104 0.12546103 0.01900813
0.43169859 0.12659015 0.019026291
0.4303607 0.12864856 0.01833988
0.42818195 0.13117674 0.017301325
0.42684695 0.13324445 0.016615057
0.42467168 0.135784 0.015576686
0.42333955 0.13786101 0.014890576
0.42200878 0.13994214 0.014204547
0.42152008 0.14155656 0.013870788
0.42019147 0.14364496 0.013184853
0.41970438 0.14526455 0.012851177
0.4192178 0.14688624 0.012517497
0.41789246 0.14898494 0.011831759
0.41740748 0.1506118 0.011498169
0.41608435 0.15271775 0.010812546
0.41560099 0.15434979 0.01047904
0.41511834 0.15598384 0.01014559
0.41463622 0.15762001 0.0098121427
0.41415486 0.1592582 0.0094787655
0.413674 0.16089849 0.0091453847
0.41235694 0.1630241 0.0084600858
0.41104114 0.16515382 0.0077748392
0.4097265 0.16728771 0.0070896433
0.40757734 0.16991203 0.0060526347
0.40626559 0.17205523 0.0053675813
0.4385359 0.118988 0.021004973
0.43888059 0.12010783 0.021022983
0.43669614 0.12261514 0.019980909
0.43535638 0.12466515 0.019292297
0.43317541 0.12718384 0.018250406
0.43183851 0.12924312 0.017561935
0.42966104 0.13177319 0.016520228
0.42832699 0.13384177 0.015831914
0.42615303 0.13638322 0.01479039
0.42482188 0.13846114 0.014102218
0.42433238 0.14007242 0.013767332
0.42300341 0.14215754 0.013079275
0.42251563 0.14377396 0.012744496
0.42202836 0.14539249 0.012409711
0.42070261 0.14748795 0.011721829
0.42021692 0.14911166 0.011387136
0.4188934 0.15121436 0.010699355
0.41840932 0.15284322 0.010364751
0.41792598 0.15447411 0.010030197
0.41744319 0.15610711 0.0096956529
0.41696101 0.15774219 0.0093611423
0.41564256 0.15986145 0.0086736353
0.41432536 0.16198482 0.0079862019
0.41217306 0.16459657 0.0069458089
0.41085875 0.1667293 0.0062585184
0.44185081 0.11596054 0.021266919
0.44219422 0.11707622 0.021284861
0.44085133 0.11911473 0.020593934
0.43950987 0.12115733 0.019903095
0.43901205 0.12274063 0.019566707
0.43683073 0.12525497 0.018521618
0.43549296 0.12731002 0.017830957
0.43331513 0.12983572 0.016786065
0.43198022 0.1319001 0.016095553
0.4298059 0.13443717 0.015050844
0.42847386 0.13651085 0.014360467
0.42714319 0.13858861 0.0136702
0.42581379 0.14067052 0.012979995
0.42532521 0.1422838 0.012644087
0.42483738 0.14389911 0.012308236
0.42351118 0.14599136 0.011618203
0.4230248 0.14761189 0.011282405
0.42170084 0.14971137 0.010592481
0.42121607 0.15133707 0.010256766
0.42073193 0.15296482 0.0099210851
0.42024854 0.15459462 0.0095854672
0.41892871 0.15670754 0.008895766
0.41761002 0.15882465 0.0082061021
0.41545638 0.16142894 0.0071624676
0.41330457 0.16403946 0.0061189099
0.41115463 0.1666562 0.0050754375
0.44972548 0.11175708 0.023332801
0.45006603 0.11286346 0.023350593
0.44787806 0.11535386 0.022301951
0.445692 0.11785044 0.021253409
0.44350797 0.12035321 0.020204997
0.44132575 0.12286222 0.019156653
0.43998688 0.12491197 0.018463807
0.43780828 0.12743232 0.017415671
0.4364723 0.12949136 0.016722975
0.43429717 0.13202308 0.015675027
0.43296406 0.13409145 0.014982481
0.43079245 0.13663456 0.013934718
0.42946219 0.13871223 0.013242313
0.42813334 0.14079398 0.012550012
0.42764479 0.14240615 0.012213057
0.42631805 0.14449519 0.011520843
0.42499268 0.14658833 0.010828718
0.42450669 0.14820875 0.010491903
0.42402124 0.1498313 0.010155092
0.42269906 0.15193477 0.0094631333
0.42137805 0.15404244 0.0087712109
0.42005843 0.1561542 0.0080793928
0.41790354 0.15875213 0.0070324806
0.41658679 0.16087317 0.0063407971
0.41443542 0.16348249 0.0052940818
0.45000666 0.11168762 0.022208564
0.45371869 0.11095306 0.023652518
0.45405796 0.11205529 0.023670243
0.45102829 0.11500674 0.022261944
0.44800118 0.11796647 0.020853769
0.44665968 0.12000576 0.020158656
0.44447833 0.12251453 0.019107189
0.4422988 0.12502953 0.018055797
0.44096175 0.12708329 0.017360916
0.43878582 0.12960964 0.016309725
0.43745163 0.13167271 0.015614993
0.43527922 0.13421042 0.014563998
0.4331086 0.13675441 0.013513066
0.43177897 0.13883191 0.012818597
0.43045053 0.14091359 0.012124158
0.42912346 0.14299938 0.011429824
0.42695951 0.14556505 0.01037924
0.42647317 0.14718334 0.010041338
0.42514992 0.14928153 0.0093471948
0.42382783 0.15138388 0.0086530885
0.42250714 0.15349035 0.007959093
0.42035115 0.15608187 0.0069089187
0.4181971 0.15867962 0.0058588586
0.41688085 0.16080053 0.005165081
0.46479115 0.10117812 0.027486339
0.46512598 0.10226588 0.027503833
0.46546081 0.10335365 0.027521327
0.46242517 0.10628209 0.026108459
0.46023431 0.10875762 0.025053281
0.45636144 0.11216381 0.023283077
0.45333332 0.11511712 0.021870587
0.45199057 0.11715003 0.021173287
0.449808 0.11965244 0.020118549
0.44762734 0.12216105 0.019063903
0.4454487 0.12467583 0.018009387
0.44327185 0.12719686 0.016954942
0.44193661 0.12925462 0.016258018
0.43976337 0.13178699 0.015203778
0.43675277 0.13479714 0.013792201
0.43458357 0.13734299 0.012738146
0.43325481 0.1394214 0.012041594
0.4310891 0.14197861 0.010987722
0.4297632 0.14406632 0.010291318
0.42760101 0.14663491 0.0092376443
0.42627797 0.14873193 0.0085413763
0.42411926 0.15131187 0.0074878852
0.42279908 0.15341823 0.0067917672
0.4206439 0.15600955 0.0057384591
0.46844083 0.099281833 0.027815778
0.46877438 0.10036546 0.027833205
0.4682653 0.10190812 0.027491994
0.46691445 0.10391301 0.026792154
0.46388072 0.10684431 0.025375104
0.46169129 0.10932171 0.024316797
0.45866245 0.11226851 0.022900032
0.45731831 0.11429509 0.022200532
0.4551346 0.1167911 0.021142539
0.45295283 0.11929331 0.020084638
0.45077294 0.12180173 0.019026844
0.44859499 0.12431635 0.017969143
0.44641903 0.12683715 0.016911579
0.44424489 0.12936418 0.015854077
0.44039497 0.13284037 0.014079755
0.4382253 0.13538188 0.013022486
0.43605751 0.13792959 0.011965332
0.43389162 0.14048351 0.010908262
0.43089014 0.14351922 0.0094929142
0.42872843 0.14608659 0.0084360605
0.4265686 0.14866012 0.0073793214
0.42441067 0.15123989 0.0063226679
0.42225468 0.15382586 0.0052661141
0.47344294 0.095394708 0.028855823
0.47377455 0.096472137 0.028873151
0.47157797 0.098923482 0.027811274
0.4710682 0.10046299 0.027468966
0.46971685 0.10246468 0.026766937
0.4666833 0.10539258 0.02534567
0.46533522 0.10740457 0.024643838
0.46314722 0.10988384 0.023582423
0.46180201 0.11190513 0.022880754
0.46045795 0.11393058 0.022179106
0.45827517 0.11642635 0.021117987
0.45693398 0.1184611 0.020416504
0.45391509 0.1214366 0.018995989
0.45173791 0.12395103 0.01793514
0.44872379 0.12694202 0.016514875
0.4431963 0.13135557 0.014016184
0.44102657 0.13389376 0.012955733
0.43885863 0.13643818 0.011895365
0.43585491 0.13946334 0.010475634
0.43201646 0.14297228 0.0086965878
0.42985532 0.14553836 0.0076365992
0.42685923 0.14858833 0.006217252
0.42470211 0.15116788 0.0051574502
0.47540295 0.094415374 0.028482616
0.47573394 0.095490739 0.028499911
0.4735375 0.097939827 0.027434867
0.47302735 0.099477202 0.027091464
0.47167599 0.10147665 0.026387338
0.47032577 0.10348026 0.025683248
0.46897694 0.10548797 0.024979254
0.46762937 0.10749982 0.024275333
0.46628311 0.10951581 0.023571465
0.46493807 0.11153591 0.022867678
0.46359426 0.11356021 0.02216392
0.46141213 0.11605583 0.021099616
0.46091059 0.11762113 0.020756671
0.45705375 0.12106565 0.018971337
0.45655462 0.12263926 0.018628495
0.45018786 0.12751439 0.015761737
0.44382617 0.13240606 0.012895259
0.44082043 0.13542058 0.011471175
0.43614239 0.1393923 0.0093261851
0.43230525 0.14290093 0.0075418823
0.43014491 0.14546682 0.0064787464
0.42714986 0.14851652 0.0050551966
0.47787473 0.091908261 0.028458254
0.47820479 0.092980519 0.028475499
0.47684979 0.094966397 0.027769063
0.47549608 0.096956395 0.027062677
0.47498545 0.098491684 0.026718166
0.47447547 0.10002903 0.026373688
0.47312495 0.10202938 0.025667468
0.47177568 0.10403385 0.02496133
0.47126827 0.10557948 0.024616979
0.46992123 0.1075912 0.023910956
0.46941549 0.10914195 0.023566717
0.46807057 0.11116094 0.022860777
0.46588776 0.11365116 0.02179327
0.46454573 0.11567945 0.021087471
0.46152765 0.11865029 0.0196585
0.45935047 0.12115917 0.018591257
0.4580133 0.12320293 0.01788575
0.44997537 0.12902941 0.014287507
0.44194379 0.13487656 0.010689612
0.43642986 0.13932128 0.0081767216
0.43259406 0.14282958 0.0063871774
0.4789902 0.091386266 0.027731635
0.4793199 0.092457481 0.027748862
0.47796503 0.094442211 0.027040269
0.4774535 0.095973268 0.026694674
0.47694251 0.097506404 0.026349068
0.47643226 0.099041589 0.026003532
0.47592255 0.10057888 0.025658008
0.47457287 0.10258013 0.024949705
0.47406474 0.10412258 0.024604255
0.47355735 0.10566706 0.024258869
0.47305048 0.10721365 0.023913486
0.47170493 0.10922834 0.02320542
0.46952152 0.11171427 0.022134664
0.46734005 0.1142064 0.021064008
0.46432209 0.11717388 0.019630769
0.46214473 0.11967944 0.018560328
0.45913142 0.12266245 0.017127311
0.45528325 0.12612599 0.015331795
0.44725239 0.13196628 0.0117233
0.43588054 0.13972455 0.0066646757
0.48230448 0.088433474 0.02808187
0.48263294 0.089500561 0.028099032
0.48211914 0.091023281 0.02775225
0.47992188 0.093461446 0.026677581
0.47940987 0.09499038 0.02633086
0.4788985 0.096521407 0.025984174
0.47838789 0.098054454 0.025637565
0.4778778 0.099589594 0.025290946
0.47736844 0.10112679 0.024944389
0.47685963 0.10266608 0.02459785
0.47635144 0.10420742 0.024251329
0.475844 0.10575082 0.023904873
0.47449803 0.10776228 0.023194648
0.47231445 0.11024491 0.022120681
0.4701328 0.11273373 0.021046825
0.46711493 0.11569785 0.019609336
0.4640995 0.11867025 0.018171949
0.46108672 0.12165091 0.016734725
0.45723921 0.12511203 0.014933934
0.45255795 0.12905674 0.012769597
0.43533167 0.14012775 0.0051504918
0.48426104 0.087459475 0.027727662
0.48458883 0.088524483 0.027744791
0.48323256 0.090500653 0.027031878
0.48187757 0.092480972 0.026319047
0.4813652 0.094007775 0.025971254
0.48085356 0.095536619 0.025623526
0.48034245 0.097067572 0.025275785
0.47983199 0.098600581 0.024928078
0.47932228 0.10013565 0.024580449
0.47881308 0.10167279 0.024232822
0.47830462 0.10321198 0.023885245
0.4777967 0.10475328 0.023537684
0.47645062 0.10676253 0.022825304
0.47426718 0.1092429 0.021748168
0.47208568 0.11172948 0.020671133
0.46906823 0.11469126 0.019229408
0.46605322 0.11766133 0.017787771
0.46220353 0.12111076 0.01598154
0.45919403 0.1240984 0.014540232
0.45284045 0.12898695 0.011640119
0.48757493 0.084517904 0.028092803
0.48790148 0.085578777 0.028109863
0.48654383 0.087548621 0.027394759
0.48434561 0.089978136 0.026313646
0.48383221 0.091500737 0.025964731
0.48331958 0.093025394 0.025615882
0.48280746 0.094552144 0.025267035
0.48229599 0.096080951 0.024918208
0.48178524 0.097611815 0.024569457
0.48127505 0.099144749 0.024220711
0.48076546 0.10067978 0.023871996
0.48025665 0.10221684 0.023523346
0.47890949 0.10422079 0.022808788
0.4775635 0.10622893 0.022094283
0.47538066 0.10870802 0.021013997
0.47319964 0.11119337 0.019933783
0.47018281 0.11415388 0.018487809
0.46716863 0.11712266 0.017041998
0.4641569 0.12009971 0.01559629
0.46031106 0.12355708 0.013784937
0.45228651 0.12939027 0.010144821
0.4892036 0.082487792 0.027732089
0.48952949 0.083546601 0.027749117
0.4890132 0.085058816 0.027398985
0.48765573 0.08702749 0.02668177
0.48629957 0.089000292 0.02596462
0.48578581 0.090520769 0.025614619
0.48527279 0.092043296 0.02526468
0.48476028 0.0935679 0.024914747
0.48424855 0.095094554 0.024564875
0.48373735 0.096623324 0.024215009
0.48322678 0.098154128 0.023865175
0.4818776 0.10014968 0.023148391
0.4813686 0.10168567 0.022798639
0.48002166 0.10368847 0.022081973
0.47867596 0.10569541 0.021365372
0.47649351 0.10817333 0.020281892
0.47431293 0.11065744 0.019198513
0.47129694 0.11361662 0.017748348
0.46744639 0.11705404 0.015931424
0.46527249 0.11955985 0.014848392
0.4605912 0.12348787 0.012664903
0.49200034 0.081067555 0.027760891
0.491483 0.08257556 0.027409635
0.49012449 0.084538929 0.026690243
0.48960876 0.08605212 0.026339073
0.48825246 0.088022731 0.025619796
0.48773846 0.08954104 0.025268737
0.48722494 0.091061451 0.024917683
0.4867121 0.092583947 0.024566676
0.48535994 0.094567992 0.0238476
0.48484877 0.096095614 0.023496693
0.48433813 0.097625345 0.023145787
0.48382816 0.099157125 0.022794915
0.4833189 0.10069095 0.022444122
0.4811334 0.10315626 0.021357294
0.47978792 0.10516202 0.020638568
0.47676811 0.10810549 0.019183924
0.47458833 0.11058941 0.018097382
0.47157338 0.11354832 0.016643031
0.46856099 0.11651554 0.015188784
0.46555105 0.11949103 0.013734655
0.48968995 0.088561594 0.024927028
0.48917606 0.090079889 0.024574887
0.48866293 0.091600195 0.024222821
0.48731056 0.093582079 0.02350159
0.48679903 0.095107578 0.023149595
0.48628804 0.096635163 0.022797601
0.48577777 0.098164789 0.022445686
0.48442954 0.10016011 0.021724671
0.48224449 0.10262419 0.020634664
0.48089921 0.10462879 0.019913828
0.47788024 0.10757092 0.018454995
0.47486371 0.11052137 0.016996264
0.47184983 0.11348003 0.015537698
0.46883848 0.11644699 0.014079263
0.46582958 0.11942222 0.012620932
0.49164039 0.087582417 0.024589522
0.49112612 0.089098565 0.024236292
0.49061263 0.090616748 0.02388314
0.48926026 0.092596412 0.023159811
0.48874822 0.094119787 0.022806711
0.48823684 0.095645256 0.022453632
0.48688766 0.097635239 0.021730455
0.48553973 0.099629395 0.021007359
0.48335516 0.10209222 0.019914187
0.4811725 0.10456128 0.018821117
0.4781546 0.10750315 0.017358081
0.47513911 0.11045334 0.015895149
0.47128963 0.11388045 0.014062304
0.46827966 0.11684818 0.012599684
0.46610814 0.11935341 0.011507194
0.49307525 0.088117473 0.023901943
0.49256128 0.089633554 0.023547675
0.49120879 0.091611013 0.022822205
0.4906964 0.093132272 0.022468017
0.48934612 0.095116965 0.021742664
0.48799714 0.097105809 0.021017361
0.48664942 0.099098779 0.020292141
0.48446533 0.1015604 0.019195804
0.48144579 0.10449376 0.017728403
0.47842893 0.10743538 0.016261166
0.4745779 0.11085287 0.014422931
0.47073007 0.11428072 0.012584846
0.46855742 0.11677956 0.01148911
0.49502322 0.087136671 0.023571754
0.49450886 0.088650636 0.023216398
0.49315625 0.090625882 0.022488799
0.49096626 0.093065597 0.021388952
0.48961654 0.095050164 0.020661505
0.48826808 0.09703888 0.019934108
0.48692089 0.099031717 0.019206779
0.48473758 0.10149314 0.018107295
0.48171911 0.10442624 0.016635692
0.47870329 0.1073676 0.015164237
0.47485355 0.11078478 0.01332076
0.47100702 0.11421229 0.01147742
0.46632788 0.11811975 0.0092621073
0.4952915 0.087070383 0.022498999
0.49477741 0.088584289 0.022142589
0.49342534 0.090559408 0.021412881
0.49207455 0.092538677 0.020683257
0.49156299 0.094060838 0.020326979
0.49188986 0.095122755 0.020344058
0.48802969 0.098501332 0.018494694
0.48500982 0.10142589 0.017018786
0.48199239 0.10435873 0.015542965
0.47897762 0.10729983 0.014067324
0.47512922 0.11071667 0.012218575
0.471284 0.11414386 0.010369993
0.46660641 0.11805093 0.0081483852
0.49588475 0.08805982 0.021443222
0.49453288 0.090033785 0.020711405
0.49402034 0.091551736 0.020354006
0.49434623 0.09261056 0.020371035
0.49299723 0.09459383 0.019639369
0.49081233 0.09704452 0.018533407
0.48611882 0.10089435 0.01630456
0.48310223 0.10382587 0.01482458
0.47925195 0.10723205 0.012970409
0.47456896 0.111116 0.010742125
0.47072536 0.11454388 0.0088883033
0.46437922 0.11939054 0.0059119249
0.49731609 0.08859019 0.020762896
0.49680296 0.090104952 0.020404425
0.49545288 0.092082918 0.019670565
0.494104 0.094065078 0.018936744
0.49191964 0.096514516 0.017827649
0.48973712 0.09897019 0.016718622
0.48337525 0.10375842 0.013732908
0.47869033 0.10763061 0.011498131
0.47484487 0.11104783 0.0096389009
0.47016737 0.11494376 0.0074045355
0.49926001 0.087605938 0.020444222
0.49790874 0.089578651 0.019708157
0.4965589 0.091555476 0.018972173
0.49521032 0.093536414 0.018236257
0.49302635 0.095984653 0.017123967
0.49000803 0.098903254 0.015635354
0.48364827 0.10369097 0.012641251
0.47896492 0.10756277 0.010400163
0.47512078 0.11097967 0.0085356766
0.50794208 0.067173503 0.024821158
0.50826132 0.068210602 0.024837837
0.50773937 0.069695279 0.024476759
0.49901414 0.089052454 0.019013999
0.49766448 0.091028094 0.018275905
0.49631611 0.093007877 0.017537879
0.49413261 0.095454879 0.01642241
0.49111494 0.098372236 0.014929549
0.48392132 0.10362352 0.011549579
0.47923955 0.10749493 0.0093021942
0.47539672 0.1109115 0.0074324515
0.51041192 0.064738095 0.024887169
0.51073021 0.065772094 0.024903797
0.50011903 0.088526376 0.01832195
0.49876946 0.090500891 0.017581701
0.49658495 0.09294147 0.016463015
0.49440223 0.095388271 0.015344398
0.49138561 0.098305367 0.013847349
0.48419434 0.10355607 0.010457921
0.47951415 0.10742709 0.0082042264
0.47483787 0.11131047 0.0059507755
0.51151621 0.06422887 0.02421635
0.51183414 0.065261833 0.024232963
0.50122327 0.088000454 0.01763198
0.499874 0.089973785 0.016889637
0.49685377 0.092875056 0.015388166
0.49467182 0.09532167 0.014266401
0.49165627 0.098238505 0.012765136
0.48363212 0.10395364 0.0089866649
0.47978875 0.10735925 0.0071062581
0.51398563 0.061801344 0.024292974
0.51430261 0.062831201 0.024309536
0.51293766 0.064751662 0.023564264
0.50232702 0.087474652 0.016944133
0.5001418 0.089907631 0.015818989
0.49712259 0.092808641 0.014313317
0.49494144 0.095255062 0.013188389
0.49192694 0.098171636 0.011682922
0.48307055 0.10435106 0.0075133746
0.47922879 0.10775736 0.0056277127
0.51424736 0.061736684 0.023246486
0.51456434 0.062766545 0.023263048
0.51404065 0.064241625 0.022897648
0.51351756 0.065718792 0.022532264
0.50478041 0.08498212 0.017005026
0.50343025 0.086948991 0.01625835
0.50040954 0.089841478 0.014748328
0.4973914 0.092742234 0.013238453
0.49521106 0.095188454 0.012110378
0.48718771 0.10088784 0.0083106784
0.4825094 0.10474838 0.0060379314
0.51535016 0.061228916 0.022583064
0.51566684 0.062257748 0.02259961
0.5151431 0.063731745 0.022233138
0.51546007 0.064761601 0.022249701
0.50588286 0.084457748 0.016323462
0.50369698 0.086883105 0.01519192
0.50067735 0.089775331 0.013677682
0.49766022 0.09267582 0.012163605
0.4946456 0.095584624 0.010649616
0.48662519 0.10128438 0.0068394202
0.51697731 0.059251487 0.022289343
0.51729333 0.060278241 0.022305856
0.51592833 0.062193155 0.021554176
0.51540482 0.063667081 0.02118665
0.5157218 0.064696938 0.021203212
0.5136354 0.07061746 0.019733507
0.51311535 0.072102793 0.019366134
0.50833589 0.081973098 0.016394984
0.50614882 0.084392048 0.015260166
0.50396365 0.086817212 0.014125461
0.50094509 0.089709178 0.012607034
0.49792907 0.092609406 0.011088755
0.49408075 0.095980629 0.0091867903
0.48606318 0.10168079 0.0053660683
0.51860458 0.057278443 0.02199989
0.51891994 0.058303129 0.022016369
0.51755428 0.060213778 0.02126253
0.51703006 0.061684534 0.0208939
0.51734644 0.062712312 0.020910429
0.51682311 0.064186208 0.020541834
0.5163005 0.065662138 0.020173287
0.51557487 0.069652133 0.019452889
0.5150544 0.07113532 0.019084442
0.51162565 0.079038605 0.016857859
0.50943714 0.081450135 0.015719792
0.50725061 0.083867863 0.014581794
0.50423038 0.086751319 0.013059016
0.50121284 0.089643024 0.011536388
0.497363 0.093004599 0.0096290167
0.48934373 0.098689631 0.0057975939
0.51970589 0.056773286 0.021344906
0.52002096 0.057796933 0.021361368
0.52033609 0.058820594 0.021377832
0.5189712 0.060732123 0.0206219
0.51844728 0.06220283 0.020252215
0.51792395 0.063675575 0.019882564
0.51824033 0.064703368 0.019899093
0.51771796 0.066179268 0.019529507
0.51719624 0.067657195 0.019159939
0.51667517 0.069137193 0.018790403
0.51615471 0.07061927 0.018420903
0.51563489 0.072103426 0.018051419
0.51511574 0.073589608 0.017681999
0.51459718 0.075077914 0.017312583
0.51407927 0.076568268 0.016943227
0.51272583 0.078517027 0.016187895
0.5105378 0.08092732 0.015046634
0.50751626 0.083802231 0.013519552
0.50449711 0.086685427 0.011992572
0.5006457 0.090037368 0.010079781
0.49679747 0.093399666 0.008167184
0.51996607 0.056709018 0.020304713
0.52028114 0.057732664 0.020321175
0.52059621 0.058756325 0.020337639
0.51923186 0.060667723 0.019579614
0.51954758 0.061693449 0.019596109
0.51902425 0.063165121 0.019225402
0.51934028 0.06419187 0.019241916
0.5188179 0.065666631 0.018871244
0.51913422 0.066694424 0.018887773
0.51777494 0.068622395 0.018130014
0.51725447 0.07010337 0.01775944
0.5167346 0.071586408 0.017388916
0.51621532 0.073071539 0.017018396
0.51569682 0.07455869 0.016647939
0.5151788 0.076047957 0.016277499
0.5138256 0.077995546 0.01552007
0.51163805 0.080404609 0.014375643
0.50861722 0.083278231 0.012844328
0.50476384 0.086619534 0.010926113
0.50174838 0.089510724 0.0093950797
0.49706683 0.093333125 0.0070902267
0.52075189 0.055181392 0.01963646
0.52106667 0.05620401 0.019652907
0.52138144 0.057226632 0.019669352
0.52169621 0.05824925 0.019685799
0.52033198 0.060159512 0.018925633
0.52064741 0.061184198 0.018942112
0.52012402 0.062654763 0.018570321
0.52043974 0.063680485 0.018586816
0.52075547 0.064706214 0.018603312
0.52023333 0.066180922 0.018231601
0.51971179 0.067657687 0.017859923
0.51919091 0.069136545 0.017488262
0.51867068 0.070617452 0.017116651
0.51815104 0.072100423 0.016745072
0.51763213 0.073585473 0.016373511
0.51627785 0.075527765 0.015613877
0.51492476 0.077474244 0.014854308
0.51190245 0.080339298 0.013318643
0.50971758 0.082754381 0.012171182
0.50586528 0.086094297 0.010247709
0.50201619 0.08944457 0.0083244322
0.49817026 0.09280517 0.0064013069
0.58520222 -0.031163376 0.054082759
0.58548737 -0.030236915 0.054097656
0.58320624 -0.028137403 0.052941963
0.58263725 -0.026815798 0.052566748
0.58206892 -0.025492113 0.052191556
0.58150119 -0.024166355 0.051816367
0.58093411 -0.022838546 0.051441252
0.58036768 -0.021508671 0.05106616
0.57980192 -0.020176718 0.050691098
0.57923675 -0.018842705 0.050316069
0.57952511 -0.01790591 0.050331138
0.57981342 -0.016969105 0.050346203
0.58010179 -0.01603231 0.050361268
0.57953817 -0.014693107 0.04998631
0.57982683 -0.013755279 0.050001394
0.5801155 -0.012817442 0.050016474
0.58040416 -0.011879613 0.050031558
0.58069283 -0.010941776 0.050046641
0.58098149 -0.010003948 0.050061721
0.5829702 -0.009883306 0.050856642
0.58410794 -0.0093571683 0.051261585
0.58439565 -0.0084224381 0.051276617
0.52038223 0.053071946 0.018564429
0.52237856 0.053217415 0.019359717
0.52269268 0.054237969 0.019376131
0.52132654 0.056139808 0.018613769
0.52164131 0.057162426 0.018630214
0.52195609 0.058185048 0.018646661
0.52143162 0.059651446 0.018273747
0.5217467 0.060675092 0.018290211
0.52122325 0.062144551 0.017917361
0.52153862 0.063169234 0.01793384
0.52185404 0.064193919 0.017950319
0.52216941 0.065218605 0.017966799
0.52164757 0.066693254 0.017594034
0.52112633 0.068169974 0.017221287
0.52060574 0.069648735 0.016848586
0.52008569 0.071129598 0.01647592
0.51956636 0.072612524 0.016103288
0.51821202 0.074552611 0.015341526
0.51602352 0.076953016 0.014190656
0.51383686 0.079359628 0.013039915
0.51081753 0.08223065 0.011500175
0.50696623 0.085569203 0.0095714293
0.5031181 0.088918112 0.0076428652
0.49927318 0.092277348 0.0057144812
0.58429641 -0.031760152 0.052735157
0.58543766 -0.031221543 0.053141337
0.58572286 -0.030295081 0.053156238
0.58344251 -0.028195763 0.051997393
0.58287376 -0.026874224 0.051621128
0.58230573 -0.025550606 0.051244881
0.58173823 -0.024224911 0.050868653
0.58117139 -0.022897167 0.050492484
0.58060521 -0.021567358 0.050116334
0.58003968 -0.02023547 0.049740221
0.57947481 -0.018901521 0.049364153
0.57976317 -0.017964724 0.049379218
0.58005148 -0.017027922 0.049394287
0.58033985 -0.016091125 0.049409352
0.57977653 -0.014751988 0.04903334
0.58006519 -0.01381416 0.04904842
0.58035386 -0.012876323 0.049063504
0.58149326 -0.012343933 0.049469616
0.58263201 -0.011813585 0.049875665
0.5837701 -0.011285323 0.050281696
0.58490753 -0.010759113 0.050687693
0.58604437 -0.01023497 0.051093642
0.58633143 -0.0093023116 0.051108643
0.58746731 -0.0087812906 0.051514573
0.58860254 -0.0082623251 0.051920451
0.588889 -0.0073317336 0.051935419
0.59002328 -0.0068158675 0.052341234
0.5911569 -0.0063020666 0.052747034
0.5914427 -0.0053735333 0.052761968
0.59172851 -0.0044450145 0.052776899
0.52232379 0.0521328 0.018306276
0.5226379 0.05315334 0.018322688
0.52295208 0.054173894 0.018339101
0.52242631 0.055635039 0.017965065
0.52274078 0.056656618 0.017981496
0.5230552 0.057678211 0.017997924
0.52253073 0.059143461 0.017623968
0.52284551 0.060166083 0.017640416
0.52316028 0.061188702 0.017656861
0.52347505 0.062211324 0.017673308
0.52378976 0.063233942 0.017689753
0.52410454 0.064256564 0.0177062
0.52358228 0.065729097 0.017332347
0.52306062 0.067203663 0.016958527
0.52253968 0.068680309 0.016584739
0.52201933 0.070159018 0.016210986
0.52149963 0.071639776 0.015837265
0.52014512 0.073577717 0.015073363
0.51795673 0.075975858 0.013919326
0.51493555 0.078837298 0.01237522
0.51191682 0.08170706 0.010831218
0.50806648 0.085044257 0.0088972142
0.50421935 0.088391803 0.0069633904
0.58595896 -0.033519365 0.052562486
0.58624381 -0.032593947 0.052577369
0.58481759 -0.030890893 0.051807597
0.58510309 -0.0299634 0.051822513
0.58367872 -0.028254125 0.051052827
0.58311027 -0.026932651 0.050675508
0.58254248 -0.025609098 0.050298207
0.58197522 -0.024283467 0.049920935
0.58140868 -0.022955788 0.049543716
0.58084279 -0.021626046 0.049166512
0.5802775 -0.020294221 0.048789345
0.57971287 -0.018960338 0.048412222
0.58000124 -0.018023541 0.048427287
0.57943749 -0.016686536 0.048050188
0.57972616 -0.015748708 0.048065271
0.58001482 -0.01481087 0.048080351
0.58030349 -0.013873042 0.048095435
0.58059216 -0.012935205 0.048110519
0.58173132 -0.01240275 0.048517685
0.58286983 -0.011872336 0.048924789
0.58400762 -0.01134401 0.049331874
0.58514482 -0.010817735 0.049738925
0.58628136 -0.010293526 0.050145928
0.58656847 -0.0093608685 0.050160926
0.58770412 -0.0088397823 0.050567895
0.58883905 -0.0083207516 0.050974831
0.58912551 -0.0073901601 0.050989799
0.59025949 -0.0068742293 0.051396668
0.59139287 -0.0063603632 0.051803522
0.59167868 -0.00543183 0.051818453
0.59196448 -0.0045033111 0.051833387
0.59309667 -0.003993609 0.052240171
0.59338212 -0.003066116 0.05225509
0.59366763 -0.002138623 0.052270006
0.52142817 0.051484551 0.016861264
0.52258319 0.052068725 0.017269246
0.5228973 0.053089265 0.01728566
0.52321142 0.054109819 0.017302072
0.52268595 0.0555709 0.016926982
0.52300042 0.056592479 0.016943412
0.52331483 0.057614073 0.01695984
0.52362931 0.058635652 0.016976271
0.52394372 0.059657235 0.016992699
0.5242582 0.060678829 0.01700913
0.52457261 0.061700407 0.01702556
0.52488708 0.062722005 0.017041989
0.5252015 0.063743584 0.017058419
0.52467918 0.065214977 0.016683523
0.52499396 0.066237599 0.01669997
0.52447259 0.067712128 0.016325081
0.52395183 0.069188699 0.015950253
0.5225963 0.071121305 0.015184159
0.52124196 0.073058061 0.014418145
0.51905411 0.075454958 0.013260944
0.51686817 0.077858083 0.012103828
0.51301569 0.081183575 0.010164399
0.50916636 0.084519438 0.0082251364
0.50532025 0.087865621 0.0062860399
0.58619416 -0.033577468 0.051622123
0.58647901 -0.032652047 0.051637005
0.58505332 -0.030949125 0.05086514
0.5844838 -0.029631831 0.050486669
0.583915 -0.028312488 0.050108261
0.58334678 -0.026991079 0.049729887
0.58277923 -0.025667589 0.049351543
0.58221227 -0.024342025 0.048973206
0.58164597 -0.023014411 0.048594933
0.58108032 -0.021684732 0.048216689
0.58051533 -0.020352973 0.047838479
0.57995099 -0.019019153 0.047460306
0.57938719 -0.017683253 0.047082134
0.57967585 -0.016745416 0.047097217
0.57996452 -0.015807588 0.047112297
0.58025318 -0.014869751 0.047127381
0.57969105 -0.013528689 0.046749324
0.58083051 -0.012994086 0.047157548
0.58111918 -0.012056257 0.047172628
0.58225775 -0.011524762 0.047580834
0.58339566 -0.010995324 0.047988974
0.58453292 -0.010467959 0.048397083
0.58566952 -0.0099426592 0.048805159
0.58595687 -0.0090089617 0.048820172
0.58709258 -0.0084867608 0.049228199
0.58822763 -0.0079666423 0.049636219
0.58851439 -0.00703501 0.049651202
0.58964843 -0.0065179882 0.050059143
0.58993489 -0.0055873892 0.050074108
0.59106797 -0.0050734733 0.050482001
0.59220046 -0.0045616087 0.050889861
0.59333235 -0.0040518404 0.051297713
0.59361786 -0.0031243474 0.051312629
0.5939033 -0.0021968544 0.051327545
0.59334368 -0.00084749068 0.050949592
0.52168781 0.051420409 0.015823195
0.52368283 0.051567297 0.016624823
0.52399665 0.052586809 0.01664122
0.52347076 0.054045744 0.016265042
0.52378494 0.055066299 0.016281456
0.52409905 0.056086853 0.016297869
0.52441317 0.057107408 0.016314281
0.52472728 0.058127962 0.016330695
0.52504146 0.059148517 0.016347108
0.52535558 0.060169056 0.01636352
0.52566969 0.061189611 0.016379934
0.52598381 0.062210165 0.016396346
0.52629793 0.063230723 0.016412759
0.5266121 0.064251274 0.016429173
0.52609003 0.065722622 0.016053209
0.5264045 0.066744201 0.016069638
0.52588338 0.068218634 0.015693724
0.52452767 0.070149049 0.014925501
0.52317327 0.072083607 0.014157346
0.52098554 0.074478261 0.012996963
0.5179655 0.07733608 0.01144439
0.51411402 0.080660239 0.0094996877
0.51026571 0.083994724 0.0075551523
0.50642049 0.087339573 0.0056107529
0.58642936 -0.033635568 0.050681759
0.58671421 -0.03271015 0.050696641
0.585289 -0.031007357 0.049922667
0.58471978 -0.029690128 0.049543157
0.58415121 -0.02837085 0.049163695
0.5835833 -0.027049504 0.048784263
0.58301598 -0.025726082 0.048404869
0.5815959 -0.02400673 0.047631145
0.58103019 -0.022678148 0.047251832
0.58046514 -0.021347487 0.046872552
0.57990068 -0.020014767 0.046493307
0.57933688 -0.018679963 0.04611408
0.57962555 -0.017742135 0.046129163
0.5790627 -0.016404236 0.04575
0.57935166 -0.015465367 0.045765098
0.57964069 -0.014526504 0.045780197
0.57992965 -0.013587635 0.045795295
0.58021861 -0.012648772 0.045810398
0.58050764 -0.011709903 0.045825496
0.5816462 -0.011177301 0.046234742
0.58278418 -0.010646783 0.046643969
0.58392149 -0.010118312 0.047053147
0.58505815 -0.0095919147 0.047462292
0.58534586 -0.0086571835 0.047477324
0.58648157 -0.0081338855 0.04788642
0.58761668 -0.0076126521 0.048295483
0.58790374 -0.0066799875 0.048310481
0.5890379 -0.0061618774 0.04871951
0.58932465 -0.0052302531 0.048734494
0.58961141 -0.0042986139 0.048749473
0.59074426 -0.0037846328 0.04915842
0.59103072 -0.0028540338 0.049173385
0.59300804 -0.0027628534 0.049976211
0.59329385 -0.0018343204 0.049991146
0.59357965 -0.00090578728 0.050006077
0.59470999 -0.00040010078 0.050414905
0.59583968 0.00010355143 0.050823685
0.59612483 0.0010300187 0.050838586
0.59641004 0.0019564717 0.050853483
0.52110702 0.051792506 0.014391461
0.52394193 0.051503286 0.015588834
0.52425575 0.052522801 0.015605231
0.52373016 0.053981669 0.015228014
0.52404428 0.055002224 0.015244426
0.52435839 0.056022778 0.015260839
0.52467251 0.057043333 0.015277253
0.52498668 0.058063887 0.015293665
0.5261386 0.058639914 0.015703609
0.52645242 0.059659429 0.015720004
0.52676624 0.060678944 0.015736401
0.52708006 0.061698455 0.015752798
0.52739382 0.062717989 0.015769195
0.52770764 0.063737497 0.01578559
0.52802145 0.064757012 0.015801987
0.52749968 0.066228308 0.015424969
0.52697855 0.067701653 0.015047984
0.52645802 0.069177054 0.014671047
0.52510351 0.071109399 0.013900749
0.52291596 0.073501773 0.012737172
0.51906222 0.076814257 0.010787016
0.51604545 0.079679057 0.0092303846
0.5113644 0.083470173 0.0068872469
0.5866645 -0.033693671 0.049741395
0.58694935 -0.032768253 0.049756277
0.58552474 -0.031065589 0.04898021
0.58495575 -0.029748423 0.048599642
0.58438742 -0.02842921 0.048219126
0.58296603 -0.026716204 0.047443211
0.58239925 -0.025391802 0.047062762
0.58183318 -0.024065351 0.046682376
0.58126771 -0.022736834 0.046302009
0.58070296 -0.021406239 0.045921676
0.5801388 -0.020073583 0.045541391
0.57957518 -0.018738845 0.045161109
0.57901233 -0.017402051 0.044780873
0.5793013 -0.016463181 0.044795975
0.57959026 -0.015524312 0.044811074
0.57987928 -0.01458545 0.044826172
0.57931799 -0.013243491 0.044446036
0.57960725 -0.012303589 0.044461153
0.57989657 -0.011363687 0.044476267
0.5810352 -0.01082998 0.04488657
0.58217323 -0.010298354 0.045296852
0.5833106 -0.0097688017 0.045707118
0.58444732 -0.0092412997 0.046117317
0.58473539 -0.0083055366 0.046132367
0.58587116 -0.00778114 0.046542533
0.58700627 -0.0072588087 0.046952669
0.58729368 -0.0063251113 0.046967681
0.58842784 -0.0058058798 0.04737775
0.5887149 -0.0048732297 0.047392752
0.58900201 -0.0039405646 0.04740775
0.59013492 -0.0034254813 0.047817782
0.59042168 -0.0024938567 0.047832765
0.59155363 -0.0019818761 0.048242733
0.59268498 -0.0014719471 0.048652664
0.59297109 -0.00054238824 0.048667613
0.59494573 -0.00045833222 0.049472447
0.59607512 4.5384219e-05 0.049882267
0.59636027 0.00097185146 0.049897168
0.59664547 0.0018983044 0.049912065
0.59777361 0.0023978902 0.050321832
0.59805846 0.0033233175 0.050336715
0.59918559 0.0038197972 0.050746433
0.59947014 0.0047441847 0.050761301
0.5225215 0.052313711 0.013763457
0.52451485 0.052458789 0.014569256
0.52482867 0.053478304 0.014585651
0.52514249 0.054497834 0.014602048
0.52545625 0.055517349 0.014618444
0.52577007 0.056536861 0.01463484
0.52608389 0.057556376 0.014651237
0.52723527 0.058131456 0.015062219
0.52754873 0.059149947 0.015078598
0.52786225 0.060168419 0.015094978
0.52817571 0.06118691 0.015111357
0.52848923 0.062205397 0.015127737
0.52880269 0.063223869 0.015144116
0.52911621 0.064242363 0.015160496
0.52859437 0.065712534 0.014782407
0.52807319 0.067184776 0.014404352
0.5275526 0.068659097 0.01402633
0.52619827 0.070590287 0.013253923
0.52317715 0.073437244 0.011692791
0.52099228 0.075835645 0.010526164
0.51714242 0.079156078 0.0085708862
0.51246274 0.082945727 0.0062214653
0.5868997 -0.033751775 0.048801027
0.58718455 -0.032826353 0.04881591
0.58576047 -0.031123821 0.048037734
0.58519173 -0.029806722 0.047656115
0.58462369 -0.028487572 0.04727456
0.58320278 -0.026774695 0.046496551
0.5826363 -0.025450358 0.046115048
0.58207047 -0.024123972 0.045733608
0.5815053 -0.022795521 0.045352187
0.58094078 -0.02146499 0.044970799
0.58037686 -0.0201324 0.04458946
0.57981354 -0.018797725 0.044208135
0.57925093 -0.017460996 0.043826848
0.57868892 -0.016122201 0.04344561
0.57897824 -0.0151823 0.043460723
0.5792675 -0.014242398 0.04347584
0.5787068 -0.012899471 0.043094654
0.57899642 -0.011958536 0.043109786
0.57928604 -0.011017601 0.043124918
0.58042473 -0.010482796 0.043536305
0.58156282 -0.0099500641 0.043947645
0.58270019 -0.0094193975 0.044358965
0.58298886 -0.0084815687 0.044374045
0.5841254 -0.0079540191 0.044785317
0.58526123 -0.007428518 0.045196541
0.58554924 -0.0064927544 0.045211587
0.58668411 -0.0059703654 0.045622777
0.58697182 -0.0050356351 0.045637809
0.58810574 -0.0045163375 0.046048947
0.58839315 -0.0035826471 0.046063963
0.58868051 -0.0026489422 0.04607898
0.58981317 -0.0021337916 0.046490036
0.59094524 -0.0016207231 0.046901088
0.5920766 -0.001109704 0.047312077
0.592363 -0.00017910518 0.047327042
0.59349346 0.00032880891 0.047737997
0.59462321 0.00083467056 0.048148904
0.59490901 0.0017631893 0.048163839
0.59603786 0.0022659146 0.048574723
0.59800875 0.002339788 0.049381468
0.5982936 0.0032652153 0.049396351
0.59942055 0.0037617595 0.049807109
0.59970504 0.0046861465 0.049821977
0.59998959 0.005610534 0.04983684
0.52278113 0.052249573 0.012725373
0.52477396 0.052394781 0.01353328
0.52508777 0.053414296 0.013549676
0.52624011 0.053993572 0.013961778
0.52655363 0.055012062 0.013978158
0.52686709 0.056030534 0.013994537
0.52718061 0.057049025 0.014010917
0.52833146 0.057623096 0.014422936
0.52864462 0.058640547 0.0144393
0.52895778 0.059657995 0.014455662
0.52927095 0.060675442 0.014472025
0.52958411 0.06169289 0.014488389
0.52989733 0.062710352 0.014504752
0.53021049 0.063727804 0.014521115
0.53052366 0.064745247 0.014537478
0.530002 0.066215381 0.014158335
0.52864665 0.068141252 0.013383736
0.52729261 0.070071265 0.012609232
0.52510595 0.072461195 0.011439309
0.52125424 0.075770922 0.009478623
0.5182389 0.078633167 0.0079135252
0.51356035 0.082421437 0.0055577476
0.58513969 -0.033964533 0.047050513
0.58628005 -0.033423457 0.047463041
0.5865652 -0.032497004 0.047477938
0.58599615 -0.031182053 0.047095262
0.5854277 -0.029865017 0.046712603
0.58400637 -0.028155377 0.045932449
0.58343953 -0.026833188 0.045549873
0.58287328 -0.025508916 0.045167334
0.58145511 -0.023788938 0.044387329
0.58089054 -0.022459505 0.044004887
0.58032656 -0.021128019 0.043622475
0.57976323 -0.019794444 0.04324007
0.57920051 -0.018458806 0.042857725
0.57863849 -0.017121116 0.042475414
0.57807708 -0.015781352 0.042093135
0.5783667 -0.014840417 0.042108268
0.57865632 -0.013899482 0.0421234
0.57809615 -0.012555556 0.041741159
0.57838607 -0.011613589 0.04175631
0.57867599 -0.01067162 0.041771457
