# .PCD v0.7 - Point Cloud Data file format
VERSION 0.7
FIELDS x y z
SIZE 4 4 4
TYPE F F F
COUNT 1 1 1
WIDTH 1350
HEIGHT 1
VIEWPOINT 0 0 0 1 0 0 0
POINTS 1350
DATA ascii
0.56025374 0.00092285825 0.016009074
0.55981499 0.00035950582 0.016000105
0.55937618 -0.00020384663 0.015991138
0.55893743 -0.00076719909 0.015982172
0.55849868 -0.0013305516 0.015973203
0.55805987 -0.0018939039 0.015964236
0.55762112 -0.0024572622 0.015955267
0.55718231 -0.0030206149 0.015946301
0.55674356 -0.0035839672 0.015937332
0.55630481 -0.0041473196 0.015928365
0.555866 -0.004710672 0.015919399
0.55542725 -0.0052740304 0.01591043
0.55432862 -0.0051857498 0.016291801
0.55454969 -0.0064007351 0.015892494
0.55411088 -0.006964088 0.015883528
0.55301428 -0.0068732579 0.01626494
0.55257618 -0.0074357586 0.016255986
0.55148154 -0.0073424135 0.016637417
0.55104411 -0.007904062 0.016628476
0.55060667 -0.0084657175 0.016619535
0.54951471 -0.0083689652 0.017001018
0.54842407 -0.0082705095 0.01738253
0.54167372 -0.0154386 0.017648391
0.54123825 -0.015997699 0.017639492
0.54144609 -0.017229702 0.017239915
0.52822882 -0.029703366 0.018181212
0.52550107 -0.046694454 0.0144912
0.52567369 -0.047971524 0.014090928
0.52339667 -0.046398837 0.015255796
0.52173501 -0.045534715 0.016029462
0.52190834 -0.046810936 0.015629202
0.52269047 -0.048804313 0.01483756
0.52225101 -0.049368519 0.01482858
0.52242035 -0.05064984 0.014428238
0.52137214 -0.050496925 0.014810617
0.52032524 -0.05034231 0.015193023
0.51927966 -0.050185952 0.015575478
0.51823545 -0.050027929 0.015957939
0.51779795 -0.050589584 0.015948998
0.5167557 -0.050428998 0.016331498
0.51631892 -0.050989807 0.01632257
0.51588213 -0.051550604 0.016313642
0.51544535 -0.052111402 0.016304716
0.51561075 -0.053397834 0.015904294
0.51517326 -0.053959489 0.015895354
0.51533663 -0.055248473 0.015494891
0.51489854 -0.055810973 0.015485937
0.51505995 -0.05710255 0.015085411
0.5146212 -0.057665907 0.015076444
0.51418239 -0.058229253 0.015067477
0.51434118 -0.059524193 0.014666919
0.51390171 -0.060088396 0.014657938
0.51286608 -0.059919305 0.015040574
0.51242733 -0.060482666 0.015031606
0.51198852 -0.061046023 0.015022638
0.51154977 -0.061609369 0.015013671
0.51111102 -0.062172726 0.015004703
0.51067221 -0.062736072 0.014995736
0.51023346 -0.063299432 0.014986768
0.50979465 -0.063862793 0.014977801
0.5093559 -0.064426139 0.014968833
0.50891709 -0.064989492 0.014959865
0.50847834 -0.065552846 0.014950898
0.50745064 -0.065373532 0.015333718
0.50701249 -0.065936029 0.015324764
0.50657439 -0.066498533 0.01531581
0.50554937 -0.066315822 0.015698664
0.50511193 -0.066877477 0.015689723
0.50467449 -0.067439131 0.015680782
0.50423706 -0.068000779 0.015671842
0.50379962 -0.068562433 0.015662901
0.50336212 -0.069124088 0.01565396
0.50292468 -0.069685742 0.01564502
0.50248724 -0.070247389 0.015636079
0.5020498 -0.070809044 0.015627138
0.50161237 -0.071370699 0.015618199
0.50117487 -0.071932353 0.015609258
0.50073743 -0.072493993 0.015600317
0.50029999 -0.073055647 0.015591377
0.49928427 -0.072861031 0.015974419
0.49884748 -0.073421836 0.015965492
0.4984107 -0.073982634 0.015956564
0.49797392 -0.074543431 0.015947638
0.49753714 -0.075104229 0.01593871
0.49710032 -0.075665034 0.015929785
0.49666354 -0.076225832 0.015920857
0.49622676 -0.07678663 0.015911929
0.49578997 -0.077347443 0.015903004
0.49535319 -0.07790824 0.015894076
0.49491641 -0.078469038 0.015885148
0.49447963 -0.079029836 0.015876222
0.49404284 -0.079590641 0.015867295
0.49360606 -0.080151439 0.015858369
0.49316925 -0.080712236 0.015849441
0.49273247 -0.081273042 0.015840514
0.49286336 -0.082603723 0.015439388
0.49242592 -0.083165377 0.015430448
0.49198848 -0.083727032 0.015421507
0.49155101 -0.084288672 0.015412567
0.49111357 -0.084850326 0.015403626
0.49067613 -0.085411981 0.015394686
0.49023867 -0.085973628 0.015385745
0.48980123 -0.086535282 0.015376805
0.48936376 -0.087096937 0.015367865
0.48948804 -0.088436134 0.014966602
0.48904994 -0.088998631 0.014957648
0.48861182 -0.089561135 0.014948694
0.48817372 -0.090123631 0.01493974
0.4877356 -0.090686142 0.014930786
0.48729748 -0.091248646 0.014921832
0.48685938 -0.09181115 0.014912878
0.48642126 -0.092373647 0.014903923
0.48598313 -0.092936151 0.01489497
0.48554504 -0.093498647 0.014886016
0.48510692 -0.094061151 0.014877062
0.48466882 -0.094623663 0.014868108
0.4842307 -0.095186166 0.014859154
0.48379257 -0.095748663 0.014850199
0.48335448 -0.096311167 0.014841245
0.48291636 -0.096873663 0.014832292
0.48247826 -0.097436167 0.014823338
0.48204014 -0.097998679 0.014814383
0.48160201 -0.098561183 0.01480543
0.48116392 -0.099123679 0.014796475
0.4807258 -0.099686183 0.014787521
0.4802877 -0.10024868 0.014778567
0.47984958 -0.10081118 0.014769613
0.47941148 -0.10137368 0.014760659
0.47897336 -0.10193619 0.014751705
0.47853523 -0.1024987 0.014742751
0.47809714 -0.1030612 0.014733797
0.47765902 -0.1036237 0.014724843
0.47722092 -0.1041862 0.014715889
0.4767828 -0.1047487 0.014706935
0.47634467 -0.10531121 0.014697981
0.47590658 -0.10587371 0.014689026
0.47546846 -0.10643622 0.014680073
0.47557023 -0.10780437 0.014278328
0.47513148 -0.10836771 0.01426936
0.4746927 -0.10893107 0.014260393
0.47425392 -0.10949442 0.014251426
0.47381514 -0.11005777 0.014242458
0.47337636 -0.11062112 0.01423349
0.47293758 -0.11118448 0.014224523
0.47303402 -0.11255941 0.013822692
0.47259459 -0.11312362 0.013813711
0.47215515 -0.11368782 0.013804729
0.47171572 -0.11425202 0.013795748
0.47127628 -0.11481623 0.013786767
0.47083682 -0.11538044 0.013777786
0.47039738 -0.11594465 0.013768804
0.46995795 -0.11650885 0.013759824
0.46951851 -0.11707306 0.013750843
0.46907908 -0.11763726 0.013741861
0.46863964 -0.11820146 0.01373288
0.46820021 -0.11876567 0.013723899
0.46776077 -0.11932987 0.013714918
0.46732134 -0.11989408 0.013705936
0.4668819 -0.12045828 0.013696956
0.46644247 -0.12102249 0.013687975
0.46600303 -0.12158669 0.013678993
0.4655636 -0.12215089 0.013670012
0.46512416 -0.1227151 0.013661031
0.46468472 -0.1232793 0.01365205
0.46424526 -0.12384351 0.013643068
0.46380582 -0.12440771 0.013634088
0.46336639 -0.12497191 0.013625107
0.46292695 -0.12553611 0.013616125
0.46248752 -0.12610032 0.013607144
0.46204808 -0.12666452 0.013598163
0.46160865 -0.12722874 0.013589182
0.46116921 -0.12779294 0.013580201
0.46072978 -0.12835714 0.01357122
0.46080631 -0.1297576 0.013168982
0.46036622 -0.13032266 0.013159988
0.45992613 -0.13088772 0.013150993
0.45948601 -0.13145277 0.013141998
0.45904592 -0.13201782 0.013133003
0.45860583 -0.13258289 0.013124009
0.45816571 -0.13314794 0.013115014
0.45772561 -0.13371299 0.013106019
0.45728552 -0.13427804 0.013097025
0.4568454 -0.13484311 0.01308803
0.45640531 -0.13540816 0.013079035
0.45596522 -0.13597322 0.01307004
0.4555251 -0.13653827 0.013061046
0.45559236 -0.13795066 0.012658619
0.45515162 -0.13851655 0.012649612
0.45471087 -0.13908246 0.012640603
0.45427009 -0.13964836 0.012631595
0.45433405 -0.141065 0.0122291
0.45389262 -0.14163175 0.012220078
0.45395464 -0.14305098 0.011817521
0.45351252 -0.14361858 0.011808487
0.45307043 -0.1441862 0.011799451
0.45262834 -0.14475381 0.011790415
0.45218626 -0.14532141 0.011781381
0.45224425 -0.14674571 0.011378763
0.45180151 -0.14731416 0.011369715
0.45135874 -0.14788264 0.011360666
0.45091599 -0.14845107 0.011351617
0.45097068 -0.14987963 0.010948934
0.45052725 -0.15044895 0.010939871
0.45008382 -0.15101826 0.010930808
0.44964042 -0.15158758 0.010921746
0.44969177 -0.15302038 0.010518992
0.44924769 -0.15359055 0.010509917
0.44979057 -0.15589112 0.0097133862
0.44983795 -0.15732902 0.0093105529
0.45037612 -0.15963553 0.0085139489
0.45042023 -0.16107772 0.0081110261
0.45095375 -0.1633902 0.0073143267
0.45148465 -0.16570607 0.0065175737
0.45201293 -0.16802537 0.0057207439
0.58840197 0.067455545 0.024020841
0.58797646 0.066909216 0.024012145
0.58755094 0.06636288 0.024003448
0.58712542 0.065816544 0.023994751
0.5866999 0.065270215 0.023986055
0.58627439 0.064723879 0.023977358
0.58584887 0.064177543 0.023968661
0.58615112 0.063067526 0.023570042
0.58572495 0.06252034 0.023561331
0.58529878 0.061973155 0.023552621
0.5848726 0.061425969 0.023543911
0.58589667 0.059744563 0.022755222
0.58546919 0.059195679 0.022746485
0.58576548 0.058077995 0.022347743
0.58533728 0.057528257 0.022338992
0.58563161 0.056408025 0.021940209
0.58592457 0.055286087 0.021541398
0.58621627 0.054162417 0.021142539
0.58650661 0.053037077 0.020743674
0.58679557 0.051910032 0.020344783
0.58708322 0.050781287 0.019945864
0.58736962 0.049650807 0.019546896
0.58765465 0.048518661 0.019147923
0.58793837 0.04738481 0.018748924
0.58822072 0.046249259 0.018349897
0.58850175 0.045112003 0.017950842
0.58949667 0.043393157 0.017161557
0.58977443 0.042251647 0.016762437
0.59005082 0.041108437 0.016363287
0.59032595 0.039963488 0.015964089
0.59059972 0.038816873 0.015564887
0.59087211 0.037668556 0.015165656
0.59114325 0.03651854 0.014766399
0.59141302 0.035366818 0.014367115
0.59168148 0.03421336 0.013967781
0.59194863 0.033058234 0.013568442
0.59221441 0.031901408 0.013169077
0.59177101 0.031332098 0.013160015
0.59203482 0.030172719 0.012760608
0.59300393 0.028420683 0.011970795
0.5932644 0.027257048 0.011571321
0.59352356 0.02609171 0.011171821
0.59448606 0.024331165 0.010381872
0.59474188 0.023161575 0.0099823037
0.59499639 0.021990281 0.0095827077
0.59524965 0.020817285 0.0091830846
0.59550148 0.019642588 0.0087834345
0.59575212 0.018466154 0.0083837351
0.59600133 0.017288052 0.0079840301
0.59624922 0.016108247 0.007584299
0.59649581 0.014926743 0.0071845404
0.59674108 0.013743501 0.0067847334
0.59698504 0.012558592 0.0063849199
0.59653032 0.011974813 0.0063756271
0.59677231 0.010787352 0.0059757745
0.59701288 0.0095981881 0.0055758939
0.59725219 0.0084073236 0.0051759859
0.59154081 0.0025724361 0.0054640565
0.58971012 0.0032181558 0.0062362365
0.58925545 0.0026343791 0.0062269438
0.58537066 0.0051371437 0.0081715602
0.58286315 0.0064121098 0.00933473
0.5803597 0.0076921806 0.010497981
0.57854426 0.0083574755 0.011270473
0.57673138 0.0090262042 0.012043042
0.57492125 0.0096983043 0.012815643
0.57447785 0.0091289924 0.012806581
0.57335305 0.0091829412 0.01318839
0.57291031 0.0086144805 0.013179341
0.57178754 0.0086709838 0.013561192
0.57134545 0.0081033753 0.013552156
0.57022458 0.0081624594 0.013934069
0.56910509 0.0082232151 0.014315987
0.56798691 0.0082856715 0.014697932
0.56754678 0.0077206152 0.014688937
0.56710672 0.0071555595 0.014679942
0.56599122 0.0072214226 0.015061943
0.56487703 0.0072889868 0.01544397
0.56443822 0.0067256312 0.015435002
0.56399947 0.0061622788 0.015426034
0.56356066 0.0055989265 0.015417066
0.56312191 0.0050355708 0.015408099
0.56268317 0.0044722185 0.015399132
0.56224436 0.0039088633 0.015390164
0.56180561 0.0033455107 0.015381197
0.5613668 0.0027821583 0.015372229
0.56092805 0.0022188057 0.015363261
0.5604893 0.0016554534 0.015354293
0.56005049 0.001092095 0.015345326
0.55961174 0.00052874256 0.015336358
0.55917293 -3.4609908e-05 0.01532739
0.55873418 -0.00059796235 0.015318424
0.55829537 -0.0011613148 0.015309456
0.55785662 -0.0017246673 0.015300488
0.55741787 -0.0022880256 0.01529152
0.55697906 -0.0028513779 0.015282553
0.55654031 -0.0034147305 0.015273585
0.5561015 -0.0039780829 0.015264617
0.55566275 -0.0045414353 0.01525565
0.555224 -0.0051047937 0.015246683
0.55478519 -0.0056681461 0.015237715
0.55434644 -0.0062314984 0.015228747
0.55390763 -0.0067948508 0.01521978
0.55346888 -0.0073582036 0.015210812
0.55303007 -0.007921556 0.015201844
0.55193508 -0.0078292843 0.015584285
0.55149698 -0.0083917845 0.015575331
0.55105889 -0.0089542856 0.015566377
0.52919471 -0.056501701 0.009857079
0.52874798 -0.057075255 0.0098479493
0.52890968 -0.058365699 0.0094464561
0.52846229 -0.058940113 0.0094373124
0.52376491 -0.054484516 0.012174916
0.52210915 -0.053614102 0.012950695
0.52227354 -0.054901171 0.012549235
0.51941085 -0.05258425 0.014109942
0.51897138 -0.053148456 0.014100961
0.51853198 -0.053712659 0.01409198
0.51748937 -0.053553186 0.014475469
0.51584554 -0.052667465 0.015251492
0.5154081 -0.053229108 0.015242551
0.51617301 -0.05524325 0.014448566
0.51633477 -0.056533679 0.014047074
0.51529551 -0.056369953 0.014430632
0.51605505 -0.058390874 0.013636559
0.51621348 -0.059685558 0.013235
0.51577276 -0.060251467 0.013225991
0.51592916 -0.061548699 0.012824391
0.51548773 -0.062115464 0.012815368
0.51445043 -0.061949179 0.013198967
0.51400971 -0.062515087 0.013189958
0.51356894 -0.063080996 0.013180951
0.51312816 -0.063646898 0.013171942
0.51268739 -0.064212807 0.013162934
0.51224661 -0.064778715 0.013153926
0.51121396 -0.064606473 0.013537617
0.5107739 -0.065171532 0.013528623
0.51033378 -0.065736584 0.013519628
0.50989366 -0.066301644 0.013510633
0.50945359 -0.066866696 0.013501639
0.50842488 -0.066689357 0.013885413
0.50798547 -0.06725356 0.013876433
0.50754601 -0.067817762 0.013867452
0.50651997 -0.067637026 0.01425128
0.50608122 -0.068200372 0.014242312
0.50564241 -0.068763733 0.014233344
0.50520366 -0.069327079 0.014224377
0.50418091 -0.069142066 0.014608294
0.50374275 -0.06970457 0.01459934
0.50330466 -0.070267066 0.014590385
0.50286657 -0.07082957 0.014581432
0.50242847 -0.071392067 0.014572478
0.50199032 -0.071954571 0.014563523
0.50155222 -0.072517082 0.014554569
0.50053483 -0.072325267 0.014938574
0.50009733 -0.072886921 0.014929635
0.4996599 -0.073448576 0.014920694
0.49922246 -0.074010223 0.014911753
0.49878502 -0.074571878 0.014902812
0.49834755 -0.075133532 0.014893872
0.49791011 -0.075695187 0.014884932
0.49747267 -0.076256827 0.014875991
0.49703521 -0.076818481 0.014867051
0.49602443 -0.076618165 0.015251189
0.49558765 -0.07717897 0.015242263
0.49572286 -0.078503437 0.014840229
0.49528542 -0.079065092 0.014831289
0.49484795 -0.079626746 0.014822348
0.49441051 -0.080188386 0.014813407
0.49397308 -0.080750041 0.014804468
0.49353561 -0.081311695 0.014795527
0.49309817 -0.081873342 0.014786586
0.49266073 -0.082434997 0.014777645
0.49222326 -0.082996652 0.014768705
0.49178582 -0.083558306 0.014759765
0.49191377 -0.084892131 0.014357581
0.49147564 -0.085454635 0.014348626
0.49103755 -0.086017132 0.014339672
0.49059942 -0.086579636 0.014330719
0.4901613 -0.087142147 0.014321764
0.48972321 -0.087704651 0.01431281
0.48928508 -0.088267148 0.014303857
0.48884699 -0.088829651 0.014294902
0.48840886 -0.089392148 0.014285948
0.48797077 -0.089954652 0.014276994
0.48753265 -0.090517163 0.01426804
0.48709452 -0.091079667 0.014259086
0.48609897 -0.090859771 0.014643538
0.4862183 -0.092204668 0.014241178
0.48578018 -0.092767164 0.014232224
0.48534209 -0.093329668 0.01422327
0.48490396 -0.093892172 0.014214315
0.48446587 -0.094454683 0.014205362
0.48402774 -0.09501718 0.014196408
0.48358962 -0.095579684 0.014187453
0.48315153 -0.09614218 0.0141785
0.4827134 -0.096704684 0.014169546
0.48227531 -0.097267181 0.014160591
0.48183718 -0.0978297 0.014151637
0.48139906 -0.098392196 0.014142683
0.48096097 -0.0989547 0.014133729
0.48052284 -0.099517196 0.014124775
0.48008475 -0.1000797 0.014115822
0.47964662 -0.1006422 0.014106867
0.47920853 -0.1012047 0.014097913
0.47877041 -0.10176721 0.014088959
0.47833228 -0.10232972 0.014080005
0.47789419 -0.10289221 0.014071051
0.47745606 -0.10345472 0.014062097
0.47647509 -0.10321611 0.014446847
0.47603765 -0.10377775 0.014437906
0.47560021 -0.10433941 0.014428966
0.47516274 -0.10490106 0.014420026
0.47472531 -0.10546272 0.014411085
0.47482741 -0.10682973 0.014008373
0.47438928 -0.10739223 0.013999418
0.47395116 -0.10795473 0.013990465
0.47351307 -0.10851724 0.013981511
0.47307494 -0.10907975 0.013972556
0.47263682 -0.10964224 0.013963602
0.47219872 -0.11020475 0.013954648
0.47229555 -0.1115786 0.013551807
0.4718568 -0.11214194 0.01354284
0.47141802 -0.11270531 0.013533873
0.47097924 -0.11326865 0.013524905
0.47054046 -0.11383201 0.013515937
0.47010168 -0.11439537 0.013506969
0.4696629 -0.11495872 0.013498002
0.46922413 -0.11552207 0.013489034
0.46878538 -0.11608542 0.013480066
0.4683466 -0.11664878 0.013471099
0.46790782 -0.11721214 0.013462131
0.46746904 -0.11777548 0.013453164
0.46703026 -0.11833884 0.013444196
0.46659151 -0.11890219 0.013435229
0.46615273 -0.11946554 0.013426261
0.46571395 -0.12002889 0.013417293
0.46527517 -0.12059225 0.013408326
0.46483639 -0.12115561 0.013399358
0.46439761 -0.12171896 0.013390391
0.46395883 -0.12228231 0.013381423
0.46352008 -0.12284566 0.013372456
0.4630813 -0.12340902 0.013363488
0.46264252 -0.12397238 0.01335452
0.46220374 -0.12453572 0.013345553
0.46176496 -0.12509908 0.013336585
0.46132621 -0.12566243 0.013327617
0.46088743 -0.12622578 0.013318649
0.46044865 -0.12678915 0.013309682
0.46000987 -0.12735249 0.013300715
0.45957109 -0.12791584 0.013291747
0.45913231 -0.1284792 0.01328278
0.45869353 -0.12904255 0.013273812
0.45825475 -0.12960592 0.013264844
0.45832902 -0.13100867 0.012861564
0.45788959 -0.13157287 0.012852583
0.45745015 -0.13213708 0.012843601
0.45701072 -0.13270128 0.012834621
0.45657128 -0.13326548 0.012825639
0.45613185 -0.13382968 0.012816658
0.45569241 -0.13439389 0.012807677
0.45525298 -0.1349581 0.012798696
0.45481351 -0.13552231 0.012789715
0.45488113 -0.13693358 0.012386298
0.45444104 -0.13749863 0.012377303
0.45400095 -0.13806368 0.012368308
0.45356083 -0.13862875 0.012359314
0.45362514 -0.14004427 0.011955831
0.4531844 -0.14061017 0.011946823
0.45274362 -0.14117609 0.011937815
0.45230284 -0.14174199 0.011928806
0.45236385 -0.14316177 0.011525255
0.45192242 -0.14372854 0.011516233
0.45198148 -0.1451509 0.011112618
0.4515394 -0.14571851 0.011103583
0.45109728 -0.14628612 0.011094548
0.45065519 -0.14685373 0.011085513
0.45021313 -0.14742133 0.011076477
0.45026815 -0.14884877 0.010672804
0.44982541 -0.14941722 0.010663755
0.44938263 -0.14998569 0.010654707
0.44893989 -0.15055417 0.010645657
0.44849715 -0.1511226 0.010636608
0.4485482 -0.15255515 0.010232855
0.44859791 -0.15398942 0.0098290723
0.44864631 -0.15542537 0.0094252639
0.44918525 -0.15772969 0.0086266585
0.44923031 -0.1591699 0.008222783
0.44927409 -0.16061179 0.0078188786
0.45029622 -0.16379382 0.0066253524
0.45033601 -0.16524084 0.006221367
0.45135149 -0.16843137 0.0050277049
0.58747274 0.068177149 0.023767978
0.58704793 0.067631662 0.023759294
0.58662307 0.067086183 0.023750613
0.58619821 0.066540696 0.023741929
0.58577335 0.065995216 0.023733245
0.58534849 0.065449737 0.023724563
0.58492362 0.06490425 0.02371588
0.58522624 0.063795336 0.023316272
0.58480072 0.063248999 0.023307575
0.5843752 0.062702671 0.023298878
0.58394969 0.062156335 0.023290182
0.58497381 0.060476292 0.022499502
0.58454698 0.059928257 0.022490777
0.58484364 0.058811683 0.022091044
0.58441609 0.058262795 0.022082308
0.58471078 0.057143666 0.021682536
0.58500409 0.056022838 0.021282736
0.5845753 0.055472247 0.021273972
0.58558685 0.053776037 0.020483034
0.58587617 0.052650101 0.020083154
0.58616424 0.051522464 0.019683246
0.58645093 0.050393123 0.019283311
0.58673632 0.049262051 0.018883327
0.5870204 0.048129305 0.018483339
0.5873031 0.046994861 0.018083323
0.5875845 0.045858715 0.017683279
0.58857948 0.044141229 0.016892003
0.58885759 0.043000825 0.016491892
0.58913434 0.041858722 0.016091753
0.5886969 0.041297071 0.016082814
0.58897167 0.040152412 0.015682634
0.58924514 0.039006021 0.015282407
0.58951724 0.037857957 0.014882173
0.58978808 0.036708195 0.014481913
0.59005749 0.03555673 0.014081627
0.59032565 0.034403563 0.013681312
0.5905925 0.033248659 0.01328095
0.59085804 0.032092087 0.01288058
0.59112221 0.030933814 0.012480186
0.59138501 0.029773841 0.012079763
0.59235215 0.028020613 0.011287918
0.59261167 0.026856383 0.010887428
0.59357417 0.025097234 0.010095511
0.59383041 0.023928715 0.0096949302
0.59408534 0.022758529 0.0092943441
0.59433889 0.021586638 0.0088937338
0.59459108 0.020413047 0.0084930928
0.59484202 0.019237755 0.0080924286
0.59509164 0.018060725 0.0076917112
0.59533989 0.016882028 0.007290991
0.59558684 0.015701629 0.0068902434
0.59583241 0.014519528 0.0064894687
0.59607679 0.013335693 0.0060886452
0.59562272 0.012752765 0.006079366
0.59586501 0.011566409 0.0056785238
0.59541035 0.010982633 0.0056692311
0.59565067 0.0097937239 0.0052683484
0.59155256 0.0045320685 0.0051845917
0.5899542 0.0039773071 0.0055577187
0.58881247 0.004008872 0.0059401789
0.587672 0.0040421737 0.006322688
0.58310437 0.007162408 0.0086641256
0.58265501 0.0065854364 0.0086549409
0.57946807 0.0084834881 0.010213006
0.57628638 0.010388352 0.011771181
0.57584232 0.0098181907 0.011762104
0.57471585 0.0098693306 0.012144877
0.5735907 0.009922171 0.012527674
0.57314795 0.0093537113 0.012518626
0.57270521 0.0087852515 0.012509577
0.57158273 0.0088414988 0.012892431
0.57046151 0.0088994745 0.013275332
0.57002008 0.0083327182 0.01326631
0.56890088 0.0083932187 0.013649232
0.56778306 0.008455419 0.014032179
0.56734294 0.0078903632 0.014023185
0.56690282 0.0073253075 0.01401419
0.56578761 0.0073909154 0.014397192
0.56467378 0.0074582235 0.014780222
0.56423497 0.0068948679 0.014771254
0.56379622 0.0063315155 0.014762286
0.56335741 0.0057681631 0.014753319
0.56291866 0.0052048075 0.014744352
0.563151 0.0040056873 0.014343305
0.5627116 0.0034414858 0.014334324
0.56227213 0.0028772817 0.014325343
0.56116354 0.002951395 0.014708481
0.56072479 0.0023880424 0.014699513
0.56028599 0.00182469 0.014690545
0.55984724 0.0012613317 0.014681579
0.55940849 0.00069797924 0.014672611
0.55896968 0.00013462681 0.014663643
0.55919605 -0.0010721534 0.014262475
0.55875665 -0.0016363576 0.014253493
0.55831718 -0.0022005618 0.014244513
0.55787778 -0.0027647661 0.014235531
0.55743831 -0.0033289702 0.01422655
0.55699891 -0.0038931745 0.014217569
0.55655944 -0.0044573788 0.014208588
0.55612004 -0.0050215828 0.014199607
0.55568057 -0.0055857869 0.014190625
0.55524111 -0.0061499909 0.014181645
0.5548017 -0.0067141955 0.014172663
0.55502015 -0.0079311905 0.013771334
0.55392283 -0.0078426041 0.014154701
0.55348337 -0.0084068077 0.01414572
0.55238807 -0.0083156778 0.014529129
0.55194926 -0.0088790301 0.014520162
0.55151051 -0.0094423825 0.014511194
0.53372264 -0.065224774 0.0052200803
0.53266245 -0.06508854 0.0056042066
0.52812397 -0.061930865 0.0079462379
0.52828008 -0.06322784 0.007543637
0.52601808 -0.061639629 0.0087148128
0.52134603 -0.057156041 0.011459908
0.51909465 -0.055554211 0.012631302
0.51865387 -0.05612012 0.012622293
0.51701009 -0.055235781 0.013400286
0.51657063 -0.055799983 0.013391305
0.51673138 -0.057091016 0.012988796
0.51629132 -0.057656065 0.012979801
0.51704895 -0.059678178 0.012183697
0.51780403 -0.061703708 0.011387517
0.51736128 -0.062272176 0.011378468
0.51751542 -0.063571706 0.010975826
0.51707202 -0.06414102 0.010966763
0.51603299 -0.063977547 0.011351322
0.51499534 -0.063812375 0.01173591
0.51514751 -0.065114476 0.011333223
0.51470476 -0.065682933 0.011324175
0.51426202 -0.06625139 0.011315126
0.51381928 -0.066819847 0.011306077
0.5127849 -0.06665042 0.011690733
0.51175183 -0.066479258 0.012075435
0.5113104 -0.067046024 0.012066414
0.51086903 -0.067612775 0.012057392
0.51042759 -0.068179525 0.01204837
0.50939786 -0.068004146 0.01243312
0.50895709 -0.068570055 0.012424112
0.50851637 -0.069135964 0.012415104
0.50807559 -0.069701873 0.012406096
0.5070492 -0.069522232 0.012790913
0.50602412 -0.069340885 0.013175757
0.50558472 -0.069905087 0.013166776
0.5045616 -0.0697212 0.013551662
0.50412285 -0.07028456 0.013542694
0.50426638 -0.07159771 0.013139833
0.50382698 -0.072161913 0.013130851
0.50338751 -0.072726123 0.01312187
0.50294805 -0.073290326 0.013112889
0.50250864 -0.073854528 0.013103908
0.50149024 -0.073664673 0.013488889
0.50105143 -0.074228033 0.013479921
0.50061268 -0.074791379 0.013470953
0.49959683 -0.074598104 0.013856008
0.49915871 -0.075160608 0.013847054
0.49872059 -0.075723119 0.0138381
0.49828249 -0.076285616 0.013829146
0.49784437 -0.076848119 0.013820192
0.49683258 -0.076649755 0.014205308
0.49639511 -0.07721141 0.014196367
0.49595767 -0.077773057 0.014187427
0.49609193 -0.07909812 0.013784376
0.49565381 -0.079660632 0.013775421
0.49521571 -0.080223136 0.013766468
0.49420789 -0.08001966 0.014151664
0.49377042 -0.080581315 0.014142725
0.49333298 -0.081142969 0.014133784
0.49289554 -0.081704617 0.014124843
0.49245808 -0.082266271 0.014115903
0.49202064 -0.082827926 0.014106962
0.49158317 -0.08338958 0.014098022
0.49227592 -0.085495107 0.013300569
0.49183717 -0.086058453 0.013291601
0.49083459 -0.085848153 0.013676927
0.49095961 -0.087185152 0.013273667
0.49052083 -0.087748513 0.013264699
0.49008206 -0.088311858 0.013255731
0.48964331 -0.088875219 0.013246763
0.48920453 -0.08943858 0.013237796
0.48876575 -0.090001926 0.013228828
0.48832697 -0.090565279 0.01321986
0.48788819 -0.091128625 0.013210893
0.48744941 -0.091691986 0.013201925
0.48645347 -0.091473185 0.013587386
0.48657188 -0.092818692 0.01318399
0.4861331 -0.093382053 0.013175023
0.48569432 -0.093945399 0.013166055
0.48525554 -0.094508752 0.013157087
0.48481676 -0.095072113 0.01314812
0.48437801 -0.095635459 0.013139152
0.48338667 -0.095410705 0.013524708
0.48350045 -0.096762165 0.013121217
0.48251045 -0.096535705 0.0135068
0.48207235 -0.097098202 0.013497846
0.48163423 -0.097660713 0.013488892
0.48119611 -0.098223217 0.013479938
0.48075801 -0.098785721 0.013470984
0.48031989 -0.099348217 0.01346203
0.47988179 -0.099910721 0.013453076
0.47944367 -0.10047322 0.013444122
0.47900558 -0.10103572 0.013435168
0.47856745 -0.10159823 0.013426214
0.47812933 -0.10216073 0.01341726
0.47769123 -0.10272323 0.013408306
0.47725311 -0.10328574 0.013399351
0.47627246 -0.10304739 0.013785104
0.47583503 -0.10360903 0.013776164
0.47539756 -0.10417068 0.013767223
0.47496012 -0.10473233 0.013758283
0.47452265 -0.10529399 0.013749342
0.47408521 -0.10585564 0.013740402
0.47364777 -0.10641729 0.013731461
0.4732103 -0.10697895 0.01372252
0.47277287 -0.10754059 0.013713581
0.47233543 -0.10810224 0.01370464
0.47189796 -0.10866389 0.013695699
0.47146052 -0.10922555 0.013686758
0.47155765 -0.11059827 0.013282949
0.47111955 -0.11116077 0.013273995
0.47068143 -0.11172327 0.013265041
0.4702433 -0.11228578 0.013256087
0.46980521 -0.11284828 0.013247132
0.46936709 -0.11341079 0.013238179
0.46892899 -0.11397328 0.013229225
0.46849087 -0.11453579 0.013220271
0.46805277 -0.11509828 0.013211316
0.46761465 -0.11566079 0.013202363
0.46717653 -0.1162233 0.013193408
0.46673843 -0.1167858 0.013184454
0.46630031 -0.1173483 0.013175501
0.46586221 -0.1179108 0.013166547
0.46542409 -0.1184733 0.013157592
0.464986 -0.1190358 0.013148638
0.46454787 -0.11959831 0.013139684
0.46410975 -0.12016082 0.01313073
0.46367165 -0.12072331 0.013121776
0.46323353 -0.12128582 0.013112823
0.46279544 -0.12184832 0.013103868
0.46235731 -0.12241082 0.013094914
0.46191919 -0.12297332 0.01308596
0.46148109 -0.12353583 0.013077006
0.46104297 -0.12409833 0.013068052
0.46060488 -0.12466083 0.013059097
0.46016675 -0.12522334 0.013050144
0.45972863 -0.12578583 0.01304119
0.45929053 -0.12634833 0.013032236
0.45885241 -0.12691085 0.013023281
0.45841429 -0.12747335 0.013014328
0.45797619 -0.12803584 0.013005373
0.45753807 -0.12859835 0.012996419
0.45761275 -0.13000003 0.012592129
0.45717397 -0.13056338 0.012583162
0.45673519 -0.13112673 0.012574194
0.45629641 -0.13169008 0.012565226
0.45585763 -0.13225344 0.012556259
0.45541885 -0.13281679 0.012547291
0.45498008 -0.13338014 0.012538323
0.45454133 -0.1339435 0.012529356
0.45410255 -0.13450685 0.012520389
0.45366377 -0.1350702 0.012511421
0.45322499 -0.13563356 0.012502453
0.45329162 -0.13704543 0.01209802
0.45285219 -0.13760963 0.012089039
0.45291686 -0.13902405 0.011684567
0.45247677 -0.13958912 0.011675572
0.45203668 -0.14015415 0.011666577
0.45159656 -0.14071922 0.011657583
0.45115647 -0.14128427 0.011648588
0.45121714 -0.1427038 0.011244033
0.45127651 -0.14412503 0.010839452
0.45083508 -0.14469178 0.01083043
0.45039365 -0.14525855 0.010821409
0.45045042 -0.14668322 0.010416752
0.45000833 -0.14725082 0.010407717
0.44956622 -0.14781843 0.010398681
0.44912416 -0.14838603 0.010389646
0.44868207 -0.14895363 0.010380611
0.44823995 -0.14952126 0.010371575
0.44779789 -0.15008886 0.01036254
0.44784927 -0.15152031 0.009957795
0.44789937 -0.15295345 0.0095530255
0.44794813 -0.15438829 0.0091482271
0.44799554 -0.15582484 0.0087434016
0.44804171 -0.15726312 0.0083385287
0.44808647 -0.15870306 0.0079336492
0.44861946 -0.16101365 0.0071329535
0.44914982 -0.16332768 0.00633218
0.44967747 -0.16564508 0.0055313758
0.44971496 -0.16709438 0.0051263496
0.58642626 0.067250051 0.02310792
0.5860014 0.066704564 0.023099236
0.58557653 0.066159084 0.023090554
0.58515167 0.065613605 0.023081871
0.58472681 0.065068118 0.023073187
0.58430195 0.064522639 0.023064503
0.58387709 0.063977152 0.023055822
0.58345222 0.063431673 0.023047138
0.58375257 0.062320456 0.022646485
0.58405155 0.061207544 0.022245806
0.58362538 0.060660359 0.022237096
0.58392239 0.059544858 0.021836352
0.58349556 0.058996819 0.021827629
0.5837906 0.0578788 0.021426866
0.58408427 0.056759074 0.021026079
0.58365607 0.056209337 0.021017328
0.58394778 0.055087063 0.0206165
0.58495742 0.053389661 0.019823529
0.58524579 0.05226313 0.019422632
0.58553284 0.051134896 0.019021709
0.58581859 0.050004963 0.018620756
0.58610302 0.04887329 0.018219758
0.58638608 0.047739953 0.017818751
0.58666784 0.046604913 0.01741772
0.58766288 0.04488882 0.016624473
0.58794135 0.043749493 0.016223351
0.58821845 0.042608496 0.015822222
0.58778167 0.042047694 0.015813297
0.5880568 0.040904146 0.015412129
0.58833057 0.039758891 0.015010934
0.58860308 0.038611904 0.014609692
0.58887428 0.037463244 0.014208443
0.58914405 0.036312886 0.013807165
0.58941257 0.035160828 0.013405861
0.58967978 0.034007065 0.013004533
0.58994561 0.032851566 0.012603153
0.59021014 0.031694397 0.012201767
0.59047335 0.03053553 0.011800357
0.5914405 0.028783699 0.011006543
0.59170043 0.027620543 0.010605041
0.59266293 0.025862755 0.0098111304
0.59291953 0.024695378 0.0094095832
0.59317482 0.023526264 0.0090079876
0.59342873 0.022355482 0.0086063864
0.59368134 0.021182995 0.0082047591
0.59393257 0.02000881 0.007803103
0.59418249 0.018832922 0.0074014198
0.59443116 0.017655298 0.0069996878
0.59467846 0.016476005 0.0065979506
0.59492445 0.015295009 0.0061961883
0.59447175 0.014713788 0.0061869361
0.59471571 0.013530239 0.0057851309
0.59495842 0.012344956 0.0053832787
0.59450436 0.011762029 0.0053739995
0.58996421 0.0059327688 0.0052812081
0.5895102 0.005349841 0.0052719289
0.58768135 0.0059954235 0.006048155
0.58585519 0.0066443766 0.0068244133
0.58334559 0.0079127038 0.0079935193
0.58152539 0.0085693104 0.0087698996
0.57970786 0.0092293611 0.0095463563
0.57789296 0.0098927775 0.010322846
0.57608068 0.010559633 0.011099411
0.57563663 0.009989473 0.011090335
0.57382834 0.010661402 0.01186696
0.5733856 0.010092942 0.011857911
0.57226211 0.010147231 0.01224174
0.57182002 0.0095796222 0.012232704
0.57069844 0.0096364906 0.012616596
0.56957823 0.0096950345 0.013000491
0.56913745 0.0091291275 0.012991483
0.56801927 0.0091902232 0.01337542
0.56757915 0.0086251674 0.013366425
0.56646293 0.0086888159 0.013750404
0.56602353 0.0081246113 0.013741422
0.56558406 0.0075604077 0.013732442
0.56447047 0.0076274602 0.014116474
0.56403172 0.0070641045 0.014107507
0.56359297 0.0065007522 0.014098539
0.56315416 0.0059373998 0.014089571
0.56271541 0.0053740442 0.014080604
0.56294745 0.0041751796 0.013678554
0.56250799 0.0036109781 0.013669574
0.56206858 0.0030467741 0.013660593
0.56096029 0.0031206317 0.014044734
0.56052154 0.0025572793 0.014035766
0.56008273 0.0019939267 0.014026798
0.55964398 0.0014305684 0.014017831
0.55920517 0.00086721597 0.014008863
0.55876642 0.00030386355 0.013999895
0.55899251 -0.00090266112 0.013597725
0.55855304 -0.0014668653 0.013588743
0.55811363 -0.0020310695 0.013579763
0.55767417 -0.0025952738 0.013570781
0.55789697 -0.0038060511 0.013168543
0.55745685 -0.0043711071 0.013159548
0.55701673 -0.0049361628 0.013150553
0.55657667 -0.0055012191 0.013141559
0.55613655 -0.0060662748 0.013132564
0.55569643 -0.0066313311 0.013123569
0.55525637 -0.0071963868 0.013114574
0.55481625 -0.0077614426 0.01310558
0.55437613 -0.0083264988 0.013096585
0.55459231 -0.0095457872 0.012694212
0.53003806 -0.066517368 0.0052768425
0.52551866 -0.063339107 0.0076252446
0.52507061 -0.063914366 0.0076160873
0.52402127 -0.063764736 0.0080014542
0.52237278 -0.062887721 0.0087813446
0.52072686 -0.062007274 0.0095613115
0.51788521 -0.059668604 0.011130395
0.52043599 -0.063877597 0.0091485521
0.52058852 -0.065178581 0.0087448778
0.52014244 -0.065751292 0.008735761
0.51969641 -0.066324003 0.0087266453
0.51925033 -0.066896722 0.0087175285
0.51701844 -0.065271825 0.0098923082
0.51716894 -0.066575371 0.0094885947
0.51731819 -0.067880645 0.009084831
0.51687276 -0.068452492 0.0090757282
0.5164274 -0.069024362 0.0090666246
0.51538998 -0.068859421 0.0094522368
0.51435399 -0.068692796 0.0098378528
0.51272863 -0.067786001 0.010618215
0.51228589 -0.068354458 0.010609167
0.51184314 -0.068922915 0.010600118
0.5114004 -0.069491372 0.010591069
0.51095766 -0.070059828 0.01058202
0.51051491 -0.0706283 0.010572971
0.51007217 -0.071196757 0.010563922
0.50962937 -0.071765214 0.010554873
0.50860131 -0.071588382 0.010940653
0.50757456 -0.071409814 0.011326482
0.50713313 -0.07197658 0.01131746
0.50552505 -0.071047649 0.012098175
0.50450224 -0.070864014 0.012484063
0.50580883 -0.073676854 0.011290395
0.5053674 -0.074243605 0.011281373
0.50492597 -0.074810356 0.011272351
0.50448453 -0.075377122 0.01126333
0.5034638 -0.075190932 0.011649257
0.50200421 -0.075568095 0.012026218
0.50098675 -0.075377651 0.012412215
0.50054735 -0.075941853 0.012403233
0.50010788 -0.076506056 0.012394252
0.49909309 -0.076312207 0.012780303
0.49865431 -0.07687556 0.012771335
0.49821553 -0.077438906 0.012762368
0.49777675 -0.078002267 0.0127534
0.4963271 -0.078366637 0.013130585
0.49646041 -0.079692334 0.012726497
0.49602166 -0.08025568 0.012717529
0.49558288 -0.080819033 0.012708561
0.49457464 -0.080616653 0.013094768
0.49413651 -0.081179157 0.013085814
0.49369842 -0.081741653 0.01307686
0.49326029 -0.082304157 0.013067906
0.49338901 -0.083635807 0.012663724
0.49295023 -0.084199153 0.012654756
0.49194595 -0.083991669 0.013041044
0.49263746 -0.086097531 0.012241573
0.49219802 -0.086661734 0.012232591
0.49175858 -0.087225936 0.012223611
0.49188191 -0.088564366 0.01181934
0.49144182 -0.089129426 0.011810346
0.49100173 -0.089694478 0.011801351
0.4905616 -0.090259537 0.011792356
0.49012151 -0.090824589 0.011783361
0.48968142 -0.091389649 0.011774367
0.4892413 -0.091954701 0.011765372
0.48880121 -0.092519753 0.011756377
0.48836112 -0.093084812 0.011747383
0.48792103 -0.093649864 0.011738388
0.48692477 -0.093432195 0.012124818
0.48704082 -0.094779976 0.011720398
0.4860459 -0.094560601 0.012106855
0.48560643 -0.095124811 0.012097875
0.485167 -0.095689014 0.012088893
0.48472756 -0.096253216 0.012079912
0.48373595 -0.09602958 0.012466437
0.48384869 -0.097381622 0.01206195
0.48285842 -0.097156286 0.012448502
0.48241964 -0.097719632 0.012439534
0.48198086 -0.098282993 0.012430566
0.48154208 -0.098846346 0.012421599
0.4811033 -0.099409699 0.012412632
0.48066452 -0.099973053 0.012403664
0.48022577 -0.1005364 0.012394696
0.47978699 -0.10109976 0.012385729
0.47934821 -0.10166312 0.012376761
0.47890943 -0.10222647 0.012367793
0.47792637 -0.10199175 0.012754515
0.47748828 -0.10255425 0.01274556
0.47705016 -0.10311675 0.012736606
0.47606981 -0.10287866 0.013123361
0.47563237 -0.1034403 0.013114421
0.47519493 -0.10400195 0.013105481
0.47475746 -0.10456361 0.01309654
0.47432002 -0.10512526 0.0130876
0.47388259 -0.10568691 0.013078659
0.47344512 -0.10624857 0.013069718
0.47300768 -0.10681022 0.013060777
0.47257024 -0.10737186 0.013051838
0.47213277 -0.10793351 0.013042897
0.47169533 -0.10849517 0.013033956
0.47125787 -0.10905682 0.013025016
0.47082043 -0.10961847 0.013016076
0.47038299 -0.11018012 0.013007135
0.46994552 -0.11074178 0.012998194
0.47004038 -0.1121168 0.012593341
0.46960226 -0.1126793 0.012584387
0.46916413 -0.1132418 0.012575434
0.46872604 -0.1138043 0.01256648
0.4677583 -0.11355003 0.012953492
0.46732083 -0.11411168 0.012944551
0.4674117 -0.11549181 0.012539618
0.46697357 -0.11605432 0.012530663
0.46653548 -0.11661682 0.012521709
0.46609735 -0.11717932 0.012512756
0.46565926 -0.11774182 0.012503801
0.46522114 -0.11830432 0.012494847
0.46478304 -0.11886682 0.012485893
0.46434492 -0.11942933 0.012476939
0.46390679 -0.11999183 0.012467985
0.4634687 -0.12055434 0.012459031
0.46303058 -0.12111683 0.012450077
0.46259248 -0.12167934 0.012441123
0.46215436 -0.12224184 0.012432169
0.46119654 -0.1219748 0.012819384
0.4607591 -0.12253646 0.012810444
0.46032164 -0.12309811 0.012801504
0.4598842 -0.12365976 0.012792563
0.45944676 -0.12422141 0.012783622
0.45900929 -0.12478307 0.012774682
0.45857185 -0.12534471 0.012765742
0.45813441 -0.12590636 0.012756801
0.45769694 -0.12646802 0.012747861
0.45725951 -0.12702967 0.01273892
0.45682207 -0.12759131 0.012729979
0.45689702 -0.12899187 0.012324721
0.4564589 -0.12955438 0.012315766
0.4560208 -0.13011687 0.012306812
0.45558268 -0.13067938 0.012297858
0.45514455 -0.13124189 0.012288904
0.45470646 -0.13180438 0.01227995
0.45426834 -0.13236688 0.012270996
0.45383024 -0.13292938 0.012262042
0.45339212 -0.13349189 0.012253088
0.45295399 -0.13405439 0.012244133
0.4525159 -0.1346169 0.01223518
0.45258296 -0.13602768 0.011829738
0.45214418 -0.13659103 0.01182077
0.4517054 -0.13715439 0.011811802
0.45176977 -0.13856855 0.011406327
0.45133033 -0.13913275 0.011397346
0.45089087 -0.13969696 0.011388364
0.45045143 -0.14026117 0.011379384
0.4505125 -0.14167958 0.010973839
0.45057219 -0.14309971 0.010568269
0.45013145 -0.14366561 0.010559261
0.45018917 -0.14508829 0.01015365
0.44974774 -0.14565505 0.010144629
0.44930631 -0.1462218 0.010135607
0.44886491 -0.14678855 0.010126585
0.44842348 -0.1473553 0.010117563
0.44798204 -0.14792208 0.010108542
0.44754061 -0.14848883 0.01009952
0.44759309 -0.14991835 0.0096937781
0.44715101 -0.15048595 0.0096847434
0.44720143 -0.15191798 0.0092789829
0.44725055 -0.15335172 0.0088731963
0.44729832 -0.15478717 0.0084673818
0.44685423 -0.15535733 0.0084583061
0.44690004 -0.15679531 0.0080524525
0.44694456 -0.15823504 0.0076465481
0.44747624 -0.16054599 0.0068438323
0.44800535 -0.16286035 0.006041042
0.44804451 -0.16430683 0.0056350515
0.58422667 0.066338688 0.022832083
0.58453 0.065231986 0.022430496
0.58410513 0.064686507 0.022421813
0.58368027 0.06414102 0.022413129
0.58325541 0.063595541 0.022404445
0.58283061 0.063050054 0.022395764
0.58312994 0.061938249 0.021994093
0.58270442 0.061391912 0.021985397
0.58300173 0.060277551 0.021583686
0.58257556 0.059730366 0.021574976
0.58287096 0.05861342 0.021173205
0.58316505 0.057494804 0.020771427
0.58273751 0.056945916 0.020762689
0.58302957 0.055824745 0.020360872
0.58403921 0.05412874 0.019565932
0.584328 0.053003285 0.019164022
0.58461541 0.051876158 0.01876211
0.58490145 0.050747328 0.018360171
0.58518624 0.049616799 0.017958203
0.58546972 0.048484534 0.017556187
0.58575183 0.047350597 0.017154166
0.58674687 0.045635872 0.016358927
0.58702564 0.044497684 0.01595684
0.58730316 0.043357756 0.015554701
0.58686703 0.042797808 0.015545788
0.58714253 0.041655365 0.01514363
0.58741671 0.040511217 0.014741447
0.58768952 0.03936537 0.014339236
0.58796108 0.038217783 0.013936976
0.58823127 0.037068531 0.01353471
0.58850008 0.03591758 0.013132417
0.58876765 0.034764923 0.012730097
0.58903384 0.033610567 0.012327752
0.58929878 0.032454472 0.011925356
0.5895623 0.031296711 0.011522954
0.58911955 0.030728251 0.011513906
0.5893811 0.029567936 0.011111465
0.59104872 0.027220473 0.0099221626
0.59130627 0.026055053 0.0095196404
0.59156257 0.024887929 0.0091170911
0.5918175 0.023719106 0.0087145139
0.59207112 0.022548545 0.0083118882
0.59232342 0.021376316 0.0079092579
0.59257436 0.020202385 0.0075066001
0.59282404 0.019026753 0.0071039139
0.5930723 0.017849419 0.0067012021
0.59331936 0.016670348 0.0062984414
0.59356499 0.015489607 0.0058956738
0.59380931 0.014307169 0.0054928805
0.59335667 0.013725945 0.0054836287
0.59359896 0.012540949 0.0050807931
0.59314561 0.011958876 0.0050715278
0.59269226 0.0113768 0.0050622621
0.5922389 0.010794723 0.0050529963
0.59178555 0.010212651 0.0050437311
0.5913322 0.0096305748 0.0050344653
0.59087884 0.0090484982 0.0050251996
0.59042549 0.0084664226 0.0050159339
0.58997214 0.0078843497 0.0050066686
0.5888297 0.0079137022 0.0053911079
0.588377 0.0073324777 0.0053818561
0.58723658 0.0073643825 0.0057663345
0.58541036 0.0080120061 0.0065446077
0.58427322 0.0080481665 0.006929154
0.58108008 0.0099331131 0.0084950645
0.5792625 0.010591763 0.0092734918
0.57813203 0.010636436 0.0096581737
0.57631904 0.011301079 0.010436718
0.57519186 0.011350004 0.010821468
0.57474846 0.010780692 0.010812405
0.57362324 0.010832173 0.011197195
0.57249939 0.010885353 0.011582014
0.5713768 0.010940266 0.01196688
0.57093537 0.010373509 0.011957859
0.5698148 0.010430946 0.012342744
0.56937408 0.009865039 0.012333736
0.56825548 0.0099250274 0.012718661
0.56781536 0.0093599716 0.012709666
0.56669879 0.0094225127 0.013094634
0.56625938 0.0088583082 0.013085653
0.56581992 0.0082941046 0.013076671
0.56470603 0.0083600488 0.013461694
0.56426722 0.0077966969 0.013452726
0.56382847 0.0072333412 0.013443759
0.56338972 0.0066699889 0.013434791
0.56295091 0.0061066365 0.013425823
0.56251216 0.0055432813 0.013416856
0.5627439 0.004344672 0.013013803
0.56230444 0.0037804707 0.013004823
0.56186503 0.0032162666 0.012995842
0.56075704 0.0032898684 0.013380986
0.56031829 0.002726516 0.013372018
0.55987948 0.0021631634 0.01336305
0.55944073 0.0015998052 0.013354083
0.55900192 0.0010364527 0.013345115
0.55856317 0.00047310026 0.013336147
0.55878896 -0.00073316862 0.012932974
0.55834949 -0.0012973727 0.012923992
0.55791008 -0.0018615769 0.012915011
0.55747062 -0.0024257812 0.01290603
0.55769306 -0.0036363029 0.012502789
0.5579142 -0.0048485287 0.012099521
0.55747348 -0.0054144361 0.012090513
0.5570327 -0.005980344 0.012081505
0.55659193 -0.0065462515 0.012072497
0.55615115 -0.0071121533 0.012063488
0.55571038 -0.0076780608 0.012054481
0.55855596 -0.011505379 0.010073679
0.56073833 -0.014688076 0.008487111
0.52546656 -0.068951271 0.0053194882
0.52441758 -0.068801932 0.0057058362
0.52396756 -0.069379747 0.0056966385
0.52232361 -0.068498135 0.0064786151
0.5218749 -0.069074251 0.0064694444
0.5214262 -0.069650382 0.0064602732
0.52157241 -0.070958756 0.0060554757
0.51993448 -0.070069492 0.0068375724
0.51889277 -0.069910757 0.0072240913
0.51844537 -0.070485167 0.0072149476
0.51740563 -0.070323914 0.007601487
0.51636732 -0.070160955 0.0079880515
0.51370418 -0.069091678 0.0091570076
0.51326013 -0.069661841 0.0091479318
0.51340503 -0.070971929 0.0087431064
0.51296026 -0.071542934 0.0087340176
0.51251554 -0.072113954 0.0087249279
0.51207078 -0.072684959 0.0087158382
0.51103973 -0.072512642 0.0091025522
0.51059562 -0.073082797 0.0090934755
0.51015157 -0.073652975 0.0090843998
0.50970745 -0.074223131 0.0090753241
0.50648719 -0.07237307 0.010640679
0.50604576 -0.072939828 0.010631657
0.50734949 -0.075754493 0.0094349179
0.50632501 -0.075573653 0.009821767
0.50588226 -0.076142117 0.0098127183
0.50543952 -0.076710574 0.0098036695
0.50441772 -0.076526344 0.010190574
0.50339723 -0.07634037 0.010577527
0.50237805 -0.076152742 0.010964484
0.50193733 -0.076718651 0.010955476
0.50149655 -0.077284545 0.010946468
0.50048006 -0.077093512 0.01133348
0.49946487 -0.076900773 0.01172052
0.49959984 -0.078223623 0.01131549
0.49915975 -0.078788668 0.011306495
0.49871966 -0.079353735 0.011297501
0.49770713 -0.079157583 0.011684596
0.49726769 -0.079721794 0.011675614
0.49682826 -0.080285996 0.011666633
0.49638882 -0.080850199 0.011657652
0.49594939 -0.081414402 0.011648671
0.49550995 -0.081978604 0.01163969
0.49507052 -0.082542814 0.011630708
0.49463108 -0.083107017 0.011621728
0.49475875 -0.084439233 0.011216548
0.49431866 -0.085004278 0.011207554
0.49444434 -0.086339056 0.010802336
0.49343845 -0.086134389 0.011189564
0.49356282 -0.087470874 0.01078432
0.49255824 -0.087264501 0.011171575
0.49268129 -0.088602677 0.010766303
0.49280301 -0.089942552 0.010361004
0.49236158 -0.090509318 0.010351982
0.491359 -0.090300396 0.010739278
0.49091822 -0.090866305 0.01073027
0.49047747 -0.091432214 0.010721262
0.49059588 -0.092776343 0.010315895
0.49015445 -0.093343094 0.010306873
0.48915517 -0.093129933 0.010694237
0.48871443 -0.093695834 0.010685229
0.48883015 -0.095043369 0.010279808
0.4878329 -0.094827645 0.010667212
0.48739213 -0.095393553 0.010658205
0.48695135 -0.095959462 0.010649196
0.4865106 -0.096525371 0.010640188
0.48662302 -0.09787716 0.0102347
0.48618162 -0.09844391 0.010225678
0.48518831 -0.09822309 0.010613163
0.48474753 -0.098788999 0.010604155
0.48430678 -0.0993549 0.010595147
0.48331615 -0.099130675 0.010982687
0.48287603 -0.09969572 0.010973692
0.48243594 -0.10026079 0.010964697
0.48199585 -0.10082583 0.010955703
0.4810085 -0.10059736 0.011343312
0.48056906 -0.10116156 0.011334331
0.48012963 -0.10172576 0.01132535
0.47969019 -0.10228997 0.011316368
0.47925076 -0.10285417 0.011307388
0.4782674 -0.10262059 0.011695079
0.47782862 -0.10318393 0.011686111
0.47738984 -0.10374729 0.011677143
0.47640911 -0.10351028 0.012064908
0.47597098 -0.10407277 0.012055954
0.47499228 -0.10383323 0.012443738
0.47455481 -0.10439488 0.012434797
0.47411737 -0.10495654 0.012425857
0.47367993 -0.10551818 0.012416916
0.47324246 -0.10607984 0.012407975
0.47280502 -0.10664149 0.012399036
0.47236758 -0.10720313 0.012390095
0.47193012 -0.10776479 0.012381154
0.47149268 -0.10832644 0.012372213
0.47105524 -0.1088881 0.012363273
0.47061777 -0.10944974 0.012354333
0.47018033 -0.1100114 0.012345392
0.46974289 -0.11057305 0.012336452
0.46930543 -0.11113469 0.012327511
0.46886799 -0.11169635 0.012318571
0.46843052 -0.112258 0.01230963
0.46799308 -0.11281966 0.01230069
0.46755564 -0.1133813 0.012291749
0.46711817 -0.11394296 0.012282808
0.46668074 -0.11450461 0.012273868
0.4662433 -0.11506625 0.012264928
0.46580583 -0.11562791 0.012255987
0.46536839 -0.11618956 0.012247046
0.46493095 -0.11675122 0.012238106
0.46449348 -0.11731286 0.012229166
0.46405604 -0.11787452 0.012220225
0.46361861 -0.11843617 0.012211285
0.46318114 -0.11899783 0.012202344
0.4627437 -0.11955947 0.012193403
0.46230626 -0.12012113 0.012184463
0.46186879 -0.12068278 0.012175523
0.46143135 -0.12124442 0.012166582
0.46099392 -0.12180608 0.012157641
0.46055645 -0.12236773 0.012148701
0.46011901 -0.12292939 0.012139761
0.45968154 -0.12349103 0.01213082
0.4592441 -0.12405269 0.012121879
0.45880666 -0.12461434 0.012112939
0.4583692 -0.12517598 0.012103999
0.45793176 -0.12573764 0.012095058
0.45749432 -0.12629929 0.012086118
0.45705685 -0.12686095 0.012077177
0.45661941 -0.12742259 0.012068236
0.45618197 -0.12798424 0.012059296
0.4557445 -0.1285459 0.012050356
0.45530707 -0.12910755 0.012041415
0.45486963 -0.1296692 0.012032474
0.45443216 -0.13023086 0.012023534
0.45399472 -0.13079251 0.012014594
0.45355728 -0.13135415 0.012005653
0.45311981 -0.13191581 0.011996713
0.45268238 -0.13247746 0.011987772
0.45224494 -0.1330391 0.011978832
0.45180747 -0.13360076 0.011969891
0.45137003 -0.13416241 0.011960951
0.45143673 -0.13557293 0.011554527
0.4509986 -0.13613541 0.011545573
0.45056051 -0.13669792 0.01153662
0.45062459 -0.13811186 0.01113012
0.45018581 -0.13867521 0.011121152
0.44974706 -0.13923857 0.011112184
0.44980845 -0.14065588 0.010705651
0.44986853 -0.14207488 0.01029909
0.44942841 -0.14263995 0.010290096
0.44948649 -0.14406151 0.0098834969
0.44904575 -0.14462742 0.0098744882
0.44860497 -0.14519332 0.0098654795
0.44816419 -0.14575922 0.0098564718
0.44772345 -0.14632514 0.0098474631
0.44728267 -0.14689104 0.0098384554
0.44684193 -0.14745696 0.0098294467
0.44689471 -0.14888532 0.009422739
0.44645327 -0.14945208 0.0094137173
0.44650412 -0.15088305 0.0090069473
0.44606203 -0.15145065 0.0089979116
0.44611081 -0.15288414 0.0085911211
0.44566807 -0.15345259 0.0085820723
0.44571489 -0.15488863 0.0081752427
0.44624928 -0.15719481 0.0073705907
0.44678107 -0.15950441 0.0065658614
0.44682258 -0.16094723 0.0061589237
