# .PCD v0.7 - Point Cloud Data file format
VERSION 0.7
FIELDS x y z
SIZE 4 4 4
TYPE F F F
COUNT 1 1 1
WIDTH 1376
HEIGHT 1
VIEWPOINT 0 0 0 1 0 0 0
POINTS 1376
DATA ascii
0.54499221 0.043460015 0.014990752
0.54457283 0.042928338 0.01496946
0.54415351 0.042396661 0.014948169
0.54373419 0.041864984 0.014926878
0.54331481 0.041333307 0.014905586
0.5428955 0.040801629 0.014884295
0.54140151 0.040336978 0.01530983
0.55599713 0.0607398 0.015953144
0.55625808 0.059641909 0.015464048
0.55583942 0.059111077 0.01544279
0.55542076 0.058580246 0.015421533
0.55567902 0.057478964 0.0149323
0.5552597 0.056947287 0.014911009
0.55551594 0.055843465 0.014421677
0.55509597 0.055310942 0.014400352
0.55535024 0.054204546 0.013910891
0.55492955 0.053671177 0.013889533
0.55450892 0.053137805 0.013868173
0.55476052 0.05202806 0.013378601
0.5550108 0.05091662 0.012888962
0.55458874 0.050381556 0.012867535
0.55416673 0.049846489 0.012846109
0.55374473 0.049311426 0.012824682
0.55332267 0.048776362 0.012803255
0.55290067 0.048241299 0.012781828
0.55247867 0.047706235 0.012760401
0.55205667 0.047171172 0.012738974
0.55163461 0.046636105 0.012717547
0.55121261 0.046101041 0.01269612
0.55079061 0.045565978 0.012674693
0.55036855 0.045030914 0.012653266
0.54928297 0.045083236 0.013100492
0.54886162 0.044549018 0.013079098
0.54777801 0.044603877 0.013526428
0.54669565 0.04466046 0.013973848
0.54561472 0.044718709 0.014421309
0.5445351 0.044778645 0.014868842
0.54411644 0.044247817 0.014847584
0.54369771 0.043716986 0.014826327
0.54327905 0.043186158 0.014805069
0.54286039 0.042655326 0.014783812
0.54244173 0.042124495 0.014762554
0.542023 0.041593663 0.014741297
0.54160434 0.041062832 0.014720039
0.53987581 0.041728813 0.015636995
0.55510235 0.061501306 0.015811909
0.55536366 0.060404532 0.015321846
0.55494565 0.05987455 0.015300622
0.55452764 0.059344564 0.015279399
0.55478621 0.058244441 0.014789226
0.55436754 0.057713613 0.014767969
0.55462414 0.056610949 0.014277695
0.55420482 0.056079268 0.014256403
0.55445939 0.054974068 0.013766028
0.55403942 0.054441541 0.013744703
0.55361938 0.053909019 0.013723378
0.55387133 0.052800398 0.01323284
0.55412191 0.051690113 0.01274226
0.55370057 0.051155895 0.012720868
0.55327922 0.050621677 0.012699475
0.55285788 0.050087459 0.012678082
0.55243653 0.049553242 0.012656689
0.55201519 0.049019028 0.012635296
0.55159384 0.048484806 0.012613903
0.55117249 0.047950592 0.01259251
0.55075115 0.047416374 0.012571117
0.5503298 0.04688216 0.012549724
0.54990846 0.046347938 0.012528331
0.54948711 0.045813724 0.012506938
0.54840249 0.045866575 0.012955172
0.54731917 0.045921158 0.0134035
0.54623723 0.045977399 0.013851869
0.54581785 0.045445722 0.013830577
0.54473794 0.045504507 0.014279049
0.54365933 0.045564979 0.014727589
0.54324132 0.045034993 0.014706366
0.54282331 0.044505011 0.014685142
0.54240531 0.043975029 0.014663919
0.5419873 0.043445043 0.014642695
0.54156929 0.042915061 0.014621472
0.54115129 0.042385075 0.014600248
0.54073328 0.041855093 0.014579025
0.53966063 0.041923217 0.015027895
0.55368102 0.06444823 0.01665435
0.55326569 0.06392163 0.016633261
0.55420822 0.062262151 0.015672596
0.55446982 0.06116657 0.015181621
0.55405247 0.060637433 0.015160431
0.55431211 0.059539281 0.014669325
0.5538941 0.059009295 0.014648101
0.55415171 0.057908639 0.014156921
0.55373305 0.057377808 0.014135663
0.55398864 0.056274608 0.01364438
0.55356926 0.055742931 0.013623089
0.55314994 0.055211253 0.013601798
0.55340284 0.054104667 0.01311038
0.55298281 0.053572141 0.013089054
0.5532338 0.052462984 0.01259751
0.55281311 0.051929612 0.012576151
0.55239242 0.051396243 0.012554792
0.55197173 0.050862871 0.012533433
0.55155104 0.050329503 0.012512074
0.55113035 0.049796131 0.012490714
0.55070972 0.049262762 0.012469355
0.55028903 0.04872939 0.012447996
0.54986835 0.048196018 0.012426637
0.54944766 0.047662649 0.012405278
0.54902697 0.047129277 0.012383919
0.54860628 0.046595909 0.01236256
0.54752266 0.046649333 0.012811827
0.54644036 0.046704415 0.013261137
0.54535943 0.046761192 0.013710517
0.54494077 0.046230361 0.013689259
0.54386187 0.046289679 0.014138738
0.54278421 0.046350721 0.014588312
0.54236686 0.045821585 0.014567123
0.54194951 0.045292448 0.014545933
0.54153222 0.044763312 0.014524744
0.54111487 0.044234172 0.014503554
0.54069752 0.043705035 0.014482365
0.54028016 0.043175895 0.014461175
0.53986281 0.042646758 0.014439985
0.55278695 0.06520614 0.016518867
0.55305159 0.064115107 0.016027085
0.55331481 0.063022375 0.015535234
0.55357677 0.061927952 0.015043316
0.55316007 0.061399661 0.01502216
0.55342001 0.060302701 0.01453014
0.55300266 0.059773561 0.014508951
0.55326062 0.058674026 0.014016803
0.55284262 0.058144044 0.01399558
0.5530985 0.057042003 0.013503357
0.55267984 0.056511171 0.013482099
0.55226117 0.05598034 0.013460842
0.55251437 0.054874912 0.012968483
0.55209506 0.054343235 0.012947191
0.55234629 0.053235266 0.012454733
0.55192626 0.052702744 0.012433408
0.55150628 0.052170217 0.012412082
0.55108625 0.051637694 0.012390757
0.55066621 0.051105168 0.012369432
0.55024624 0.050572649 0.012348107
0.5498262 0.050040122 0.012326782
0.54940617 0.049507599 0.012305456
0.5489862 0.048975073 0.012284132
0.54856616 0.04844255 0.012262806
0.54814613 0.047910027 0.012241481
0.54772615 0.047377504 0.012220156
0.54664356 0.047431432 0.012670405
0.54556227 0.04748705 0.013120724
0.54448235 0.047544364 0.013571111
0.54406434 0.047014378 0.013549888
0.54298639 0.047074262 0.014000401
0.54190981 0.047135804 0.014450957
0.54149318 0.046607513 0.014429801
0.54107648 0.046079226 0.014408646
0.54065979 0.045550935 0.01438749
0.54024315 0.045022644 0.014366334
0.53982645 0.044494353 0.014345179
0.53940976 0.043966062 0.014324023
0.53899312 0.043437771 0.014302867
0.55230755 0.066488363 0.016406382
0.5525732 0.065399297 0.015913665
0.55215853 0.064873546 0.015892612
0.55242211 0.063781977 0.01539982
0.55268437 0.062688708 0.014906962
0.55226833 0.062161271 0.01488584
0.55252862 0.061065465 0.014392879
0.55211192 0.060537174 0.014371724
0.55237013 0.059438828 0.013878662
0.55195284 0.058909692 0.013857473
0.55220908 0.057808772 0.013364282
0.55179107 0.05727879 0.013343059
0.55137306 0.056748807 0.013321836
0.55162662 0.055644535 0.012828535
0.55187887 0.05453857 0.012335167
0.55145949 0.054006893 0.012313876
0.55104017 0.053475216 0.012292584
0.55062079 0.052943539 0.012271293
0.55020148 0.052411862 0.012250002
0.54978216 0.051880185 0.012228711
0.54936278 0.051348507 0.01220742
0.54894346 0.05081683 0.012186129
0.54852408 0.050285153 0.012164837
0.54810476 0.049753476 0.012143546
0.54768538 0.049221799 0.012122255
0.54726607 0.048690122 0.012100963
0.54684669 0.048158444 0.012079672
0.5457651 0.048212904 0.012530932
0.54468489 0.04826906 0.01298226
0.54360592 0.048326943 0.013433681
0.54318857 0.047797807 0.013412491
0.54211169 0.04785819 0.013863987
0.54103613 0.047920272 0.014315553
0.54062015 0.047392827 0.014294431
0.54020411 0.046865381 0.014273309
0.53978813 0.04633794 0.014252188
0.54002833 0.045216735 0.013758209
0.53961164 0.044688445 0.013737054
0.53919494 0.044160154 0.013715898
0.53746986 0.044824462 0.014640657
0.53770804 0.043700717 0.014146578
0.55141425 0.06724418 0.016274763
0.55168015 0.066156305 0.015781134
0.55194473 0.06506671 0.01528741
0.55220801 0.063975446 0.014793645
0.55179262 0.063448846 0.014772557
0.5513773 0.062922254 0.014751469
0.55163789 0.061827607 0.014257567
0.55189711 0.060731266 0.013763598
0.55148041 0.060202975 0.013742442
0.55106378 0.059674684 0.013721286
0.55132031 0.058574956 0.013227184
0.55090296 0.058045819 0.013205995
0.55115759 0.056943521 0.012711762
0.55073959 0.056413535 0.012690538
0.55099213 0.055308729 0.01219623
0.55057341 0.054777902 0.012174972
0.55015475 0.05424707 0.012153716
0.54973608 0.053716239 0.012132457
0.54931742 0.053185407 0.012111201
0.5488987 0.052654579 0.012089944
0.54848003 0.052123748 0.012068686
0.54806137 0.051592916 0.012047429
0.54764271 0.051062085 0.012026171
0.54722399 0.050531253 0.012004914
0.54680532 0.050000425 0.011983656
0.54638666 0.049469594 0.011962399
0.54596794 0.048938762 0.011941141
0.54488742 0.048993763 0.012393409
0.54380816 0.049050484 0.012845771
0.54273021 0.049108867 0.013298173
0.54231358 0.048580576 0.013277018
0.54123765 0.048641499 0.013729522
0.5401631 0.048704114 0.014182096
0.53974777 0.048177514 0.014161009
0.53933245 0.047650918 0.014139921
0.53826058 0.047716923 0.01459263
0.53850174 0.046597727 0.014097746
0.53808641 0.046071127 0.014076658
0.53767109 0.045544527 0.01405557
0.53790963 0.044421945 0.013560548
0.55093426 0.068522587 0.016166048
0.55120116 0.067436717 0.01567151
0.5514667 0.066349156 0.015176906
0.55105269 0.065824248 0.015155886
0.55131632 0.064734116 0.014661155
0.55090165 0.064208366 0.0146401
0.5511632 0.063115723 0.014145292
0.55074787 0.062589124 0.014124204
0.55100739 0.061493944 0.013629294
0.55059141 0.060966499 0.013608173
0.55017537 0.060439054 0.013587051
0.55043226 0.059340484 0.013092006
0.55001557 0.058812197 0.01307085
0.5502705 0.057711087 0.012575704
0.54985315 0.057181947 0.012554514
0.55010605 0.056078266 0.01205924
0.54968804 0.055548284 0.012038017
0.54927003 0.055018302 0.012016793
0.54885203 0.054488316 0.01199557
0.54843402 0.05395833 0.011974346
0.54801601 0.053428348 0.011953123
0.547598 0.052898366 0.011931899
0.54718 0.05236838 0.011910676
0.54676199 0.051838398 0.011889452
0.54634392 0.051308412 0.011868229
0.54592592 0.05077843 0.011847005
0.54550791 0.050248444 0.011825782
0.54442769 0.050303161 0.01227905
0.54401034 0.049774025 0.012257861
0.54293209 0.049831249 0.012711204
0.54185522 0.049890168 0.013164615
0.54143924 0.049362723 0.013143494
0.53970546 0.050013088 0.014071643
0.53863257 0.050077122 0.014525285
0.53821856 0.049552217 0.014504265
0.53780454 0.049027313 0.014483245
0.53804678 0.047910083 0.013987428
0.53828764 0.046791196 0.013491568
0.53787231 0.046264596 0.01347048
0.53745699 0.045738 0.013449393
0.5370416 0.045211405 0.013428305
0.55098808 0.067629255 0.015068258
0.55057472 0.067105196 0.015047273
0.55016136 0.066581137 0.015026286
0.55042529 0.065492198 0.01453064
0.55068785 0.064401522 0.014034899
0.55027318 0.063875772 0.014013845
0.54985851 0.063350022 0.013992791
0.55011839 0.062256001 0.01349694
0.54970306 0.061729401 0.013475852
0.54928774 0.061202805 0.013454764
0.54954493 0.060105391 0.012958779
0.54912889 0.059577949 0.012937657
0.54938412 0.058477998 0.01244157
0.54896742 0.057949707 0.012420415
0.54922062 0.056847215 0.011924226
0.54880327 0.056318078 0.011903036
0.54838598 0.055788938 0.011881847
0.54796863 0.055259801 0.011860657
0.54755127 0.054730665 0.011839467
0.54713392 0.054201528 0.011818278
0.54671657 0.053672392 0.011797088
0.54563403 0.053723376 0.012251169
0.54521734 0.053195085 0.012230013
0.5448007 0.052666795 0.012208858
0.544384 0.052138504 0.012187702
0.54396731 0.051610213 0.012166547
0.54355067 0.051081922 0.012145391
0.54181159 0.051724046 0.013075182
0.54073572 0.051783502 0.013529604
0.53966117 0.051844683 0.013984119
0.53924716 0.051319778 0.013963099
0.53883314 0.050794873 0.013942079
0.53776127 0.050859407 0.014396702
0.53734791 0.050335351 0.014375716
0.53693461 0.049811292 0.014354729
0.53717709 0.048695255 0.013857998
0.53741837 0.047577493 0.013361172
0.53700364 0.047051739 0.013340118
0.53724283 0.04593147 0.012843216
0.54662538 0.036474299 0.0056838337
0.54914963 0.070029423 0.01591249
0.55009609 0.068383828 0.014940539
0.54968339 0.067860618 0.014919586
0.54994828 0.066773675 0.014423033
0.54953498 0.066249624 0.014402047
0.54979783 0.06516014 0.013905392
0.54938382 0.064635232 0.013884372
0.54964471 0.063543186 0.01338759
0.54923004 0.063017428 0.013366535
0.54881537 0.062491681 0.013345482
0.54907358 0.061396275 0.012848589
0.54865825 0.060869679 0.012827501
0.54824293 0.060343079 0.012806413
0.54849845 0.059244286 0.012309385
0.54808241 0.058716841 0.012288263
0.54833597 0.057615511 0.011791133
0.54791927 0.05708722 0.011769977
0.54750258 0.056558926 0.011748821
0.54708594 0.056030635 0.011727666
0.54600239 0.056079619 0.012182654
0.54558641 0.055552177 0.012161532
0.54517037 0.055024732 0.012140411
0.54475439 0.054497287 0.012119289
0.54433835 0.053969841 0.012098167
0.54325885 0.054023907 0.012553358
0.54284346 0.053497307 0.012532271
0.54242814 0.052970711 0.012511183
0.54135126 0.053028163 0.01296651
0.54027569 0.053087339 0.01342193
0.53986174 0.052562434 0.01340091
0.5387882 0.052624118 0.013856407
0.53837484 0.052100062 0.013835421
0.53796154 0.051576003 0.013814435
0.53689069 0.051641073 0.014270067
0.53647798 0.051117864 0.014249115
0.53606534 0.05059465 0.014228162
0.53630817 0.049479771 0.013730491
0.53654969 0.048363198 0.01323275
0.53678989 0.047244899 0.012734917
0.53702873 0.046124939 0.012237041
0.54893762 0.070221029 0.015312163
0.54920483 0.069137782 0.01481477
0.54879278 0.068615422 0.014793851
0.54905802 0.067529634 0.014296357
0.54932189 0.066442162 0.013798795
0.54890853 0.065918103 0.013777808
0.54849517 0.065394044 0.013756822
0.54875636 0.064303182 0.013259127
0.54834241 0.063778274 0.013238107
0.54860163 0.062684841 0.012740281
0.54818696 0.062159088 0.012719228
0.54777229 0.061633337 0.012698174
0.54735762 0.061107587 0.01267712
0.54761344 0.060009953 0.01217915
0.54719812 0.059483353 0.012158062
0.54745197 0.058383182 0.011659991
0.54703593 0.057855733 0.01163887
0.54661995 0.057328291 0.011617747
0.54620391 0.056800846 0.011596626
0.54445487 0.057427332 0.012529742
0.5440402 0.056901578 0.012508688
0.54362553 0.056375828 0.012487634
0.54321086 0.055850077 0.01246658
0.54279619 0.055324323 0.012445526
0.54238153 0.054798573 0.012424472
0.54196686 0.054272823 0.012403418
0.54155219 0.053747069 0.012382364
0.54047632 0.05380509 0.012838726
0.53940177 0.053864773 0.013295127
0.53832859 0.053926144 0.013751599
0.53791595 0.053402934 0.013730646
0.53750324 0.052879725 0.013709694
0.5370906 0.052356511 0.013688742
0.53602076 0.052422117 0.014145384
0.53560877 0.051899754 0.014124465
0.53519678 0.05137739 0.014103547
0.53543991 0.050263669 0.013604932
0.53568172 0.049148254 0.013106251
0.53657609 0.047438059 0.012129717
0.53746778 0.045724515 0.011153068
0.54736781 0.071533799 0.015666759
0.54831421 0.06989111 0.014690951
0.54858041 0.068807334 0.01419255
0.54816842 0.068284966 0.014171631
0.54843259 0.067198649 0.013673127
0.54801995 0.066675439 0.013652175
0.54828209 0.065586582 0.013153569
0.54786879 0.065062523 0.013132583
0.54812896 0.063971125 0.012633879
0.54771495 0.063446216 0.012612859
0.54730093 0.062921315 0.012591839
0.54688692 0.062396411 0.012570819
0.54647291 0.061871506 0.012549799
0.54672915 0.060774997 0.012050862
0.54631448 0.060249247 0.012029808
0.54589981 0.059723493 0.012008755
0.54548514 0.059197742 0.0119877
0.54507047 0.058671992 0.011966647
0.5446558 0.058146238 0.011945592
0.54357487 0.058197174 0.012402658
0.54316092 0.05767227 0.012381638
0.5427469 0.057147365 0.012360618
0.54233289 0.05662246 0.012339598
0.54191887 0.05609756 0.012318579
0.54150486 0.055572655 0.012297558
0.54109085 0.05504775 0.012276538
0.54001534 0.055105425 0.012733846
0.5389412 0.055164792 0.013191225
0.53852856 0.054641582 0.013170273
0.53745639 0.054703489 0.013627754
0.53704435 0.054181125 0.013606836
0.53663236 0.053658765 0.013585918
0.53556287 0.053724054 0.014043534
0.53515154 0.05320254 0.014022649
0.53474021 0.052681021 0.014001765
0.53432888 0.052159503 0.01398088
0.53457236 0.051046938 0.013481325
0.53481454 0.049932681 0.012981703
0.53570879 0.048223991 0.012003277
0.54647791 0.072285034 0.0155468
0.54810214 0.070082717 0.014090621
0.54769081 0.069561198 0.014069737
0.54727948 0.06903968 0.014048852
0.547544 0.067954518 0.01354941
0.54780716 0.066867664 0.013049897
0.54739451 0.066344455 0.013028945
0.54698187 0.065821245 0.013007993
0.54724234 0.064731002 0.012508344
0.54682899 0.064206943 0.012487357
0.54641569 0.063682891 0.012466372
0.54533118 0.0637284 0.012924184
0.54558897 0.062634774 0.012424399
0.54517567 0.062110715 0.012403413
0.54476231 0.061586656 0.012382427
0.54501748 0.060489643 0.01188251
0.54460347 0.059964739 0.01186149
0.54418945 0.059439834 0.01184047
0.5437755 0.05891493 0.01181945
0.54269564 0.058966365 0.012277496
0.54228228 0.058442309 0.012256511
0.54186898 0.057918254 0.012235524
0.54145563 0.057394195 0.012214538
0.54104227 0.056870136 0.012193551
0.54062897 0.056346081 0.012172566
0.53955382 0.056403443 0.012630852
0.53914112 0.055880234 0.0126099
0.538068 0.055940136 0.013068289
0.53765595 0.055417769 0.01304737
0.53658479 0.055480216 0.013505857
0.53617346 0.054958697 0.013484973
0.53576213 0.054437179 0.013464088
0.53469366 0.054503042 0.013922739
0.53428298 0.05398237 0.013901888
0.53387231 0.053461701 0.013881038
0.53346163 0.052941028 0.013860187
0.53370547 0.051829591 0.013359666
0.53394794 0.05071649 0.012859105
0.53418911 0.049601696 0.012358473
0.54626691 0.072475709 0.014949395
0.54653507 0.071395941 0.014449181
0.54680192 0.070314474 0.0139489
0.54706746 0.069231287 0.013448525
0.54665613 0.068709768 0.01342764
0.54691958 0.06762407 0.012927186
0.5465076 0.06710171 0.012906267
0.54609561 0.066579342 0.01288535
0.54568362 0.066056974 0.012864431
0.54527158 0.065534614 0.012843513
0.54485959 0.065012246 0.012822594
0.5444476 0.064489886 0.012801676
0.54470575 0.063397415 0.012300954
0.54429311 0.062874205 0.012280001
0.5438804 0.062350992 0.012259049
0.54413593 0.061255135 0.011758192
0.54372257 0.060731079 0.011737205
0.54330921 0.06020702 0.011716219
0.54289591 0.059682962 0.011695233
0.54181707 0.059734937 0.012154288
0.54140443 0.059211727 0.012133336
0.54099172 0.058688514 0.012112384
0.54057908 0.058165301 0.012091431
0.54016638 0.057642091 0.012070479
0.53975374 0.057118881 0.012049527
0.5386796 0.05717678 0.012508819
0.53760678 0.057236373 0.012968183
0.53719544 0.056714855 0.012947299
0.53612459 0.056777019 0.013406786
0.53571391 0.05625635 0.013385935
0.53530324 0.055735681 0.013365084
0.53423512 0.055801198 0.013824683
0.5338251 0.055281371 0.013803866
0.53341514 0.054761551 0.013783049
0.53300512 0.054241724 0.013762232
0.5325951 0.053721901 0.013741416
0.53218514 0.053202074 0.013720599
0.53242856 0.05209098 0.013219131
0.54605585 0.072666377 0.01435199
0.54564655 0.072147399 0.014331208
0.5459137 0.071067095 0.013829985
0.54482788 0.071109444 0.014289642
0.54576886 0.069464423 0.013307843
0.54603273 0.068379857 0.012806426
0.5456214 0.067858338 0.012785541
0.54521006 0.06733682 0.012764657
0.54479873 0.066815302 0.012743772
0.5443874 0.066293783 0.012722888
0.54397607 0.065772265 0.012702003
0.54356474 0.065250747 0.012681119
0.54382318 0.064159438 0.012179455
0.5434112 0.06363707 0.012158537
0.54299921 0.063114703 0.012137619
0.54325503 0.062020008 0.011635819
0.54284233 0.061496794 0.011614867
0.54242969 0.060973585 0.011593915
0.54201698 0.060450375 0.011572963
0.54093921 0.060502883 0.012033027
0.54052716 0.059980519 0.012012108
0.54011518 0.059458151 0.01199119
0.53970319 0.058935791 0.011970271
0.5392912 0.058413427 0.011949354
0.53821737 0.058471013 0.012409621
0.5371449 0.058530331 0.012869982
0.53673422 0.058009658 0.012849132
0.53566372 0.058071479 0.013309568
0.53525376 0.057551656 0.013288752
0.53484374 0.057031829 0.013267935
0.53377593 0.057097036 0.013728508
0.53336662 0.056578059 0.013707725
0.53295732 0.056059081 0.013686943
0.53254795 0.0555401 0.013666159
0.53213865 0.055021122 0.013645377
0.53172928 0.054502144 0.013624595
0.53131998 0.053983167 0.013603811
0.53091061 0.053464189 0.013583029
0.54354155 0.075609967 0.015700648
0.54448986 0.073975727 0.014717305
0.54475868 0.072898246 0.014215183
0.54435003 0.072380111 0.014194435
0.54461688 0.071300119 0.013692237
0.54420751 0.070781142 0.013671454
0.54514647 0.069135047 0.012687637
0.54473579 0.068614379 0.012666787
0.54432517 0.068093702 0.012645937
0.5439145 0.067573033 0.012625085
0.54350382 0.067052364 0.012604235
0.54309314 0.066531688 0.012583384
0.54268247 0.066011019 0.012562534
0.54294133 0.064920835 0.012059904
0.54253 0.064399317 0.012039019
0.54211867 0.063877799 0.012018135
0.54237479 0.062784262 0.011515395
0.5419628 0.062261894 0.011494476
0.54155082 0.06173953 0.011473558
0.54113877 0.061217163 0.011452639
0.54006201 0.061270207 0.011913712
0.53965068 0.060748693 0.011892828
0.53923935 0.060227174 0.011871944
0.53882802 0.059705656 0.011851059
0.53775448 0.059762966 0.012312328
0.5373438 0.059242293 0.012291477
0.53627235 0.05930211 0.012752822
0.53586239 0.058782287 0.012732005
0.5347929 0.058844645 0.013193451
0.53438359 0.058325663 0.013172668
0.53331614 0.058390561 0.013634216
0.53290749 0.057872429 0.013613467
0.53249884 0.057354297 0.013592719
0.53209013 0.056836169 0.01357197
0.53168148 0.056318033 0.013551221
0.53127283 0.055799901 0.013530472
0.53086418 0.055281773 0.013509723
0.53045553 0.054763641 0.013488974
0.53069961 0.053654861 0.012985623
0.54373854 0.076314986 0.01512779
0.54333186 0.075799391 0.015107144
0.54427952 0.074165776 0.014121851
0.54387152 0.073648497 0.014101136
0.54346353 0.073131211 0.014080421
0.54373068 0.072052337 0.013577256
0.54332203 0.071534209 0.013556507
0.54358715 0.070452832 0.013053266
0.54385096 0.069369763 0.012549957
0.543441 0.068849936 0.01252914
0.54303098 0.068330109 0.012508324
0.54262096 0.06781029 0.012487507
0.542211 0.067290463 0.012466691
0.54180098 0.066770636 0.012445875
0.54206008 0.065681644 0.011942332
0.54164946 0.065160967 0.011921481
0.54123878 0.064640298 0.011900631
0.54149526 0.063547887 0.011396923
0.54108393 0.063026369 0.011376039
0.5406726 0.06250485 0.011355154
0.54026127 0.061983328 0.011334269
0.53918546 0.062036943 0.011796378
0.53877479 0.06151627 0.011775527
0.53836411 0.060995601 0.011754677
0.53795344 0.060474928 0.011733826
0.53688097 0.060532741 0.012196074
0.53580987 0.060592245 0.012658394
0.53540057 0.060073268 0.012637611
0.53433144 0.060135316 0.013100033
0.53392279 0.059617184 0.013079284
0.53351414 0.059099052 0.013058536
0.53244764 0.059164517 0.013521118
0.53203964 0.058647234 0.013500403
0.53163165 0.058129948 0.013479688
0.53122365 0.057612661 0.013458973
0.53081566 0.057095379 0.013438258
0.53040767 0.056578092 0.013417543
0.52999967 0.05606081 0.013396828
0.52959168 0.055543523 0.013376113
0.54257798 0.078132331 0.015521316
0.54352891 0.076504409 0.014534282
0.54312223 0.075988822 0.014513636
0.54339236 0.07491453 0.014009691
0.54298502 0.074398093 0.01398901
0.54325318 0.073321261 0.013484966
0.54284519 0.072803974 0.013464252
0.54311138 0.071724571 0.012960077
0.54270267 0.071206436 0.012939328
0.54296684 0.070124522 0.012435079
0.54255748 0.069605544 0.012414296
0.54214817 0.069086567 0.012393513
0.54173881 0.068567589 0.01237273
0.5413295 0.068048611 0.012351948
0.54158962 0.066961624 0.011847497
0.5411796 0.066441797 0.011826681
0.54076964 0.06592197 0.011805864
0.54035962 0.06540215 0.011785047
0.54061639 0.064310923 0.011280424
0.54020572 0.063790247 0.011259574
0.53979504 0.063269578 0.011238723
0.53938442 0.062748909 0.011217873
0.53830963 0.062803023 0.011680964
0.53789961 0.062283199 0.011660147
0.53748965 0.061763372 0.011639331
0.53641754 0.061820876 0.012102555
0.53600818 0.061301894 0.012081772
0.5349381 0.061361939 0.012545101
0.53386927 0.061423704 0.013008523
0.53346127 0.060906421 0.012987808
0.53305328 0.060389135 0.012967093
0.53198719 0.060454257 0.013430622
0.53157991 0.05993782 0.013409941
0.53117257 0.059421383 0.013389261
0.53076524 0.058904942 0.013368579
0.5303579 0.058388505 0.013347898
0.52995056 0.057872068 0.013327217
0.52954322 0.057355627 0.013306536
0.52913594 0.05683919 0.013285855
0.5287286 0.056322753 0.013265174
0.54236901 0.078321137 0.014929758
0.54264146 0.07725054 0.014424974
0.5429126 0.076178245 0.013920128
0.54250592 0.075662658 0.013899481
0.5420993 0.075147063 0.013878834
0.54236776 0.074071392 0.013373849
0.54196042 0.073554948 0.013353168
0.54222685 0.072476737 0.012848078
0.54181886 0.071959451 0.012827364
0.54208332 0.070878662 0.01232215
0.54167467 0.070360534 0.012301401
0.54126602 0.069842406 0.012280652
0.54085737 0.06932427 0.012259903
0.54111844 0.068239287 0.011754543
0.54070914 0.067720309 0.01173376
0.54029983 0.067201331 0.011712977
0.53989047 0.066682354 0.011692194
0.53948116 0.066163369 0.011671412
0.53973824 0.065073304 0.011165851
0.53932828 0.064553477 0.011145034
0.53891826 0.064033657 0.011124217
0.53850824 0.06351383 0.011103401
0.53743452 0.06356848 0.011567498
0.53702515 0.063049503 0.011546715
0.53661585 0.062530525 0.011525933
0.53554475 0.062588558 0.011990169
0.53447497 0.062648326 0.012454495
0.53406698 0.062131044 0.01243378
0.53299922 0.062193312 0.012898186
0.53259188 0.061676875 0.012877504
0.53152615 0.061741684 0.013342009
0.53111947 0.061226092 0.013321362
0.53071278 0.060710501 0.013300715
0.53030616 0.06019491 0.013280068
0.52989948 0.059679318 0.01325942
0.52949286 0.059163727 0.013238774
0.52908617 0.058648132 0.013218126
0.52867949 0.05813254 0.013197479
0.52827287 0.057616953 0.013176832
0.54120779 0.080133252 0.015329025
0.54216003 0.078509942 0.014338202
0.54243219 0.077439651 0.013832442
0.54202616 0.076924913 0.013811829
0.54162019 0.076410167 0.013791215
0.54121417 0.075895421 0.013770602
0.54148299 0.074820898 0.013264679
0.5410763 0.074305311 0.013244032
0.54134309 0.073228255 0.012738004
0.54093575 0.07271181 0.012717323
0.54120052 0.071632221 0.012211194
0.54079252 0.071114935 0.012190479
0.54038453 0.070597649 0.012169764
0.53997654 0.070080362 0.012149049
0.53956854 0.069563076 0.012128334
0.53982937 0.068478368 0.011621973
0.53942072 0.06796024 0.011601224
0.53901201 0.067442104 0.011580475
0.53860337 0.066923976 0.011559727
0.5388608 0.065835066 0.011053224
0.53845149 0.065316088 0.011032442
0.53804213 0.064797111 0.011011658
0.53763282 0.064278133 0.010990876
0.53656006 0.06433332 0.011455982
0.53615141 0.063815184 0.011435233
0.53508061 0.063872941 0.011900471
0.53467262 0.063355654 0.011879755
0.53360385 0.06341593 0.012345065
0.53253645 0.063477889 0.012810443
0.53212982 0.062962294 0.012789795
0.53172314 0.062446702 0.012769149
0.53065842 0.062512048 0.013234658
0.5302524 0.061997306 0.013214045
0.52984643 0.061482564 0.013193432
0.5294404 0.060967814 0.013172818
0.52903444 0.060453072 0.013152205
0.52862847 0.059938326 0.013131592
0.52822244 0.059423581 0.013110979
0.52781647 0.058908839 0.013090366
0.52741045 0.058394089 0.013069753
0.54099953 0.080321439 0.014739415
0.5412733 0.079254009 0.014232785
0.54154575 0.078184843 0.013726061
0.54114044 0.077670947 0.013705483
0.54073513 0.07715705 0.013684903
0.5410049 0.076084539 0.013178069
0.54059893 0.075569794 0.013157456
0.5401929 0.075055048 0.013136843
0.54045999 0.073979147 0.012629878
0.54005337 0.073463552 0.01260923
0.54031843 0.072385117 0.01210216
0.53991109 0.071868673 0.012081479
0.54017419 0.070787698 0.011574307
0.53976619 0.070270412 0.011553591
0.5393582 0.069753125 0.011532877
0.5389502 0.069235846 0.011512161
0.53854221 0.06871856 0.011491447
0.53813422 0.068201274 0.011470731
0.53772622 0.067683987 0.011450017
0.53798401 0.066596203 0.010942548
0.53757536 0.066078074 0.010921799
0.53716671 0.065559939 0.01090105
0.53675807 0.06504181 0.010880301
0.53568625 0.065097563 0.011346442
0.53527826 0.064580284 0.011325727
0.53420854 0.06463854 0.011791945
0.5338012 0.064122103 0.011771264
0.5327335 0.064182907 0.012237582
0.53166705 0.064245403 0.012703965
0.53126109 0.063730657 0.012683352
0.53085512 0.063215911 0.012662739
0.52979136 0.063281797 0.013129261
0.52938604 0.062767893 0.013108682
0.52898073 0.062253997 0.013088103
0.52857542 0.061740097 0.013067524
0.52817005 0.0612262 0.013046945
0.52776474 0.060712304 0.013026365
0.52735943 0.060198404 0.013005786
0.52695411 0.059684508 0.012985206
0.5265488 0.059170607 0.012964627
0.54079121 0.080509618 0.014149808
0.54038727 0.079997413 0.014129297
0.54066002 0.078929447 0.013621657
0.54025537 0.078416392 0.013601112
0.53985071 0.077903345 0.013580566
0.54012084 0.076831952 0.013072766
0.53971553 0.076318055 0.013052187
0.53931022 0.075804159 0.013031607
0.5395776 0.07472942 0.012523698
0.53917164 0.074214675 0.012503085
0.53943706 0.073137388 0.011995079
0.53903037 0.0726218 0.011974432
0.53929383 0.071541972 0.011466318
0.53888649 0.071025535 0.011445637
0.53847915 0.070509098 0.011424956
0.53807181 0.069992661 0.011404275
0.53766447 0.069476224 0.011383594
0.53725713 0.06895978 0.011362913
0.53684986 0.068443343 0.011342232
0.53644252 0.067926906 0.011321551
0.53669989 0.066839471 0.010813133
0.5362919 0.066322185 0.010792417
0.5358839 0.065804899 0.010771703
0.53481323 0.065861158 0.011238827
0.53440589 0.065344714 0.011218146
0.53333718 0.065403514 0.011685372
0.53293049 0.064887926 0.011664725
0.53186375 0.064949267 0.012132047
0.53039306 0.064498395 0.012578863
0.52998775 0.063984498 0.012558283
0.52852035 0.063537896 0.013005296
0.52811569 0.063024841 0.01298475
0.52771103 0.062511794 0.012964205
0.52730638 0.06199874 0.012943659
0.52690172 0.061485689 0.012923114
0.52649707 0.060972635 0.012902568
0.52674514 0.059873313 0.01239365
0.52568775 0.059946533 0.012861477
0.53963012 0.082315832 0.014556712
0.54058295 0.080697805 0.013560198
0.54017901 0.0801856 0.013539687
0.53977501 0.079673395 0.013519175
0.53937101 0.079161189 0.013498664
0.53896701 0.078648984 0.013478152
0.53923744 0.077578783 0.012969439
0.53883278 0.077065736 0.012948894
0.53842813 0.076552682 0.012928349
0.53869593 0.075479068 0.012419472
0.53829056 0.074965172 0.012398892
0.53855634 0.073889047 0.011889939
0.53815031 0.073374301 0.011869325
0.53841406 0.072295636 0.011360277
0.53800744 0.071780041 0.01133963
0.53760076 0.071264446 0.011318984
0.53719407 0.070748858 0.011298336
0.53678745 0.070233263 0.011277689
0.53638077 0.069717675 0.011257042
0.53597414 0.06920208 0.011236395
0.53556746 0.068686493 0.011215747
0.53582519 0.067600213 0.010706387
0.53541785 0.067083769 0.010685707
0.53501052 0.066567332 0.010665026
0.53394085 0.066624127 0.01113316
0.53353417 0.066108532 0.011112512
0.53206044 0.065653123 0.011560127
0.53165448 0.065138377 0.011539514
0.53058946 0.065201096 0.012007886
0.5295257 0.065265544 0.012476349
0.52912104 0.064752489 0.012455804
0.52871639 0.064239442 0.012435259
0.52765536 0.064307243 0.01290383
0.52725136 0.063795038 0.012883319
0.52684736 0.063282833 0.012862807
0.52644336 0.062770627 0.012842296
0.52603936 0.062258422 0.012821784
0.52628845 0.061161131 0.012311987
0.52588379 0.06064808 0.012291441
0.53874451 0.083055995 0.014458025
0.53969729 0.081439435 0.013459598
0.539294 0.080928072 0.013439121
0.53889066 0.080416717 0.013418643
0.53848732 0.079905361 0.013398165
0.53808403 0.079393998 0.013377688
0.53835475 0.078324959 0.012868034
0.53795075 0.077812754 0.012847522
0.53821951 0.076741174 0.012337763
0.53781486 0.076228127 0.012317218
0.53808165 0.075153969 0.011807335
0.53767633 0.074640073 0.011786756
0.53727096 0.074126177 0.011766177
0.53753507 0.073048666 0.01125618
0.53712904 0.072533928 0.011235567
0.53672308 0.072019182 0.011214954
0.53631705 0.071504436 0.011194341
0.53591108 0.070989691 0.011173727
0.53550512 0.070474945 0.011153114
0.53509909 0.069960199 0.011132501
0.53469312 0.069445454 0.011111887
0.53495115 0.068360329 0.010601593
0.53454453 0.067844734 0.010580946
0.53413785 0.067329146 0.010560298
0.53373116 0.066813551 0.010539652
0.53266317 0.066871732 0.011008821
0.53225714 0.066356987 0.010988208
0.53119111 0.066417702 0.011457487
0.5307858 0.065903805 0.011436908
0.52972174 0.06596709 0.01190631
0.52865905 0.066032037 0.012375758
0.52825505 0.065519832 0.012355247
0.52785105 0.065007627 0.012334735
0.52679104 0.065075964 0.012804314
0.52638775 0.064564608 0.012783838
0.52598441 0.064053245 0.01276336
0.52558106 0.063541889 0.012742883
0.5258311 0.062446605 0.012232177
0.52542716 0.0619344 0.012211666
0.52567518 0.060836576 0.011700856
0.52551657 0.059223123 0.011169377
0.52641129 0.057532907 0.010168004
0.52925146 0.05407225 0.0076951706
0.53853726 0.083243243 0.01387134
0.53881234 0.08218044 0.013360948
0.53840965 0.081669934 0.013340505
0.53800702 0.08115942 0.013320061
0.53760439 0.080648907 0.013299618
0.53787613 0.079581872 0.012789057
0.53747278 0.079070516 0.012768579
0.53706944 0.078559153 0.012748101
0.5373385 0.077488735 0.012237401
0.53693455 0.07697653 0.012216889
0.53720158 0.075903565 0.011706091
0.53679693 0.075390518 0.011685546
0.53639227 0.074877463 0.011665
0.53665668 0.073801085 0.01115404
0.53625137 0.073287182 0.01113346
0.53584605 0.072773285 0.011112881
0.53544074 0.072259389 0.011092302
0.53503543 0.071745485 0.011071723
0.53463006 0.071231589 0.011051144
0.53422475 0.070717692 0.011030564
0.53381944 0.070203796 0.011009985
0.53407782 0.069119826 0.010498742
0.5336718 0.06860508 0.010478129
0.53326583 0.068090335 0.010457516
0.53285986 0.067575596 0.010436903
0.53179282 0.067634299 0.010907088
0.53138751 0.067120403 0.010886509
0.53032243 0.067181684 0.011356818
0.52991778 0.066668637 0.011336274
0.52885479 0.066732429 0.011806659
0.52779311 0.066797912 0.012277116
0.52738976 0.066286556 0.012256639
0.52698642 0.065775193 0.012236161
0.52592742 0.065844066 0.01270675
0.5255248 0.065333553 0.012686307
0.52512211 0.064823039 0.012665863
0.52471948 0.064312533 0.012645419
0.52496982 0.0632184 0.012133773
0.52456653 0.062707044 0.012113295
0.5248149 0.061610378 0.011601544
0.52701497 0.058753517 0.0096157901
0.52660835 0.058237925 0.0095951427
0.52685136 0.057134483 0.0090831239
0.5290401 0.054263234 0.0070967902
0.53737587 0.085042462 0.01428687
0.53833002 0.083430499 0.013284656
0.53792804 0.082920834 0.013264246
0.53752607 0.082411163 0.013243836
0.5371241 0.081901498 0.013223426
0.53739679 0.080836467 0.012711958
0.53699416 0.080325954 0.012691515
0.53659147 0.079815447 0.01267107
0.53618884 0.079304934 0.012650627
0.53645819 0.078235671 0.012138989
0.53605491 0.077724308 0.012118511
0.5363223 0.076652505 0.011606771
0.5359183 0.076140299 0.011586259
0.5355143 0.075628094 0.011565748
0.535779 0.074552909 0.011053872
0.53537434 0.074039854 0.011033327
0.53496969 0.0735268 0.011012781
0.53456503 0.073013753 0.010992236
0.53416038 0.072500698 0.010971691
0.53375572 0.071987644 0.010951146
0.53335106 0.071474597 0.0109306
0.53294641 0.070961542 0.010910055
0.53320515 0.069878697 0.010397849
0.53279984 0.069364801 0.010377269
0.53239453 0.068850905 0.01035669
0.53198916 0.068337001 0.01033611
0.53092313 0.068396285 0.010807328
0.52985847 0.068457223 0.011278586
0.52945447 0.067945018 0.011258075
0.52905047 0.067432813 0.011237564
0.52798849 0.067497142 0.011708959
0.52692783 0.067563161 0.012180422
0.52652514 0.067052647 0.012159978
0.52612251 0.066542141 0.012139535
0.52506453 0.066611543 0.012611133
0.52466255 0.066101879 0.012590723
0.52426052 0.065592214 0.012570313
0.52385855 0.065082543 0.012549903
0.52410924 0.06398958 0.012037316
0.52435857 0.062894918 0.011524661
0.52395529 0.062383559 0.011504183
0.5261547 0.059528787 0.0095145591
0.52704871 0.05784066 0.0085093221
0.52988803 0.054386504 0.0060268794
0.52947742 0.053865828 0.006006029
0.53649163 0.085779913 0.014193997
0.53744572 0.084169447 0.013189895
0.53704441 0.083660625 0.01316952
0.53664309 0.08315181 0.013149144
0.53691685 0.082088754 0.012636743
0.53651482 0.081579082 0.012616333
0.53611284 0.081069417 0.012595923
0.53571087 0.080559753 0.012575513
0.53598124 0.079492494 0.012062967
0.53557861 0.078981981 0.012042523
0.53517592 0.078471474 0.01202208
0.53544366 0.077400826 0.011509398
0.53504032 0.076889463 0.011488921
0.53463703 0.076378107 0.011468443
0.53490204 0.075304076 0.010955626
0.53449804 0.074791871 0.010935115
0.53409404 0.074279666 0.010914603
0.53369009 0.073767461 0.010894092
0.53328609 0.073255256 0.01087358
0.53288209 0.072743051 0.010853069
0.53247809 0.072230846 0.010832557
0.53207409 0.071718641 0.010812046
0.53233314 0.070636988 0.010298924
0.53192848 0.070123933 0.010278379
0.53152382 0.069610886 0.010257833
0.53111917 0.069097832 0.010237288
0.53005415 0.069157615 0.010709489
0.52899051 0.06921909 0.011181757
0.52858722 0.068707727 0.011161279
0.52818388 0.068196371 0.011140802
0.52712291 0.068261236 0.011613206
0.5260632 0.068327792 0.012085678
0.52566123 0.06781812 0.012065268
0.52525926 0.067308456 0.012044858
0.52420223 0.067378432 0.012517491
0.52380091 0.066869617 0.012497115
0.52339959 0.066360794 0.012476739
0.52299827 0.065851979 0.012456363
0.52324933 0.064760126 0.011942809
0.52349901 0.063666627 0.011429212
0.52374732 0.062571429 0.010915549
0.52854669 0.057375737 0.0069489889
0.52943736 0.05568485 0.0059416629
0.5362854 0.085966229 0.013610238
0.53656214 0.08490774 0.013097056
0.53616148 0.084399767 0.013076714
0.53576082 0.083891802 0.013056372
0.53603488 0.08282993 0.012543055
0.53563356 0.082321115 0.01252268
0.53523225 0.081812292 0.012502303
0.53483093 0.081303477 0.012481928
0.53510165 0.080237336 0.011968418
0.53469968 0.079727672 0.011948009
0.53496838 0.078659035 0.01143442
0.53456569 0.078148521 0.011413977
0.53416306 0.077638008 0.011393533
0.53376043 0.077127494 0.011373089
0.53402579 0.076054618 0.010859331
0.53362244 0.075543262 0.010838853
0.5332191 0.075031906 0.010818375
0.53281581 0.074520543 0.010797898
0.53241247 0.074009188 0.01077742
0.53200918 0.073497832 0.010756942
0.53160584 0.072986469 0.010736465
0.5312025 0.072475113 0.010715988
0.53146189 0.071394615 0.010201927
0.53105789 0.07088241 0.010181416
0.53065389 0.070370205 0.010160904
0.53024989 0.069858 0.010140393
0.52918589 0.06991832 0.0106136
0.52812326 0.069980331 0.011086877
0.52772063 0.069469817 0.011066433
0.52731794 0.068959311 0.01104599
0.52625799 0.069024704 0.011519403
0.52519929 0.069091827 0.011992906
0.52479798 0.068583012 0.01197253
0.52439666 0.068074189 0.011952154
0.5233407 0.068144672 0.012425771
0.52294004 0.067636691 0.012405429
0.52253938 0.067128725 0.012385087
0.52213871 0.066620752 0.012364745
0.52239007 0.065530099 0.011850275
0.52198875 0.065021276 0.011829899
0.53607923 0.086152546 0.013026476
0.53567922 0.085645415 0.013006168
0.53527927 0.085138291 0.01298586
0.53487927 0.084631167 0.012965552
0.53515363 0.083570451 0.012451297
0.53475296 0.083062485 0.012430955
0.53435236 0.082554512 0.012410613
0.53462404 0.081490412 0.011896218
0.53422272 0.080981597 0.011875843
0.5338214 0.080472775 0.011855466
0.53409046 0.079405256 0.011340914
0.53368849 0.078895591 0.011320504
0.53328645 0.078385927 0.011300094
0.53288448 0.077876262 0.011279685
0.5331502 0.076804549 0.010764985
0.53274751 0.076294035 0.010744542
0.53234488 0.075783521 0.010724098
0.53194219 0.075273007 0.010703655
0.53153956 0.074762501 0.010683211
0.53113693 0.074251987 0.010662767
0.53073424 0.073741473 0.010642324
0.53033161 0.073230959 0.010621879
0.53059125 0.072151624 0.010106878
0.53018796 0.071640268 0.0100864
0.52978462 0.071128905 0.010065923
0.52938133 0.070617549 0.010045446
0.52831835 0.070678405 0.010519661
0.52725673 0.070740946 0.010993948
0.52685469 0.070231281 0.010973538
0.52645272 0.069721617 0.010953128
0.52539372 0.069787584 0.011427573
0.5243361 0.069855206 0.011902063
0.52393544 0.06934724 0.011881721
0.52353477 0.068839267 0.011861379
0.52247983 0.068910278 0.012336002
0.52207983 0.068403155 0.012315693
0.52167988 0.067896031 0.012295385
0.52127987 0.067388907 0.012275077
0.52153152 0.066299409 0.01175967
0.52113092 0.065791436 0.011739327
0.53424096 0.088493146 0.013947306
0.53519636 0.086888745 0.012937501
0.53547305 0.085831732 0.012422406
0.53507304 0.085324608 0.012402098
0.53467309 0.084817484 0.01238179
0.53427309 0.08431036 0.012361482
0.53387308 0.083803236 0.012341173
0.53414577 0.082741141 0.011825875
0.53374511 0.082233168 0.011805533
0.53401583 0.081168532 0.011290133
0.53361452 0.080659717 0.011269758
0.5332132 0.080150895 0.011249381
0.53281188 0.07964208 0.011229006
0.53241056 0.079133257 0.011208629
0.53200924 0.078624442 0.011188254
0.53227526 0.077553846 0.010672587
0.53187329 0.077044182 0.010652178
0.53147131 0.076534517 0.010631768
0.53106934 0.076024853 0.010611358
0.5306673 0.075515188 0.010590948
0.53026533 0.075005524 0.010570538
0.52986336 0.074495859 0.010550128
0.52946138 0.073986195 0.010529719
0.52972138 0.072908014 0.010013776
0.52931869 0.0723975 0.0099933324
0.52891606 0.071886986 0.009972889
0.52851343 0.07137648 0.0099524455
0.52745146 0.071437865 0.01042767
0.52639079 0.071500979 0.010902992
0.52598947 0.070992157 0.010882615
0.52558815 0.070483342 0.01086224
0.52453017 0.070549808 0.011337668
0.52347356 0.070617974 0.011813164
0.52307361 0.07011085 0.011792855
0.52267361 0.069603726 0.011772547
0.52161968 0.069675274 0.012248179
0.52122033 0.069168992 0.012227905
0.52082103 0.06866271 0.01220763
0.52042174 0.068156436 0.012187356
0.52067369 0.067068093 0.011671007
0.5340358 0.088678531 0.01336647
0.5343141 0.087624364 0.012850502
0.5345912 0.086568475 0.01233444
0.53419185 0.0860622 0.012314166
0.53379256 0.085555919 0.012293891
0.5333932 0.085049637 0.012273617
0.53366691 0.083989546 0.011757415
0.5332669 0.083482422 0.011737106
0.53353858 0.082419798 0.011220799
0.53313792 0.081911825 0.011200457
0.53273731 0.081403852 0.011180115
0.53233665 0.080895878 0.011159773
0.53260499 0.079829015 0.010643293
0.53220367 0.0793202 0.010622917
0.53180236 0.078811377 0.010602541
0.53140104 0.078302562 0.010582165
0.53099972 0.07779374 0.010561789
0.5305984 0.077284925 0.010541414
0.53019708 0.07677611 0.010521038
0.52979577 0.076267287 0.010500662
0.52939445 0.075758472 0.010480286
0.52899313 0.07524965 0.01045991
0.52859181 0.074740835 0.010439534
0.52885216 0.073663779 0.0099226246
0.52845019 0.073154114 0.0099022146
0.52804816 0.072644442 0.0098818047
0.52764618 0.072134785 0.0098613957
0.52658522 0.072196737 0.010337655
0.52552557 0.07226035 0.010813959
0.52512497 0.071752384 0.010793617
0.5247243 0.071244411 0.010773275
0.52366734 0.071311414 0.011249713
0.52261174 0.071380116 0.011726215
0.52221245 0.070873834 0.01170594
0.52181309 0.07036756 0.011685666
0.52076012 0.070439674 0.012162332
0.52036148 0.069934241 0.012142092
0.51996285 0.069428809 0.012121852
0.51956421 0.068923377 0.012101611
0.51981658 0.067836165 0.011584295
0.53383058 0.088863909 0.012785633
0.53410858 0.087810062 0.012268689
0.53370994 0.087304629 0.012248449
0.53331131 0.086799197 0.01222821
0.53291267 0.086293764 0.012207969
0.53318739 0.085235648 0.01169083
0.53278804 0.084729366 0.011670556
0.53306073 0.083668739 0.011153344
0.53333205 0.08260642 0.010636061
0.53293139 0.082098447 0.010615719
0.53253073 0.081590481 0.010595378
0.53213012 0.081082508 0.010575036
0.53172946 0.080574535 0.010554694
0.5313288 0.080066562 0.010534352
0.53092813 0.079558589 0.01051401
0.53052747 0.079050615 0.010493668
0.53012687 0.07854265 0.010473326
0.52972621 0.078034677 0.010452984
0.52932554 0.077526703 0.010432642
0.52892488 0.07701873 0.0104123
0.52852422 0.076510757 0.010391958
0.52812362 0.076002784 0.010371616
0.52772295 0.075494811 0.010351274
0.52798361 0.074418955 0.0098334486
0.52758229 0.073910132 0.0098130731
0.52718097 0.07340131 0.0097926967
0.52677965 0.072892494 0.0097723212
0.5257197 0.072954953 0.010249564
0.52466112 0.07301911 0.010726875
0.52426112 0.072511978 0.010706566
0.52386111 0.072004855 0.010686259
0.52280521 0.072072402 0.011163701
0.52175057 0.072141662 0.011641242
0.52135193 0.07163623 0.011621001
0.5209533 0.071130797 0.011600761
0.51990134 0.071203418 0.01207841
0.51950336 0.070698835 0.012058204
0.51910537 0.070194252 0.012037998
0.51870739 0.069689661 0.012017791
0.51896006 0.068603635 0.01149956
0.53266948 0.090648405 0.013220289
0.53362542 0.089049295 0.012204793
0.53322744 0.088544711 0.012184587
0.53282946 0.088040128 0.01216438
0.53310579 0.086984888 0.011646397
0.53270715 0.086479455 0.011626157
0.53230852 0.08597403 0.011605917
0.53258222 0.08491537 0.011087769
0.53218287 0.084409095 0.011067495
0.53245455 0.083347932 0.010549274
0.53272486 0.082285076 0.010030982
0.53232419 0.081777103 0.01001064
0.53192353 0.081269138 0.0099902982
0.53152287 0.080761164 0.0099699562
0.53112227 0.080253191 0.0099496143
0.5307216 0.079745218 0.0099292723
0.53032094 0.079237245 0.0099089304
0.52992028 0.078729272 0.0098885885
0.52951968 0.078221299 0.0098682465
0.52911901 0.077713333 0.0098479046
0.52871835 0.07720536 0.0098275626
0.52831769 0.076697387 0.0098072207
0.52791703 0.076189414 0.0097868787
0.52751642 0.075681441 0.0097665368
0.52711576 0.075173467 0.0097461948
0.5267151 0.074665494 0.0097258529
0.52631444 0.074157529 0.0097055109
0.52591377 0.073649555 0.009685169
0.5248549 0.07371255 0.010163421
0.52379727 0.073777236 0.010641737
0.52339798 0.073270962 0.010621463
0.52299863 0.072764687 0.010601189
0.52194369 0.072832793 0.01107967
0.52089012 0.07290256 0.011558189
0.52049214 0.072397977 0.011537983
0.52009416 0.071893387 0.011517777
0.51904327 0.071966544 0.011996436
0.51864594 0.071462803 0.011976263
0.51824862 0.070959069 0.011956091
0.51785129 0.070455328 0.011935919
0.53178835 0.091380119 0.01314002
0.53274429 0.089782476 0.012122611
0.53234702 0.089278735 0.012102438
0.5319497 0.088775001 0.012082266
0.53222632 0.087720923 0.011563337
0.53182834 0.08721634 0.011543131
0.532103 0.086159721 0.011024102
0.53170437 0.085654289 0.011003861
0.531977 0.084595099 0.010484708
0.53224832 0.083534248 0.009965512
0.53251833 0.082471706 0.0094462484
0.53211766 0.081963733 0.0094259065
0.531717 0.08145576 0.0094055645
0.53131634 0.080947787 0.0093852226
0.53091568 0.080439821 0.0093648806
0.53051507 0.079931848 0.0093445387
0.53011441 0.079423875 0.0093241967
0.52971375 0.078915901 0.0093038548
0.52931309 0.078407928 0.0092835128
0.52891243 0.077899955 0.0092631709
0.52851182 0.077391982 0.0092428289
0.52811116 0.076884016 0.0092224861
0.5277105 0.076376043 0.0092021441
0.52730983 0.07586807 0.0091818022
0.52690923 0.075360097 0.0091614602
0.52650857 0.074852124 0.0091411183
0.52544862 0.074913114 0.0096202744
0.52504867 0.074405991 0.0095999669
0.52399075 0.074469522 0.010079225
0.52293414 0.074534781 0.010558575
0.5225355 0.074029349 0.010538335
0.52213681 0.073523916 0.010518095
0.52108294 0.073592529 0.010997559
0.52003038 0.073662832 0.011477091
0.51963305 0.073159099 0.011456919
0.51923573 0.072655357 0.011436746
0.51883841 0.072151616 0.011416574
0.51844108 0.071647875 0.011396402
0.51804382 0.071144141 0.011376229
0.51764649 0.0706404 0.011356057
0.53090787 0.092111245 0.013061723
0.53186387 0.09051504 0.012042372
0.5314672 0.090012148 0.012022233
0.53174484 0.088960074 0.011502401
0.53134757 0.088456333 0.011482229
0.53162318 0.087401718 0.010962294
0.5312252 0.086897135 0.010942088
0.53149885 0.085839987 0.01042205
0.53177118 0.084781103 0.0099019213
0.53204215 0.083720565 0.0093817534
0.53164214 0.083213441 0.009361445
0.53191108 0.082150362 0.0088411691
0.53151047 0.081642389 0.0088208271
0.53110981 0.081134416 0.0088004852
0.53070915 0.080626443 0.0087801432
0.53030849 0.080118477 0.0087598013
0.52990788 0.079610504 0.0087394593
0.52950722 0.079102531 0.0087191174
0.52910656 0.078594558 0.0086987754
0.52870589 0.078086585 0.0086784335
0.52830523 0.077578612 0.0086580915
0.52790463 0.077070646 0.0086377487
0.52750397 0.076562673 0.0086174067
0.5271033 0.0760547 0.0085970648
0.52670264 0.075546727 0.0085767228
0.5256424 0.075606562 0.0090568243
0.52524245 0.075099431 0.0090365158
0.52418423 0.075161807 0.0095167113
0.52312726 0.075225912 0.0099970037
0.52207172 0.075291671 0.010477342
0.52167374 0.074787088 0.010457136
0.52127576 0.074282497 0.010436929
0.52022284 0.074351646 0.010917399
0.5191713 0.074422486 0.011397937
0.51877463 0.073919594 0.011377799
0.51837802 0.073416702 0.01135766
0.51798135 0.072913811 0.011337521
0.51758468 0.072410919 0.011317383
0.51718807 0.071908027 0.011297245
0.51614118 0.07198479 0.011778023
0.53002816 0.092841715 0.012985351
0.5309841 0.091246977 0.011964086
0.53126276 0.090196908 0.011443347
0.53086609 0.089694016 0.011423209
0.53046948 0.089191124 0.01140307
0.53074539 0.088137664 0.010882195
0.53034812 0.08763393 0.010862023
0.53062207 0.086577937 0.010341042
0.5308947 0.085520245 0.0098199975
0.53116602 0.084460832 0.0092988601
