# .PCD v0.7 - Point Cloud Data file format
VERSION 0.7
FIELDS x y z
SIZE 4 4 4
TYPE F F F
COUNT 1 1 1
WIDTH 1377
HEIGHT 1
VIEWPOINT 0 0 0 1 0 0 0
POINTS 1377
DATA ascii
0.46304199 -0.21933329 0.028311182
0.46519774 -0.21867536 0.029108422
0.46735227 -0.21802157 0.029905612
0.46858117 -0.21720198 0.030312128
0.46980941 -0.21638444 0.030718613
0.47103706 -0.21556897 0.03112505
0.47134069 -0.21458255 0.031140914
0.47256735 -0.2137702 0.031547315
0.47287065 -0.2127848 0.031563163
0.47317395 -0.2117994 0.03157901
0.47347727 -0.210814 0.031594858
0.47378057 -0.2098286 0.031610705
0.47408387 -0.2088432 0.031626552
0.47438717 -0.2078578 0.0316424
0.4746905 -0.20687242 0.031658251
0.4749938 -0.20588702 0.031674098
0.47529709 -0.20490162 0.031689946
0.47468054 -0.20373181 0.03131542
0.47498417 -0.20274538 0.031331286
0.47436857 -0.20157248 0.030956825
0.47467253 -0.20058501 0.030972706
0.47497648 -0.19959755 0.030988587
0.47436216 -0.19842051 0.03061418
0.47466642 -0.19743201 0.030630078
0.47405306 -0.19625185 0.03025572
0.47344026 -0.19506963 0.029881397
0.47374517 -0.19407907 0.029897327
0.47313339 -0.19289376 0.029523052
0.47252226 -0.19170637 0.029148813
0.47191173 -0.19051692 0.028774619
0.47130182 -0.18932538 0.02840043
0.4706926 -0.18813179 0.02802629
0.47008401 -0.18693614 0.027652182
0.4703908 -0.18593937 0.027668212
0.46978316 -0.18474062 0.027294168
0.46917617 -0.18353979 0.026920144
0.46856976 -0.18233688 0.026546137
0.46796402 -0.18113191 0.026172195
0.46827209 -0.180131 0.026188292
0.46766734 -0.17892295 0.025814384
0.46797574 -0.17792101 0.025830496
0.46737191 -0.17670985 0.025456639
0.46768063 -0.17570686 0.02547277
0.4670777 -0.17449258 0.025098961
0.46647549 -0.17327625 0.024725186
0.46678483 -0.17227121 0.024741348
0.46618357 -0.17105177 0.024367623
0.46558294 -0.16983026 0.023993947
0.46498293 -0.1686067 0.023620287
0.46438351 -0.16738103 0.023246648
0.46469414 -0.16637185 0.023262877
0.46409574 -0.16514312 0.022889301
0.46440667 -0.16413291 0.022905547
0.46380922 -0.16290106 0.022532037
0.46412048 -0.16188981 0.022548299
0.46443173 -0.16087857 0.022564564
0.46383557 -0.15964258 0.022191104
0.46414715 -0.1586303 0.022207385
0.46355194 -0.15739122 0.021833975
0.46295729 -0.15615006 0.021460598
0.4632695 -0.15513571 0.021476911
0.46267587 -0.15389146 0.021103585
0.46208286 -0.15264514 0.020730292
0.46330094 -0.1518607 0.021136245
0.46361348 -0.1508453 0.021152575
0.46392602 -0.14982992 0.021168904
0.46333429 -0.14857948 0.020795679
0.43381661 -0.13977137 0.007957275
0.43142906 -0.13800938 0.0068055866
0.42904338 -0.1362412 0.0056540268
0.52261794 0.2185342 0.0050662863
0.52294832 0.21960749 0.0050835474
0.41257569 -0.22240087 0.00713947
0.41289777 -0.22135447 0.0071562985
0.44631761 -0.22379886 0.020920478
0.44755548 -0.22294921 0.021328518
0.45527896 -0.22323282 0.024479048
0.45651335 -0.22239454 0.024886904
0.46237695 -0.22237669 0.027253518
0.46268281 -0.22138302 0.027269498
0.46021265 -0.21989214 0.026110305
0.46236947 -0.21922891 0.026909752
0.46452507 -0.21856982 0.027709117
0.46667933 -0.21791485 0.02850843
0.4688324 -0.21726404 0.029307663
0.47006038 -0.21644644 0.029715201
0.47128773 -0.2156309 0.030122692
0.47159135 -0.21464448 0.030138558
0.47281778 -0.21383205 0.030546013
0.47312108 -0.21284665 0.030561861
0.47434658 -0.21203735 0.030969266
0.47464958 -0.21105298 0.030985096
0.47495255 -0.21006863 0.031000929
0.47525555 -0.20908426 0.03101676
0.47555852 -0.2080999 0.03103259
0.47586152 -0.20711555 0.031048421
0.47616452 -0.20613118 0.031064251
0.47646749 -0.2051468 0.031080082
0.47677049 -0.20416245 0.031095915
0.47615415 -0.20299269 0.030720336
0.47645745 -0.20200729 0.030736184
0.47584212 -0.20083445 0.030360656
0.47614574 -0.19984801 0.03037652
0.47644937 -0.19886158 0.030392384
0.47583532 -0.19768462 0.030016936
0.4752219 -0.19650558 0.029641509
0.47460911 -0.19532445 0.029266128
0.47491369 -0.19433492 0.029282043
0.47430182 -0.19315068 0.028906697
0.4736906 -0.1919644 0.028531386
0.47308004 -0.19077606 0.028156107
0.47338557 -0.18978342 0.028172072
0.472776 -0.18859196 0.027796859
0.47216696 -0.18739843 0.027421663
0.47155863 -0.18620284 0.027046502
0.47095093 -0.18500519 0.026671372
0.47034389 -0.18380545 0.026296292
0.46973747 -0.18260366 0.025921244
0.46913162 -0.18139978 0.025546201
0.46943939 -0.18039991 0.025562281
0.46883455 -0.17919295 0.025187315
0.46914265 -0.17819203 0.025203412
0.46853876 -0.17698197 0.024828499
0.46884716 -0.17598003 0.024844611
0.46824425 -0.17476687 0.024469733
0.46764189 -0.1735516 0.024094887
0.46795094 -0.17254761 0.024111032
0.46734962 -0.17132927 0.023736237
0.46674892 -0.17010885 0.023361489
0.46614885 -0.16888638 0.022986773
0.46554944 -0.16766185 0.022612078
0.46585974 -0.16665371 0.022628291
0.46526125 -0.16542605 0.022253631
0.46557188 -0.16441686 0.02226986
0.46497434 -0.16318612 0.021895278
0.4652853 -0.16217591 0.021911524
0.46559626 -0.1611657 0.021927772
0.465 -0.15993081 0.021553256
0.46531126 -0.15891956 0.021569518
0.46471599 -0.15768158 0.021195039
0.46502757 -0.1566693 0.021211319
0.46443325 -0.15542822 0.020836888
0.4638395 -0.15418504 0.020462491
0.46415171 -0.15317069 0.020478806
0.46355897 -0.15192445 0.020104472
0.46296689 -0.15067612 0.019730173
0.46327975 -0.14965971 0.01974652
0.46359259 -0.14864329 0.019762866
0.43498722 -0.14007336 0.0072803404
0.43260023 -0.13831264 0.0061255316
0.41284162 -0.22246657 0.0060761734
0.41316372 -0.22142017 0.0060930019
0.44688529 -0.22285207 0.019910207
0.44812256 -0.22200339 0.020319285
0.45676744 -0.22245732 0.023870885
0.4626295 -0.22243908 0.02624381
0.46293536 -0.22144541 0.026259791
0.4595409 -0.21978906 0.024704685
0.46077278 -0.21895795 0.02511348
0.46292841 -0.21829666 0.025914986
0.46693107 -0.21797703 0.02750187
0.46815982 -0.21715629 0.027910514
0.47031134 -0.21650843 0.02871179
0.47153842 -0.21569283 0.029120335
0.47276488 -0.21487932 0.029528847
0.47399077 -0.21406788 0.029937355
0.47429374 -0.21308352 0.029953185
0.47551861 -0.21227515 0.030361615
0.47582129 -0.21129182 0.030377429
0.47612396 -0.21030849 0.030393243
0.47642663 -0.20932516 0.030409057
0.4767293 -0.20834184 0.030424872
0.47703198 -0.20735851 0.030440686
0.47733465 -0.20637518 0.0304565
0.47763732 -0.20539185 0.030472314
0.47793999 -0.20440853 0.03048813
0.47824267 -0.2034252 0.030503944
0.47762662 -0.20225553 0.030127326
0.47792962 -0.20127116 0.030143157
0.4773145 -0.20009837 0.02976656
0.4776178 -0.19911298 0.029782407
0.47700369 -0.19793709 0.02940589
0.47639021 -0.19675915 0.029029407
0.47669417 -0.19577168 0.029045288
0.47608164 -0.19459064 0.028668853
0.47546974 -0.19340751 0.028292451
0.47485843 -0.19222231 0.027916068
0.47424784 -0.19103506 0.027539719
0.47455305 -0.19004346 0.027555667
0.47394338 -0.18885311 0.027179383
0.47333437 -0.18766068 0.02680313
0.47272593 -0.18646617 0.026426898
0.47211817 -0.18526962 0.026050698
0.47151107 -0.18407099 0.025674546
0.47090459 -0.1828703 0.025298428
0.47029874 -0.18166754 0.024922343
0.47060618 -0.1806687 0.024938406
0.47000125 -0.17946281 0.024562342
0.47030902 -0.17846294 0.024578422
0.46970508 -0.17725398 0.024202451
0.47001317 -0.17625307 0.024218548
0.46941018 -0.17504101 0.023842599
0.46880785 -0.17382686 0.023466697
0.46911657 -0.17282389 0.023482827
0.46851513 -0.17160663 0.023106959
0.46791437 -0.17038733 0.02273114
0.46731427 -0.16916595 0.02235534
0.4667148 -0.16794251 0.021979587
0.4670248 -0.1669354 0.021995785
0.46642628 -0.16570885 0.021620082
0.46673658 -0.16470072 0.021636294
0.46613896 -0.16347104 0.021260627
0.46644959 -0.16246186 0.021276858
0.46676022 -0.16145268 0.021293087
0.46707085 -0.16044351 0.021309318
0.46647486 -0.15920869 0.020933747
0.46678582 -0.15819848 0.020949995
0.46619081 -0.15696056 0.02057446
0.46559641 -0.15572058 0.020198975
0.46590799 -0.1547083 0.020215254
0.46531457 -0.15346521 0.019839818
0.46562648 -0.15245189 0.019856114
0.46503395 -0.15120569 0.019480698
0.4644421 -0.14995743 0.019105358
0.46475464 -0.14894204 0.019121688
0.46506718 -0.14792666 0.019138018
0.43377081 -0.13861571 0.0054475265
0.42763847 -0.22604638 0.011300128
0.42888343 -0.22517177 0.011710675
0.42920011 -0.22414295 0.01172722
0.43971774 -0.22484481 0.016077276
0.44188496 -0.22414409 0.016881509
0.4421975 -0.22312871 0.016897839
0.44621563 -0.22275507 0.018489774
0.44745296 -0.22190528 0.018899923
0.44961548 -0.22122009 0.019703921
0.46288201 -0.22250146 0.025234101
0.46318787 -0.2215078 0.025250083
0.46349373 -0.22051413 0.025266062
0.4637996 -0.21952046 0.025282044
0.46225706 -0.21819144 0.024510439
0.46441129 -0.21753313 0.025314005
0.46748772 -0.21704866 0.026511241
0.47056228 -0.21657044 0.027708393
0.47178912 -0.21575478 0.028117977
0.47301531 -0.21494119 0.028527543
0.47424093 -0.21412967 0.02893709
0.47546586 -0.21332023 0.029346591
0.47669014 -0.21251284 0.029756056
0.47699249 -0.21153055 0.029771855
0.47729483 -0.21054825 0.029787652
0.47759721 -0.20956595 0.029803449
0.47789955 -0.20858365 0.029819248
0.4782019 -0.20760137 0.029835045
0.47850424 -0.20661907 0.029850842
0.47880661 -0.20563678 0.029866641
0.47910896 -0.20465448 0.029882438
0.4794113 -0.20367219 0.029898236
0.47971365 -0.2026899 0.029914033
0.4790979 -0.20152028 0.029536363
0.47940058 -0.20053695 0.029552177
0.47878575 -0.19936424 0.029174555
0.47817156 -0.19818944 0.028796952
0.47847486 -0.19720405 0.0288128
0.47786164 -0.19602616 0.02843526
0.47724906 -0.19484621 0.028057771
0.47663713 -0.19366419 0.027680283
0.47602582 -0.1924801 0.027302844
0.47541508 -0.19129394 0.026925439
0.47571999 -0.19030337 0.02694137
0.47511026 -0.18911412 0.026564015
0.47450119 -0.18792281 0.026186679
0.47389275 -0.1867294 0.025809404
0.4732849 -0.18553393 0.025432132
0.47267771 -0.18433639 0.025054911
0.4720712 -0.18313681 0.024677707
0.47237802 -0.18214004 0.024693737
0.47177243 -0.18093733 0.024316613
0.47116747 -0.17973256 0.023939507
0.47147492 -0.17873374 0.023955571
0.47087088 -0.17752583 0.023578499
0.47117865 -0.17652597 0.023594579
0.47057563 -0.17531501 0.023217574
0.46997324 -0.17410196 0.0228406
0.47028163 -0.17310002 0.022856714
0.46968019 -0.17188388 0.022479791
0.46907932 -0.17066565 0.022102885
0.46847916 -0.16944538 0.021726029
0.46787962 -0.16822304 0.021349207
0.4681893 -0.16721697 0.021365386
0.46759072 -0.16599151 0.020988613
0.46790072 -0.16498441 0.021004809
0.4673031 -0.16375586 0.020628085
0.4676134 -0.16274771 0.0206443
0.46792373 -0.16173957 0.020660512
0.46823403 -0.16073143 0.020676726
0.46763796 -0.15949769 0.020300085
0.46794856 -0.15848851 0.020316316
0.46735349 -0.1572517 0.019939709
0.46766445 -0.15624148 0.019955957
0.46707034 -0.15500157 0.019579416
0.46647686 -0.15375957 0.019202909
0.46678844 -0.15274729 0.019219188
0.46619591 -0.15150221 0.018842731
0.46560395 -0.15025502 0.018466292
0.46591619 -0.14924067 0.018482605
0.46713161 -0.14846225 0.018891621
0.4674435 -0.14744894 0.018907918
0.42851156 -0.22729403 0.010632149
0.42882824 -0.22626521 0.010648695
0.43007267 -0.22539158 0.011060281
0.43502608 -0.22514497 0.013051921
0.4399763 -0.22490868 0.015043396
0.44214299 -0.22420783 0.015849736
0.44245553 -0.22319245 0.015866065
0.4446204 -0.22249782 0.016672293
0.4467839 -0.2218073 0.017478468
0.44894615 -0.22112094 0.018284576
0.45110717 -0.2204387 0.019090617
0.4625155 -0.22140567 0.023845457
0.46374625 -0.22057651 0.024256341
0.46405211 -0.21958284 0.024272321
0.46435797 -0.21858917 0.024288302
0.46189302 -0.21708958 0.023119815
0.46589294 -0.21677151 0.02471507
0.4698903 -0.21646172 0.026310191
0.47203982 -0.21581671 0.027115619
0.47326574 -0.21500306 0.027526239
0.47449109 -0.21419148 0.027936842
0.47571576 -0.21338196 0.02834738
0.47693977 -0.21257451 0.028757902
0.47816315 -0.21176913 0.029168388
0.4784652 -0.21078786 0.02918417
0.47876725 -0.20980661 0.02919995
0.47906926 -0.20882535 0.029215731
0.47937131 -0.20784408 0.029231513
0.47967333 -0.20686282 0.029247293
0.47997537 -0.20588157 0.029263075
0.48027742 -0.20490029 0.029278856
0.48057944 -0.20391904 0.029294636
0.48088148 -0.20293778 0.029310418
0.4811835 -0.20195653 0.029326199
0.48056802 -0.20078698 0.028947473
0.48087037 -0.19980468 0.028963272
0.48025581 -0.19863203 0.028584596
0.47964191 -0.19745731 0.028205967
0.47902858 -0.19628052 0.027827343
0.47841597 -0.19510166 0.027448768
0.47780395 -0.19392075 0.027070239
0.47719258 -0.19273776 0.026691729
0.47658187 -0.1915527 0.026313253
0.47688645 -0.19056317 0.026329167
0.47627664 -0.189375 0.025950741
0.47566748 -0.18818478 0.025572348
0.47597271 -0.18719317 0.025588294
0.47536454 -0.18599986 0.025209952
0.47475699 -0.18480445 0.024831641
0.47415003 -0.18360697 0.024453351
0.47354376 -0.18240744 0.024075123
0.47293812 -0.18120584 0.023696912
0.47233313 -0.18000217 0.023318749
0.47264025 -0.17900437 0.023334796
0.47203621 -0.1777976 0.022956669
0.47234365 -0.17679876 0.022972733
0.47174051 -0.17558888 0.022594642
0.47113806 -0.17437693 0.022216598
0.47144616 -0.17337602 0.022232695
0.47084466 -0.172161 0.021854715
0.47024381 -0.17094389 0.021476755
0.46964353 -0.16972469 0.021098811
0.46904394 -0.16850345 0.020720918
0.46935329 -0.16749839 0.020737082
0.46875465 -0.16627406 0.020359252
0.46906433 -0.16526797 0.020375432
0.46846667 -0.16404052 0.019997638
0.46877664 -0.16303341 0.020013833
0.46908665 -0.1620263 0.020030031
0.46939662 -0.16101919 0.020046229
0.46880054 -0.15978658 0.019668516
0.46911085 -0.15877843 0.01968473
0.46851566 -0.15754269 0.019307068
0.46882629 -0.15653351 0.019323299
0.46823213 -0.1552947 0.018945687
0.46854308 -0.15428449 0.018961933
0.46794984 -0.15304255 0.018584372
0.46735728 -0.15179856 0.018206844
0.46766886 -0.15078628 0.018223124
0.46707723 -0.14953919 0.017845646
0.46738914 -0.14852588 0.017861942
0.46770102 -0.14751256 0.017878238
0.46801293 -0.14649925 0.017894534
0.46742284 -0.14524697 0.017517125
0.46683344 -0.14399263 0.017139791
0.46714598 -0.14297725 0.01715612
0.41789278 -0.23102377 0.0055419491
0.41914195 -0.23013353 0.0059548249
0.42039058 -0.22924536 0.0063677114
0.42349604 -0.22866128 0.0075728549
0.42567113 -0.22793135 0.0083817551
0.42877302 -0.22735861 0.0095867151
0.4290897 -0.2263298 0.009603261
0.43033388 -0.22545612 0.0100159
0.43528596 -0.22520918 0.012012797
0.43930802 -0.22481535 0.013613439
0.44147456 -0.22411336 0.01442192
0.44178742 -0.22309694 0.014438267
0.44395199 -0.22240111 0.015246604
0.44611534 -0.22170946 0.016054904
0.44827738 -0.22102192 0.016863136
0.4504382 -0.22033854 0.017671289
0.46276829 -0.22146812 0.022834694
0.46399879 -0.2206389 0.023246633
0.46430466 -0.21964523 0.023262613
0.46553415 -0.21881911 0.023674473
0.46583968 -0.21782647 0.023690436
0.46429914 -0.2164946 0.02291468
0.46829611 -0.21618249 0.024514051
0.47136813 -0.21570696 0.025717448
0.47259414 -0.21489221 0.026129127
0.47474125 -0.21425328 0.026936593
0.47688708 -0.21361849 0.027743949
0.47811049 -0.21281199 0.028155506
0.47841254 -0.21183074 0.028171288
0.47963503 -0.21102735 0.028582795
0.47993675 -0.21004713 0.02859856
0.48023847 -0.2090669 0.028614324
0.48054019 -0.20808667 0.028630089
0.4808419 -0.20710644 0.028645853
0.48114359 -0.20612621 0.028661618
0.48144531 -0.20514598 0.028677382
0.48174703 -0.20416577 0.028693147
0.48204875 -0.20318554 0.028708911
0.48235047 -0.20220532 0.028724674
0.48265219 -0.20122509 0.02874044
0.48203695 -0.20005561 0.028360659
0.48142236 -0.19888407 0.027980912
0.48080841 -0.19771044 0.027601214
0.48019508 -0.19653477 0.027221549
0.47958231 -0.19535699 0.026841886
0.47897026 -0.19417717 0.026462274
0.47835886 -0.19299528 0.026082708
0.47774807 -0.19181132 0.025703175
0.47805232 -0.19082282 0.025719073
0.4774425 -0.18963577 0.025339575
0.47683325 -0.18844663 0.024960112
0.47713816 -0.18745606 0.024976043
0.47652993 -0.18626383 0.024596628
0.47592235 -0.18506953 0.024217248
0.47531536 -0.18387318 0.023837915
0.474709 -0.18267472 0.023458585
0.4741033 -0.18147422 0.023079334
0.47349826 -0.18027166 0.022700086
0.47380507 -0.17927487 0.022716116
0.47320098 -0.1780692 0.022336919
0.47350809 -0.17707141 0.022352966
0.47290495 -0.17586264 0.021973833
0.47230241 -0.17465179 0.021594703
0.47261015 -0.1736519 0.021610783
0.47200862 -0.17243797 0.021231718
0.47140768 -0.17122196 0.020852717
0.4708074 -0.17000388 0.020473719
0.47020772 -0.16878371 0.020094737
0.47051674 -0.16777971 0.020110885
0.46991807 -0.16655646 0.019731984
0.47022742 -0.16555142 0.019748148
0.4696297 -0.16432507 0.019369284
0.46993935 -0.16331899 0.019385463
0.47024903 -0.16231291 0.019401643
0.4705587 -0.16130684 0.019417822
0.46996257 -0.16007532 0.01903904
0.47027257 -0.15906821 0.019055238
0.46967739 -0.15783359 0.018676521
0.46998769 -0.15682544 0.018692734
0.4693934 -0.1555877 0.018314051
0.46970403 -0.15457852 0.018330282
0.46911076 -0.1533377 0.017951664
0.46851811 -0.1520948 0.017573064
0.46882936 -0.15108356 0.017589327
0.4682377 -0.14983755 0.017210778
0.46854928 -0.14882527 0.017227057
0.46886086 -0.14781299 0.017243339
0.46917245 -0.14680071 0.017259618
0.4703857 -0.14602733 0.017670644
0.47069696 -0.14501607 0.017686907
0.46830505 -0.14328195 0.016519032
0.42065415 -0.22931048 0.0053138733
0.4237588 -0.22872621 0.0065221647
0.42593336 -0.22799614 0.0073331734
0.42810667 -0.22727022 0.0081441151
0.42935115 -0.22639439 0.0085578272
0.43059507 -0.22552064 0.0089715067
0.43461892 -0.22511725 0.010576528
0.4386403 -0.22472216 0.012181419
0.44080663 -0.22401899 0.012991996
0.44204572 -0.22316074 0.013405439
0.44328418 -0.22230457 0.013818835
0.44544733 -0.22161174 0.014629246
0.44575924 -0.22059843 0.014645542
0.44884506 -0.22007513 0.015852852
0.45100471 -0.21939369 0.01666308
0.46332726 -0.22053586 0.021839928
0.46455717 -0.21970762 0.022252904
0.4657864 -0.21888143 0.022665819
0.46609193 -0.2178888 0.022681782
0.46455196 -0.21655706 0.021903917
0.46762544 -0.21607411 0.023110595
0.47069699 -0.21559735 0.024317184
0.47284484 -0.21495414 0.025126768
0.4759129 -0.21448876 0.026333176
0.4771367 -0.21368015 0.026745807
0.47835988 -0.21287361 0.027158391
0.47958243 -0.21206912 0.027570968
0.47988415 -0.2110889 0.027586734
0.48018587 -0.21010867 0.027602497
0.4814072 -0.20930834 0.02801501
0.48170859 -0.20832914 0.028030759
0.48200998 -0.20734996 0.028046506
0.48231137 -0.20637076 0.028062254
0.48261279 -0.20539157 0.028078001
0.48291418 -0.20441237 0.02809375
0.48321557 -0.20343319 0.028109498
0.48351696 -0.20245399 0.028125245
0.48381838 -0.2014748 0.028140994
0.48320302 -0.2003064 0.027760142
0.48258838 -0.19913596 0.027379325
0.48197433 -0.19796345 0.02699857
0.48136097 -0.19678885 0.026617832
0.48074821 -0.19561219 0.026237115
0.48013607 -0.19443347 0.025856432
0.47952458 -0.19325267 0.02547578
0.47891375 -0.19206981 0.025095176
0.47921771 -0.19108234 0.025111057
0.4786078 -0.18989639 0.024730518
0.47891209 -0.18890789 0.024746416
0.47830316 -0.18771882 0.024365898
0.47860774 -0.1867293 0.024381813
0.47799972 -0.18553711 0.024001343
0.47739238 -0.18434289 0.023620909
0.47678566 -0.1831466 0.023240522
0.4761796 -0.18194821 0.022860168
0.47557414 -0.18074778 0.022479817
0.47496933 -0.17954527 0.022099545
0.4743652 -0.17834069 0.021719277
0.47467199 -0.17734392 0.021735307
0.47406879 -0.17613626 0.021355104
0.47346625 -0.1749265 0.020974932
0.47377369 -0.17392766 0.020990996
0.47317204 -0.17271481 0.020610845
0.47257105 -0.17149991 0.020230757
0.47197074 -0.17028292 0.019850703
0.47137102 -0.16906387 0.019470682
0.47167975 -0.1680609 0.019486813
0.47108096 -0.16683874 0.019106826
0.47138998 -0.16583472 0.019122973
0.4707922 -0.16460948 0.018743036
0.47110155 -0.16360444 0.0187592
0.4714109 -0.16259938 0.018775364
0.47172025 -0.16159435 0.018791527
0.47112405 -0.16036393 0.018411689
0.47143373 -0.15935785 0.018427869
0.47083852 -0.15812433 0.018048067
0.47114849 -0.15711722 0.018064262
0.4705542 -0.1558806 0.017684525
0.4708645 -0.15487245 0.017700737
0.47117484 -0.15386431 0.017716952
0.47058174 -0.15262352 0.017337279
0.46998939 -0.1513807 0.016957626
0.47030032 -0.15037048 0.016973872
0.47061127 -0.14936027 0.016990118
0.47002017 -0.14811331 0.016610546
0.47033143 -0.14710206 0.016626809
0.47154412 -0.14632964 0.017038859
0.47185504 -0.14531942 0.017055105
0.47126523 -0.14406832 0.016675599
0.46977559 -0.14257324 0.015900377
0.47008747 -0.14155991 0.015916673
0.45573682 -0.1343369 0.0092390673
0.45605412 -0.13330603 0.0092556467
0.45547289 -0.132027 0.0088765901
0.45489225 -0.1307459 0.0084975371
0.4240216 -0.22879113 0.0054714745
0.42619562 -0.22806093 0.0062845773
0.42836839 -0.22733487 0.0070976275
0.42961261 -0.22645898 0.0075123934
0.43085629 -0.22558518 0.0079271272
0.43395248 -0.22502549 0.0091381809
0.43797311 -0.2246291 0.010747275
0.44013917 -0.22392476 0.011559976
0.44230404 -0.22322457 0.012372612
0.44261688 -0.22220814 0.012388959
0.44477978 -0.22151415 0.013201464
0.44601676 -0.22066206 0.013615862
0.44632867 -0.21964873 0.01363216
0.44941276 -0.21912834 0.014842582
0.46265632 -0.22043298 0.020431161
0.46388623 -0.21960361 0.020845164
0.46419239 -0.21860892 0.020861162
0.46542141 -0.21778268 0.021275144
0.46572727 -0.21678901 0.021291124
0.46603313 -0.21579534 0.021307105
0.47002637 -0.21548787 0.022914797
0.47217399 -0.2148435 0.023726506
0.47616279 -0.2145505 0.025333965
0.47738636 -0.21374182 0.025747651
0.47860926 -0.21293521 0.026161289
0.47983155 -0.21213067 0.026574908
0.48105323 -0.21132819 0.026988521
0.48135462 -0.21034901 0.02700427
0.48165604 -0.20936981 0.027020017
0.48287639 -0.20857148 0.027433537
0.48317748 -0.20759332 0.027449267
0.48347858 -0.20661516 0.027464999
0.48377964 -0.20563701 0.027480729
0.48408073 -0.20465884 0.027496461
0.48438179 -0.20368069 0.027512193
0.48468289 -0.20270254 0.027527923
0.48498395 -0.20172437 0.027543655
0.48436862 -0.20055708 0.027161747
0.48375386 -0.19938771 0.026779845
0.48313978 -0.1982163 0.026398005
0.48252633 -0.19704282 0.026016211
0.48191354 -0.19586726 0.025634438
0.48130137 -0.19468965 0.025252698
0.48068979 -0.19350994 0.024870975
0.48007891 -0.19232817 0.024489287
0.48038253 -0.19134174 0.024505151
0.48068616 -0.19035532 0.024521016
0.48007655 -0.18916942 0.024139408
0.47946754 -0.18798146 0.023757847
0.47977182 -0.18699296 0.023773745
0.4791638 -0.18580189 0.023392221
0.47946838 -0.18481235 0.023408135
0.47886124 -0.18361817 0.023026645
0.4782548 -0.18242194 0.022645203
0.477649 -0.18122365 0.022263795
0.47704384 -0.18002327 0.021882407
0.47643927 -0.17882082 0.021501049
0.47583538 -0.17761631 0.021119757
0.47523212 -0.17640974 0.020738481
0.47462952 -0.17520109 0.02035724
0.47493663 -0.17420329 0.020373287
0.47433499 -0.17299154 0.019992094
0.4737339 -0.17177771 0.019610908
0.4731335 -0.17056184 0.019229781
0.47253376 -0.16934389 0.018848704
0.47284216 -0.16834195 0.018864818
0.47224337 -0.16712089 0.018483775
0.47255206 -0.16611792 0.018499905
0.47195417 -0.16489375 0.018118899
0.47226322 -0.16388974 0.018135045
0.47257224 -0.16288574 0.018151192
0.47288129 -0.16188173 0.018167339
0.47228503 -0.16065241 0.01778643
0.47259438 -0.15964736 0.017802594
0.47199911 -0.15841495 0.017421721
0.47230878 -0.15740886 0.017437899
0.47171444 -0.15617333 0.017057091
0.47202441 -0.15516622 0.017073289
0.47233441 -0.15415911 0.017089484
0.47264439 -0.153152 0.017105682
0.47205165 -0.15191132 0.016724955
0.47145948 -0.15066853 0.016344262
0.47177011 -0.14965935 0.016360492
0.47117895 -0.14841348 0.015979849
0.47148991 -0.14740327 0.015996095
0.472702 -0.14663181 0.016409181
0.47301263 -0.14562264 0.016425412
0.47242272 -0.14437264 0.016044835
0.4718335 -0.14312057 0.015664292
0.47124487 -0.14186643 0.015283767
0.45599881 -0.13440163 0.0081915399
0.45631611 -0.13337074 0.0082081193
0.45573515 -0.13209179 0.0078279935
0.45605278 -0.13105987 0.0078445897
0.45637041 -0.13002793 0.0078611858
0.43019077 -0.22549474 0.0064835059
0.43328655 -0.22493386 0.0076977252
0.43823245 -0.22469316 0.0097102458
0.43947229 -0.22383067 0.010125849
0.44163695 -0.2231293 0.01094061
0.44195011 -0.22211185 0.010956973
0.44503757 -0.22157784 0.012170745
0.44534978 -0.22056349 0.012187059
0.44566199 -0.21954913 0.012203372
0.44320282 -0.21804205 0.011022425
0.44905695 -0.21801628 0.013433223
0.4622927 -0.21933344 0.0190363
0.46352234 -0.21850403 0.019451372
0.46567395 -0.21784505 0.020265436
0.46597981 -0.21685138 0.020281417
0.46536371 -0.21568726 0.01989839
0.46751308 -0.21503554 0.020712353
0.47058243 -0.21456046 0.021925205
0.47364983 -0.21409157 0.023137931
0.47763598 -0.2138035 0.024749495
0.47885865 -0.21299683 0.025164187
0.48008066 -0.21219221 0.02557886
0.48130208 -0.21138968 0.025993515
0.4816035 -0.21041049 0.026009262
0.48282391 -0.20961106 0.026423851
0.483125 -0.20863289 0.026439583
0.48342606 -0.20765473 0.026455315
0.48464522 -0.20685942 0.026869837
0.48494598 -0.20588231 0.026885552
0.48524675 -0.20490518 0.026901266
0.48554751 -0.20392805 0.026916981
0.48584828 -0.20295092 0.026932696
0.48614904 -0.20197381 0.026948409
0.48553362 -0.20080763 0.026565433
0.48491886 -0.19963937 0.026182488
0.4843047 -0.19846903 0.025799561
0.48369119 -0.19729665 0.025416683
0.48307833 -0.1961222 0.025033854
0.4824661 -0.19494566 0.024651043
0.48185453 -0.19376709 0.024268264
0.48124352 -0.19258641 0.023885505
0.48154685 -0.19160101 0.023901353
0.48185015 -0.19061561 0.0239172
0.48124048 -0.18943082 0.023534536
0.48063144 -0.18824396 0.023151891
0.48093536 -0.18725649 0.023167772
0.48032728 -0.18606652 0.02278519
0.48063156 -0.18507802 0.022801088
0.48002443 -0.18388495 0.022418544
0.47941789 -0.1826898 0.022036016
0.47881204 -0.1814926 0.021653537
0.47820681 -0.18029334 0.021271091
0.47760224 -0.17909199 0.020888679
0.47699824 -0.17788857 0.020506285
0.4773044 -0.17689386 0.020522283
0.47670141 -0.17568734 0.020139968
0.47609907 -0.17447878 0.019757671
0.47549734 -0.17326814 0.01937541
0.47489625 -0.17205542 0.018993195
0.47429577 -0.17084062 0.018610984
0.47460353 -0.16984075 0.018627064
0.47400403 -0.16862287 0.018244918
0.47340518 -0.16740291 0.017862819
0.47371358 -0.16640097 0.017878933
0.47311568 -0.16517791 0.017496869
0.4734244 -0.16417494 0.017512999
0.47373313 -0.16317198 0.01752913
0.47404185 -0.16216899 0.01754526
0.47344548 -0.16094075 0.017163265
0.47375453 -0.15993674 0.017179413
0.47315916 -0.15870543 0.016797483
0.47346851 -0.15770037 0.016813645
0.47377789 -0.15669534 0.016829809
0.47318381 -0.15545988 0.016447946
0.47349349 -0.1544538 0.016464125
0.47380313 -0.15344772 0.016480306
0.47321033 -0.15220812 0.016098509
0.47352034 -0.15120101 0.016114706
0.47292849 -0.14995831 0.015732959
0.4732388 -0.14895017 0.015749173
0.4735491 -0.14794204 0.015765386
0.4738594 -0.14693388 0.0157816
0.47416973 -0.14592575 0.015797812
0.47448003 -0.14491759 0.015814027
0.47389033 -0.14366764 0.015432395
0.47330135 -0.14241564 0.015050798
0.47361231 -0.14140542 0.015067044
0.47032729 -0.13941562 0.013492113
0.45567977 -0.1331885 0.0067628161
0.45599741 -0.13215658 0.0067794123
0.45631504 -0.13112466 0.006796008
0.45663267 -0.13009273 0.0068126037
0.43973139 -0.22389469 0.0090898741
0.44097033 -0.22303416 0.0095064994
0.44128382 -0.22201568 0.0095228795
0.43882385 -0.22051397 0.008338673
0.43913829 -0.21949238 0.0083551025
0.43852887 -0.21830766 0.0079713985
0.43976718 -0.2174492 0.0083879614
0.44654423 -0.21758412 0.011205265
0.44870231 -0.21690229 0.012021817
0.46193025 -0.21823198 0.017639378
0.46408188 -0.2175708 0.018455584
0.46438837 -0.21657507 0.018471597
0.46469486 -0.21557933 0.018487612
0.46500134 -0.21458359 0.018503625
0.47083393 -0.21462259 0.020919701
0.47297984 -0.21398002 0.021735577
0.47512451 -0.21334159 0.022551402
0.47910801 -0.21305843 0.024167085
0.48032978 -0.21225375 0.024582813
0.48155093 -0.21145116 0.024998507
0.48185235 -0.21047197 0.025014255
0.48307249 -0.20967247 0.025429899
0.48337358 -0.20869431 0.025445629
0.48367468 -0.20771615 0.025461361
0.48489356 -0.20692077 0.025876937
0.48519433 -0.20594366 0.025892653
0.48549506 -0.20496653 0.025908368
0.48579583 -0.2039894 0.025924081
0.48609659 -0.20301227 0.025939796
0.48639736 -0.20203516 0.025955511
0.48669812 -0.20105803 0.025971225
0.4860833 -0.19989088 0.02558721
0.4854691 -0.19872165 0.025203228
0.4848555 -0.19755034 0.024819279
0.48424259 -0.19637699 0.024435364
0.48363033 -0.19520158 0.024051495
0.4830187 -0.19402407 0.023667661
0.48240769 -0.19284451 0.023283845
0.48271066 -0.19186015 0.023299677
0.48301366 -0.19087578 0.023315508
0.48240387 -0.18969208 0.022931743
0.48179477 -0.18850631 0.022548042
0.4820984 -0.18751988 0.022563906
0.48149028 -0.18633102 0.022180241
0.48179421 -0.18534355 0.022196122
0.48118705 -0.18415159 0.021812519
0.48058048 -0.18295754 0.02142895
0.48088506 -0.18196802 0.021444865
0.48027942 -0.18077086 0.021061318
0.47967446 -0.17957166 0.020677818
0.47907016 -0.17837039 0.020294366
0.47846648 -0.17716703 0.019910932
0.47786337 -0.17596161 0.019527517
0.47816953 -0.1749669 0.019543516
0.47756743 -0.17375839 0.019160194
0.47696599 -0.17254782 0.018776877
0.47636518 -0.17133518 0.018393593
0.47667232 -0.17033736 0.018409641
0.47607246 -0.16912161 0.018026408
0.47547317 -0.16790378 0.017643206
0.47578093 -0.16690391 0.017659286
0.47518265 -0.16568299 0.017276136
0.47458503 -0.16446 0.016893033
0.47489342 -0.16345806 0.016909147
0.47520182 -0.16245613 0.01692526
0.47460544 -0.16122898 0.016542224
0.47491416 -0.16022602 0.016558355
0.47431871 -0.15899578 0.016175339
0.47462776 -0.15799177 0.016191486
0.47493678 -0.15698776 0.016207632
0.47524583 -0.15598375 0.016223779
0.47465199 -0.15474835 0.015840862
0.47496137 -0.15374331 0.015857026
0.47527072 -0.15273827 0.015873188
0.47558007 -0.15173322 0.015889352
0.47588941 -0.15072818 0.015905516
0.47349501 -0.14901347 0.014724749
0.47380531 -0.14800532 0.014740963
0.47411561 -0.14699718 0.014757176
0.47442594 -0.14598903 0.014773389
0.47473624 -0.14498089 0.014789603
0.47414681 -0.143731 0.014406933
0.4735581 -0.14247906 0.014024281
0.47386906 -0.14146885 0.014040527
0.47058508 -0.13947931 0.01246138
0.46910051 -0.13797323 0.011680058
0.45594203 -0.13325329 0.0057142344
0.45625967 -0.13222137 0.0057308301
0.4565773 -0.13118944 0.0057474263
0.4568949 -0.13015752 0.005764022
0.53967083 0.17674373 0.0058663655
0.5416007 0.17668426 0.0066709663
0.5419215 0.17772651 0.0066877282
0.54224229 0.17876875 0.0067044902
0.54095662 0.18092106 0.0059335469
0.54127806 0.1819654 0.0059503424
0.53999424 0.18412398 0.0051794555
0.43786511 -0.21820875 0.0065310448
0.43818021 -0.21718509 0.0065475074
0.44311014 -0.21698721 0.0085698422
0.44526896 -0.21630108 0.0093885548
0.44742647 -0.21561912 0.010207172
0.46341294 -0.21746506 0.017042635
0.46464142 -0.21663758 0.017459782
0.46494791 -0.21564184 0.017475795
0.46525443 -0.21464612 0.017491808
0.46832314 -0.21416755 0.018710995
0.47323081 -0.21404202 0.020732164
0.47537494 -0.21340346 0.021550098
0.47751784 -0.21276905 0.02236798
0.4805789 -0.21231529 0.02358675
0.48179978 -0.21151264 0.024003513
0.4821012 -0.21053344 0.024019262
0.4833211 -0.20973387 0.024435945
0.48362216 -0.20875572 0.024451677
0.48392326 -0.20777756 0.024467407
0.48514187 -0.20698212 0.02488404
0.48544264 -0.20600501 0.024899753
0.4857434 -0.20502788 0.024915468
0.48604417 -0.20405075 0.024931183
0.48634493 -0.20307362 0.024946896
0.48664567 -0.20209651 0.024962611
0.48694643 -0.20111938 0.024978327
0.4872472 -0.20014225 0.02499404
0.48663297 -0.19897413 0.024608988
0.48601937 -0.19780394 0.024223983
0.48540634 -0.19663167 0.023838982
0.48479402 -0.19545734 0.023454042
0.48418233 -0.19428095 0.023069153
0.48357126 -0.19310248 0.022684265
0.48387393 -0.19211915 0.022700081
0.48417661 -0.19113582 0.022715895
0.48356682 -0.18995324 0.022331089
0.48386979 -0.18896887 0.022346919
0.48326093 -0.18778317 0.021962134
0.48265272 -0.18659538 0.021577412
0.48295635 -0.18560895 0.021593276
0.48234913 -0.18441808 0.02120859
0.4817425 -0.18322515 0.020823965
0.48204678 -0.18223666 0.020839863
0.48144114 -0.1810406 0.02045526
0.48083606 -0.17984249 0.020070689
0.4802317 -0.17864232 0.019686164
0.48053691 -0.17765072 0.019702112
0.4799335 -0.17644744 0.019317625
0.47933072 -0.17524208 0.018933186
0.4787285 -0.17403467 0.018548749
0.47903469 -0.17303996 0.018564748
0.47843349 -0.17182943 0.018180406
0.47783294 -0.17061687 0.017796068
0.47813973 -0.16962008 0.017812097
0.47754014 -0.1684044 0.017427824
0.47694117 -0.16718665 0.01704357
0.47724864 -0.16618781 0.017059634
0.47665057 -0.16496694 0.016675429
0.47695833 -0.16396707 0.01669151
0.47636127 -0.16274311 0.016307354
0.47486034 -0.16129196 0.015523057
0.47516906 -0.16028899 0.015539188
0.47457388 -0.15905881 0.015155118
0.4748829 -0.1580548 0.015171265
0.47519195 -0.15705079 0.015187412
0.47550097 -0.15604678 0.015203559
0.47490743 -0.15481146 0.014819602
0.47521678 -0.15380642 0.014835765
0.47552612 -0.15280136 0.014851929
0.4758355 -0.15179633 0.014868092
0.47614485 -0.15079129 0.014884256
0.47555321 -0.14954975 0.014500383
0.47586289 -0.14854367 0.014516563
0.47617254 -0.14753759 0.014532744
0.47558218 -0.14629193 0.014148952
0.47589216 -0.14528482 0.014165149
0.47530276 -0.14403604 0.013781394
0.47471392 -0.14278518 0.013397685
0.47502455 -0.14177601 0.013413915
0.47263983 -0.14003253 0.012230466
0.47295141 -0.13902025 0.012246747
0.47146732 -0.13751429 0.011463287
0.47088203 -0.13625208 0.011079762
0.54074043 0.17612739 0.0052001285
0.54186559 0.17661881 0.0056118718
0.54218638 0.17766108 0.0056286338
0.54250717 0.17870332 0.0056453957
0.54202497 0.18030058 0.0052672438
0.43967819 -0.21639082 0.0059260302
0.4418377 -0.21570043 0.0067468742
0.4430739 -0.21484703 0.0071654767
0.44338772 -0.21382751 0.0071818731
0.45998269 -0.21368089 0.01406724
0.46765494 -0.21405755 0.01730022
0.4698011 -0.21341059 0.018120393
0.47286588 -0.21294217 0.019342575
0.47776774 -0.2128308 0.02136877
0.47990879 -0.21220039 0.022188663
0.48204866 -0.21157411 0.023008507
0.48235005 -0.21059492 0.023024254
0.48356968 -0.2097953 0.023441991
0.48387077 -0.20881712 0.023457723
0.48417184 -0.20783898 0.023473455
0.48539022 -0.20704347 0.02389114
0.48569095 -0.20606636 0.023906853
0.48599172 -0.20508923 0.023922568
0.48629248 -0.2041121 0.023938283
0.48659325 -0.20313497 0.023953998
0.48689401 -0.20215786 0.023969712
0.48719478 -0.20118073 0.023985427
0.48749554 -0.2002036 0.024001142
0.48779631 -0.19922648 0.024016855
0.48718265 -0.19805738 0.023630766
0.48656961 -0.19688623 0.023244724
0.48595718 -0.19571298 0.022858698
0.48534542 -0.19453768 0.022472722
0.4847343 -0.19336033 0.022086794
0.48503667 -0.19237803 0.022102593
0.48533902 -0.19139574 0.02211839
0.48472917 -0.19021425 0.0217325
0.48503184 -0.1892309 0.021748314
0.48442295 -0.18804631 0.021362487
0.48472595 -0.18706195 0.021378318
0.48411795 -0.18587424 0.020992527
0.48351067 -0.18468446 0.020606782
0.48290402 -0.18349262 0.020221073
0.48320797 -0.18250516 0.020236954
0.48260227 -0.18131022 0.019851293
0.48290652 -0.18032172 0.019867191
0.48230177 -0.17912367 0.019481581
0.48169762 -0.17792355 0.019095989
0.48109412 -0.17672136 0.018710446
0.48049128 -0.17551713 0.018324936
0.48079681 -0.17452449 0.018340899
0.47928748 -0.17310241 0.017553985
0.47868654 -0.17189196 0.017168589
0.47808626 -0.17067944 0.016783211
0.47839305 -0.16968267 0.016799241
0.47779372 -0.16846704 0.016413914
0.47719502 -0.16724937 0.016028605
0.47750247 -0.16625053 0.016044669
0.47690466 -0.16502972 0.015659411
0.47721243 -0.16402984 0.015675491
0.47661564 -0.16280594 0.015290296
0.47692373 -0.16180503 0.015306393
0.47632787 -0.16057806 0.014921263
0.47663629 -0.1595761 0.014937377
0.47604141 -0.15834601 0.014552282
0.47635013 -0.15734303 0.014568412
0.47665882 -0.15634006 0.014584542
0.47696754 -0.1553371 0.014600673
0.47727627 -0.15433411 0.014616803
0.47668326 -0.15309779 0.014231779
0.47699228 -0.15209378 0.014247926
0.47730133 -0.15108977 0.014264072
0.47670963 -0.14984934 0.013879144
0.47701898 -0.1488443 0.013895308
0.47732833 -0.14783926 0.013911471
0.47673792 -0.14659469 0.013526609
0.47704756 -0.14558861 0.013542789
0.47735724 -0.14458254 0.01355897
0.47586927 -0.1430912 0.012773199
0.47617957 -0.14208305 0.012789412
0.47469345 -0.1405855 0.012003726
0.47410652 -0.13932954 0.011619047
0.47352025 -0.13807152 0.011234402
0.47203732 -0.13656363 0.010448867
0.46517414 -0.13355857 0.007258174
0.46361384 -0.2122598 0.014290772
0.46576044 -0.2116096 0.015113091
0.4715828 -0.21166499 0.017547784
0.48015818 -0.21226199 0.021191562
0.48137882 -0.21145815 0.02161042
0.4825989 -0.2106564 0.02202926
0.48290029 -0.2096772 0.022045009
0.48411936 -0.20887855 0.022463784
0.48442042 -0.20790039 0.022479516
0.48563853 -0.20710482 0.02289824
0.48593929 -0.2061277 0.022913955
0.48624006 -0.20515057 0.022929668
0.48654082 -0.20417345 0.022945384
0.48684156 -0.20319632 0.022961099
0.48714232 -0.2022192 0.022976812
0.48744309 -0.20124207 0.022992527
0.48774385 -0.20026495 0.023008242
0.48804462 -0.19928783 0.023023956
0.48834538 -0.1983107 0.023039671
0.48773229 -0.19714065 0.022652557
0.48711985 -0.19596851 0.022265477
0.48650801 -0.1947943 0.021878416
0.48589683 -0.19361803 0.021491403
0.48619887 -0.19263677 0.021507183
0.48650089 -0.19165552 0.021522963
0.48589101 -0.19047512 0.021136032
0.48619336 -0.18949282 0.02115183
0.48558441 -0.18830931 0.020764932
0.48588708 -0.18732598 0.020780746
0.48527911 -0.18613939 0.020393899
0.48558208 -0.18515502 0.020409729
0.48315498 -0.18355462 0.019217661
0.48345891 -0.18256715 0.019233542
0.48285347 -0.18137227 0.018846842
0.48315772 -0.18038377 0.018862739
0.48255324 -0.17918581 0.018476075
0.48194936 -0.17798574 0.018089429
0.48134613 -0.17678362 0.017702831
0.48074356 -0.17557944 0.017316267
0.48104909 -0.1745868 0.017332232
0.48044747 -0.17337953 0.016945716
0.48075333 -0.17238586 0.016961697
0.48015261 -0.17117545 0.016575217
0.4804588 -0.17018075 0.016591214
0.47985908 -0.16896726 0.016204813
0.47926 -0.16775171 0.015818432
0.47866157 -0.16653408 0.015432084
0.47896868 -0.16553628 0.015448131
0.4783712 -0.16431555 0.015061833
0.47867864 -0.16331671 0.015077896
0.47808206 -0.16209288 0.014691633
0.47838983 -0.161093 0.014707713
0.4786976 -0.16009313 0.014723794
0.47810233 -0.15886517 0.014337611
0.47841042 -0.15786426 0.014353708
0.47871849 -0.15686335 0.014369805
0.4781245 -0.15563126 0.013983719
0.47843292 -0.15462931 0.013999832
0.47874132 -0.15362737 0.014015946
0.47904971 -0.15262543 0.014032059
0.47845733 -0.15138817 0.013646027
0.47876602 -0.15038519 0.013662158
0.47817454 -0.1491448 0.01327616
0.47848359 -0.14814079 0.013292307
0.47879261 -0.14713678 0.013308453
0.47820246 -0.14589228 0.012922538
0.47851181 -0.14488724 0.012938702
0.47792262 -0.14363962 0.012552835
0.47823226 -0.14263354 0.012569015
0.47674611 -0.1411382 0.011781203
0.47705641 -0.14013006 0.011797416
0.47557208 -0.13862848 0.011009702
0.47229511 -0.13662732 0.0094181485
0.46543404 -0.13362278 0.0062190364
0.46305975 -0.13185072 0.0050297277
0.46294802 -0.21214926 0.01287161
0.46509445 -0.21149793 0.013696053
0.47183454 -0.21172719 0.016541226
0.48040757 -0.21232361 0.020194447
0.48162794 -0.21151969 0.02061436
0.48192966 -0.21053946 0.020630123
0.48223138 -0.20955923 0.020645889
0.48436794 -0.20893995 0.02146983
0.48466903 -0.2079618 0.021485562
0.48497009 -0.20698364 0.021501293
0.48618761 -0.20618905 0.02192104
0.48648837 -0.20521192 0.021936756
0.48678914 -0.20423479 0.021952471
0.4870899 -0.20325767 0.021968184
0.48739067 -0.20228055 0.021983899
0.48769143 -0.20130342 0.021999614
0.4879922 -0.20032629 0.022015328
0.48829296 -0.19934918 0.022031043
0.4885937 -0.19837205 0.022046758
0.48889446 -0.19739492 0.022062471
0.48828197 -0.1962239 0.021674335
0.48675713 -0.19485584 0.020882353
0.48614621 -0.19367965 0.020494286
0.48644826 -0.19269839 0.020510068
0.48675027 -0.19171713 0.020525848
0.48614064 -0.1905368 0.020137876
0.48644298 -0.1895545 0.020153673
0.48583433 -0.18837106 0.019765722
0.486137 -0.18738773 0.019781537
0.48552927 -0.1862012 0.019393636
0.48583227 -0.18521683 0.019409467
0.48522544 -0.18402718 0.019021614
0.48461932 -0.18283546 0.018633796
0.48401383 -0.18164168 0.018246012
0.48431775 -0.18065423 0.018261893
0.48371321 -0.17945734 0.017874185
0.4831093 -0.1782584 0.017486483
0.48250598 -0.17705737 0.017098799
0.48281088 -0.1760668 0.017114731
0.48220858 -0.17486268 0.016727112
0.4816069 -0.17365649 0.01633954
0.48191243 -0.17266387 0.016355505
0.48221797 -0.17167123 0.016371468
0.48161757 -0.17046091 0.01598395
0.48101774 -0.16924851 0.015596449
0.48132393 -0.16825379 0.015612447
0.48072511 -0.16703831 0.01522504
0.4810316 -0.16604257 0.015241054
0.48043373 -0.16482398 0.014853667
0.48074055 -0.16382721 0.014869698
0.48014364 -0.16260551 0.014482362
0.48045078 -0.16160771 0.014498409
0.48075789 -0.1606099 0.014514457
0.48016226 -0.15938407 0.014127186
0.4804697 -0.15838523 0.014143251
0.479875 -0.15715629 0.01375603
0.48018274 -0.15615642 0.01377211
0.47958905 -0.15492438 0.013384941
0.47989711 -0.15392347 0.013401038
0.48020518 -0.15292257 0.013417135
0.47961274 -0.1516864 0.013030047
0.47992113 -0.15068446 0.01304616
0.48022956 -0.14968252 0.013062273
0.47963837 -0.14844221 0.012675237
0.47994709 -0.14743924 0.012691367
0.47935683 -0.14619581 0.01230438
0.47966585 -0.1451918 0.012320527
0.4799749 -0.14418779 0.012336674
0.47938594 -0.14294025 0.011949753
0.48059297 -0.14217977 0.012368968
0.48179939 -0.14142139 0.012788149
0.48210812 -0.14041841 0.012804279
0.46896598 -0.13570029 0.0067754406
0.46659032 -0.13393569 0.0055828681
0.46600869 -0.13266437 0.005196359
0.47116753 -0.21161416 0.015129461
0.47882012 -0.21203268 0.018386969
0.48187706 -0.21158123 0.019618312
0.48217878 -0.210601 0.019634075
0.4824805 -0.20962077 0.019649841
0.48278221 -0.20864056 0.019665604
0.4840008 -0.20784178 0.02008649
0.48521867 -0.20704505 0.020507339
0.48551977 -0.20606689 0.020523069
0.48673671 -0.20527327 0.020943856
0.48703748 -0.20429614 0.020959571
0.48733822 -0.20331901 0.020975286
0.48763898 -0.2023419 0.020990999
0.48793975 -0.20136477 0.021006715
0.48824051 -0.20038764 0.02102243
0.48854128 -0.19941053 0.021038143
0.48884204 -0.1984334 0.021053858
0.48914281 -0.19745627 0.021069573
0.48853055 -0.19628531 0.020680381
0.48791897 -0.19511227 0.020291209
0.48730794 -0.19393715 0.019902071
0.48760965 -0.19295694 0.019917836
0.48791137 -0.19197671 0.0199336
0.48821309 -0.19099648 0.019949364
0.48851481 -0.19001625 0.019965129
0.48790577 -0.18883495 0.019576089
0.48729736 -0.18765159 0.019187113
0.4875997 -0.18666929 0.01920291
0.48699224 -0.18548281 0.018813955
0.48638541 -0.18429427 0.018425047
0.48668841 -0.18330991 0.018440878
0.48608249 -0.18211825 0.018051991
0.48547724 -0.18092453 0.017663166
0.48487267 -0.17972875 0.017274361
0.4842687 -0.1785309 0.016885618
0.48457295 -0.1775424 0.016901514
0.48396996 -0.17634146 0.016512806
0.48336753 -0.17513843 0.016124101
0.48367244 -0.17414786 0.016140033
0.483071 -0.17294174 0.015751407
0.48337623 -0.17195013 0.015767355
0.48277578 -0.17074092 0.015378765
0.48308131 -0.16974828 0.015394729
0.48248181 -0.16853595 0.015006203
0.48278767 -0.16754229 0.015022184
0.4830935 -0.16654861 0.015038164
0.48249522 -0.16533214 0.014649676
0.48280141 -0.16433744 0.014665673
0.48220411 -0.16311789 0.014277278
0.4825106 -0.16212215 0.014293293
0.48191428 -0.16089948 0.013904919
0.4822211 -0.15990271 0.01392095
0.48162574 -0.15867694 0.01353264
0.48193285 -0.15767914 0.013548687
0.48133844 -0.15645027 0.013160414
0.48164588 -0.15545143 0.013176478
0.48195335 -0.15445259 0.013192541
0.48136014 -0.15321958 0.012804333
0.48166791 -0.1522197 0.012820414
0.48107573 -0.1509836 0.012432257
0.4813838 -0.14998269 0.012448354
0.48079258 -0.14874348 0.012060275
0.48110098 -0.14774154 0.012076388
0.48140937 -0.1467396 0.012092502
0.48081943 -0.14549625 0.011704462
0.48202616 -0.14473572 0.012124729
0.48233458 -0.14373378 0.012140843
0.48354039 -0.14297634 0.012561033
0.48384845 -0.14197543 0.01257713
0.48415655 -0.14097454 0.012593227
0.47370717 -0.1370023 0.0077607655
0.47312289 -0.13574032 0.0073730093
0.47074768 -0.13397697 0.0061773011
0.4704788 -0.13169029 0.0058060237
0.47079229 -0.13067181 0.0058224034
0.47141954 -0.21167642 0.014121846
0.47907004 -0.21209441 0.017387774
0.47937271 -0.21111108 0.017403588
0.48151037 -0.2104843 0.018231805
0.48181242 -0.20950302 0.018247586
0.48211446 -0.20852177 0.018263368
0.48333305 -0.20772187 0.018685307
0.48455104 -0.20692407 0.019107243
0.48576835 -0.20612831 0.019529117
0.48698503 -0.20533462 0.019950956
0.48728579 -0.20435749 0.019966671
0.48758656 -0.20338036 0.019982386
0.48788732 -0.20240325 0.0199981
0.48818809 -0.20142612 0.020013815
0.48848885 -0.20044899 0.02002953
0.48878959 -0.19947188 0.020045243
0.48909035 -0.19849475 0.020060958
0.48939112 -0.19751762 0.020076673
0.48969188 -0.19654049 0.020092387
0.48908022 -0.19536857 0.019702159
0.48846921 -0.19419456 0.019311965
0.4887706 -0.19321537 0.019327713
0.489072 -0.19223617 0.01934346
0.48937342 -0.19125699 0.019359209
0.48967481 -0.19027779 0.019374955
0.48906565 -0.18909757 0.018984832
0.48936737 -0.18811734 0.019000595
0.48875922 -0.18693404 0.01861055
0.4881517 -0.18574867 0.018220553
0.4875448 -0.18456121 0.017830575
0.48784748 -0.1835779 0.017846389
0.48724157 -0.18238735 0.017456461
0.48663622 -0.18119472 0.017066535
0.48603156 -0.18000004 0.016676674
0.48542756 -0.17880329 0.016286844
0.48573148 -0.17781582 0.016302725
0.48512843 -0.17661597 0.015912959
0.48452601 -0.17541406 0.0155232
0.48483059 -0.17442451 0.015539113
0.48513517 -0.17343499 0.015555028
0.48543975 -0.17244546 0.015570942
0.48483887 -0.17123835 0.015181265
0.48514375 -0.17024778 0.015197195
0.48454389 -0.1690376 0.014807582
0.4848491 -0.168046 0.01482353
0.48425019 -0.1668327 0.014433967
0.48455572 -0.16584006 0.014449931
0.48486125 -0.16484743 0.014465895
0.4842636 -0.16362999 0.014076384
0.48456946 -0.16263632 0.014092364
0.4839727 -0.16141579 0.013702903
0.48427889 -0.16042109 0.0137189
0.48368314 -0.15919745 0.013329518
0.48398963 -0.15820171 0.013345532
0.48429611 -0.15720597 0.013361545
0.48370165 -0.1559782 0.012972215
0.48310784 -0.15474838 0.012582905
0.48341495 -0.15375057 0.012598951
0.48282206 -0.15251763 0.012209704
0.48222977 -0.15128261 0.011820476
0.48253754 -0.15028273 0.011836556
0.48284531 -0.14928286 0.011852637
0.48315307 -0.14828299 0.011868717
0.48256242 -0.14704281 0.011479586
0.48287049 -0.1460419 0.011495683
0.48317859 -0.145041 0.01151178
0.48348665 -0.14404009 0.011527877
0.48469189 -0.14328362 0.011949119
0.48499966 -0.14228375 0.011965199
0.48530743 -0.14128388 0.01198128
0.48561516 -0.140284 0.01199736
0.48592293 -0.13928413 0.01201344
0.48533514 -0.13803466 0.011624459
0.48564324 -0.13703375 0.011640556
0.47521228 -0.13301267 0.0067962725
0.47552419 -0.13199936 0.0068125692
0.47167155 -0.21173868 0.013114233
0.47931993 -0.21215615 0.016388563
0.4796226 -0.21117282 0.016404379
0.48175976 -0.2105459 0.017234704
0.4820618 -0.20956464 0.017250486
0.48236382 -0.20858338 0.017266266
0.48358217 -0.20778342 0.01768926
0.48479989 -0.20698553 0.018112237
0.48510128 -0.20600635 0.018127983
0.48631802 -0.20521156 0.018550895
0.48661911 -0.20423341 0.018566625
0.48783487 -0.20344171 0.018989487
0.48813564 -0.2024646 0.019005202
0.4884364 -0.20148747 0.019020915
0.48873717 -0.20051034 0.01903663
0.48903793 -0.19953322 0.019052345
0.4893387 -0.1985561 0.019068059
0.48963946 -0.19757897 0.019083774
0.4899402 -0.19660184 0.019099489
0.49024096 -0.19562472 0.019115202
0.48962989 -0.19445182 0.018723937
0.48993099 -0.19347367 0.018739669
0.49023205 -0.19249551 0.018755399
0.49053314 -0.19151734 0.018771131
0.49083421 -0.19053918 0.018786862
0.49022505 -0.18936007 0.018395696
0.49052647 -0.18838088 0.018411445
0.4899182 -0.18719865 0.018020313
0.48931062 -0.18601438 0.01762923
0.48870367 -0.18482804 0.017238196
0.48900604 -0.18384576 0.017253993
0.48840004 -0.1826563 0.016862994
0.48779473 -0.18146479 0.016472027
0.48718995 -0.18027119 0.01608108
0.48749325 -0.17928579 0.016096927
0.48688951 -0.17808911 0.015706044
0.4862864 -0.17689036 0.015315194
0.48659033 -0.17590289 0.015331075
0.48689428 -0.17491542 0.015346956
0.48629242 -0.17371254 0.014956187
0.4865967 -0.17272404 0.014972084
0.48690096 -0.17173554 0.014987981
0.48630038 -0.17052852 0.014597264
0.48660496 -0.16953899 0.014613179
