# .PCD v0.7 - Point Cloud Data file format
VERSION 0.7
FIELDS x y z
SIZE 4 4 4
TYPE F F F
COUNT 1 1 1
WIDTH 1409
HEIGHT 1
VIEWPOINT 0 0 0 1 0 0 0
POINTS 1409
DATA ascii
0.64193559 0.1002536 0.03151631
0.64301121 0.10061651 0.03192392
0.64328521 0.10151463 0.031912372
0.64355916 0.10241276 0.031900827
0.64383316 0.10331088 0.031889278
0.64410716 0.10420902 0.031877734
0.64438111 0.10510714 0.031866185
0.64465511 0.10600528 0.031854641
0.64492905 0.1069034 0.031843092
0.64600182 0.107257 0.032250822
0.64627546 0.10815409 0.032239288
0.64654917 0.10905121 0.032227755
0.64682281 0.10994829 0.032216221
0.64709646 0.11084539 0.032204688
0.64737016 0.11174247 0.032193154
0.6476438 0.11263956 0.032181621
0.64791745 0.11353666 0.032170091
0.64898735 0.113881 0.032577936
0.6492607 0.11477707 0.032566417
0.64953405 0.1156731 0.032554895
0.64980739 0.11656917 0.032543376
0.65008074 0.11746523 0.032531857
0.65035415 0.11836129 0.032520335
0.65062749 0.11925736 0.032508817
0.65090084 0.12015343 0.032497298
0.65196788 0.12048843 0.032905262
0.65224093 0.12138344 0.032893758
0.65251392 0.12227848 0.032882251
0.65278697 0.12317352 0.032870743
0.65306002 0.12406853 0.032859236
0.65333307 0.12496357 0.032847729
0.65360606 0.12585858 0.032836225
0.65387911 0.12675361 0.032824717
0.65415215 0.12764862 0.03281321
0.6544252 0.12854366 0.032801703
0.65469819 0.12943868 0.032790195
0.65497124 0.13033372 0.032778692
0.65524429 0.13122876 0.032767184
0.65551728 0.13212377 0.032755677
0.65579033 0.13301881 0.032744169
0.65606338 0.13391382 0.032732666
0.65633643 0.13480882 0.032721158
0.65660942 0.13570386 0.032709651
0.65688246 0.13659887 0.032698143
0.65715551 0.13749391 0.032686636
0.65821594 0.13780725 0.033094868
0.65848869 0.13870123 0.033083376
0.65876138 0.13959521 0.033071883
0.65903413 0.14048921 0.033060387
0.65930682 0.14138322 0.033048894
0.65957952 0.1422772 0.033037402
0.66063786 0.14258328 0.033445742
0.66091025 0.14347623 0.033434261
0.66118264 0.1443692 0.033422779
0.66223961 0.14467111 0.033831172
0.66251171 0.14556305 0.033819705
0.6627838 0.14645495 0.033808239
0.6630559 0.14734688 0.033796772
0.66411132 0.14764367 0.034205232
0.66438305 0.14853458 0.034193777
0.66465485 0.14942546 0.034182325
0.66570896 0.14971811 0.034590837
0.66598046 0.15060797 0.034579396
0.6662519 0.15149783 0.034567956
0.66652334 0.15238768 0.034556516
0.66757596 0.15267517 0.034965109
0.6678471 0.15356399 0.03495368
0.66811824 0.15445282 0.034942254
0.66838938 0.15534163 0.034930825
0.66944039 0.15562391 0.035339471
0.66971123 0.15651171 0.035328057
0.66998202 0.15739952 0.035316642
0.67025286 0.1582873 0.035305232
0.6705237 0.1591751 0.035293818
0.6715728 0.1594512 0.035702512
0.67184329 0.16033795 0.035691112
0.67289144 0.16061099 0.036099873
0.67316169 0.16149671 0.036088489
0.67343187 0.16238244 0.036077101
0.61856031 0.086040564 0.022520993
0.62207913 0.08492741 0.024188604
0.62397695 0.084824562 0.025016548
0.62506461 0.085227847 0.025424689
0.62696016 0.085117765 0.026252739
0.62723792 0.0860283 0.026241032
0.62832367 0.086425416 0.026649253
0.63021648 0.086306013 0.027477425
0.63130063 0.086697958 0.027885709
0.63238412 0.08708784 0.028294008
0.63346702 0.087475672 0.028702347
0.63454932 0.087861389 0.029110713
0.63563097 0.088245071 0.029519105
0.63671196 0.08862669 0.029927524
0.63779229 0.089006245 0.03033594
0.63806695 0.089906439 0.030324368
0.63914633 0.090282895 0.030732853
0.63942063 0.091182061 0.030721294
0.63969493 0.092081219 0.030709734
0.63996923 0.092980385 0.030698175
0.64024353 0.093879536 0.030686615
0.64051783 0.094778694 0.030675054
0.64159507 0.095147893 0.031083634
0.64186907 0.096046023 0.031072088
0.64214307 0.096944153 0.031060541
0.64241701 0.097842269 0.031048995
0.64269102 0.098740399 0.031037448
0.64296496 0.099638522 0.031025901
0.64403999 0.10000051 0.031434573
0.64431363 0.1008976 0.03142304
0.64458728 0.10179469 0.031411506
0.64486098 0.10269179 0.031399973
0.64513463 0.10358888 0.031388439
0.64540827 0.10448597 0.031376906
0.64568198 0.10538306 0.031365372
0.64595562 0.10628015 0.031353839
0.64702779 0.10663285 0.031762615
0.64730114 0.10752891 0.031751096
0.64757448 0.10842498 0.031739578
0.64784783 0.10932101 0.031728055
0.64812118 0.11021708 0.031716537
0.64839453 0.11111314 0.031705018
0.64866787 0.1120092 0.031693496
0.64894122 0.11290527 0.031681977
0.65001053 0.11324862 0.032090887
0.65028358 0.11414366 0.03207938
0.65055662 0.11503868 0.032067873
0.65082967 0.11593372 0.032056369
0.65110272 0.11682875 0.032044861
0.65137571 0.11772376 0.032033354
0.65164876 0.1186188 0.032021847
0.65192181 0.11951382 0.032010343
0.65298826 0.11984789 0.032419343
0.65326101 0.12074187 0.03240785
0.6535337 0.12163588 0.032396358
0.65380645 0.12252987 0.032384861
0.65407914 0.12342385 0.032373369
0.65435189 0.12431787 0.032361876
0.65462458 0.12521185 0.032350384
0.65489733 0.12610584 0.032338887
0.65517002 0.12699983 0.032327395
0.65544277 0.12789384 0.032315902
0.65571547 0.12878783 0.03230441
0.65598816 0.12968181 0.032292917
0.65626091 0.13057579 0.032281421
0.6565336 0.1314698 0.032269929
0.65680635 0.1323638 0.032258436
0.65707904 0.13325778 0.032246944
0.65735179 0.13415179 0.032235447
0.65762448 0.13504578 0.032223955
0.65789717 0.13593976 0.032212462
0.65816993 0.13683374 0.03220097
0.65922987 0.13714613 0.032610293
0.65950227 0.13803908 0.032598812
0.65977466 0.13893205 0.032587335
0.66004705 0.13982502 0.032575853
0.66031945 0.14071797 0.032564372
0.66059184 0.14161094 0.032552894
0.66164953 0.14191604 0.032962281
0.66192162 0.14280798 0.032950815
0.66219372 0.14369987 0.032939348
0.66325009 0.1440009 0.033348802
0.66352189 0.14489178 0.033337347
0.66379362 0.14578266 0.033325896
0.66406542 0.14667358 0.03331444
0.66512024 0.14696944 0.033723962
0.66539168 0.14785929 0.033712525
0.66566318 0.14874914 0.033701085
0.66671675 0.14904085 0.034110658
0.6669879 0.14992964 0.034099232
0.66725904 0.15081848 0.034087803
0.66831136 0.15110604 0.034497432
0.6685822 0.15199381 0.034486018
0.66885298 0.15288162 0.034474604
0.66912383 0.1537694 0.034463193
0.6701746 0.15405181 0.034872856
0.67044508 0.15493858 0.034861457
0.67071557 0.15582533 0.034850057
0.67098612 0.15671209 0.034838658
0.6712566 0.15759884 0.034827255
0.67152715 0.15848562 0.034815855
0.67257565 0.15876079 0.035225645
0.67284584 0.15964651 0.035214256
0.67389339 0.15991856 0.035624068
0.67416328 0.16080323 0.035612695
0.67443317 0.16168793 0.035601322
0.617984 0.086465888 0.021168567
0.62231135 0.084845997 0.02326123
0.62420857 0.084743328 0.024091274
0.625296 0.085146718 0.024500465
0.62719107 0.085036814 0.025330616
0.62746882 0.08594735 0.025318909
0.62855428 0.086344555 0.025728166
0.63044655 0.086225338 0.026558436
0.63233751 0.086101986 0.027388761
0.63342047 0.086490929 0.027798122
0.63450283 0.086877793 0.028207526
0.63558447 0.087262593 0.028616956
0.63666552 0.087645344 0.029026397
0.63694048 0.088546567 0.029014809
0.63802058 0.088926211 0.029424276
0.63910002 0.089303792 0.029833784
0.63937432 0.09020295 0.029822225
0.64045292 0.090577409 0.030231802
0.64072692 0.091475539 0.030220255
0.64100087 0.092373654 0.030208709
0.64127487 0.093271784 0.030197162
0.64154881 0.094169915 0.030185616
0.64182281 0.095068045 0.030174069
0.64289916 0.095435269 0.030583709
0.6431728 0.096332364 0.030572176
0.64344645 0.097229466 0.030560642
0.64372009 0.098126553 0.030549111
0.64399379 0.099023648 0.030537577
0.64506823 0.099384695 0.030947298
0.64534158 0.10028076 0.030935777
0.64561492 0.10117682 0.030924257
0.64588827 0.10207289 0.030912736
0.64616162 0.10296895 0.030901218
0.64643496 0.10386499 0.030889697
0.64670831 0.10476105 0.030878177
0.64698166 0.10565712 0.030866658
0.64805323 0.10600885 0.031276513
0.64832628 0.10690387 0.031265005
0.64859933 0.1077989 0.031253498
0.64887232 0.10869394 0.031241992
0.64914536 0.10958895 0.031230485
0.64941841 0.11048399 0.03121898
0.6496914 0.11137901 0.031207472
0.64996445 0.11227404 0.031195965
0.65103322 0.11261646 0.031605911
0.65130591 0.11351044 0.031594418
0.65157866 0.11440446 0.031582925
0.65185136 0.11529845 0.031571429
0.65212411 0.11619243 0.031559937
0.6523968 0.11708642 0.031548444
0.65266955 0.11798043 0.031536952
0.65294224 0.11887442 0.031525459
0.65400821 0.11920754 0.03193555
0.6542806 0.1201005 0.031924073
0.654553 0.12099346 0.031912591
0.65482545 0.12188642 0.03190111
0.65509784 0.12277938 0.031889632
0.65537024 0.12367234 0.031878151
0.65564263 0.1245653 0.03186667
0.65591502 0.12545826 0.031855192
0.65618742 0.12635122 0.031843711
0.65645987 0.12724417 0.031832229
0.65673226 0.12813714 0.031820752
0.65700465 0.12903009 0.03180927
0.65727705 0.12992306 0.031797793
0.65754944 0.13081601 0.031786311
0.65782183 0.13170898 0.03177483
0.65809423 0.13260193 0.031763352
0.65836668 0.1334949 0.031751871
0.65863907 0.13438785 0.03174039
0.65891147 0.13528082 0.031728912
0.65918386 0.13617378 0.031717431
0.66024315 0.13648519 0.032127805
0.66051525 0.13737713 0.032116335
0.66078734 0.13826902 0.032104868
0.66105944 0.13916096 0.032093402
0.66133147 0.1400529 0.032081936
0.66160357 0.14094481 0.032070469
0.66266066 0.141249 0.032480922
0.66293246 0.14213991 0.032469466
0.66320419 0.14303079 0.032458015
0.66426003 0.14333087 0.032868519
0.66453153 0.14422072 0.032857079
0.66480297 0.14511058 0.032845639
0.66507441 0.14600046 0.032834198
0.6661287 0.14629534 0.033244796
0.66639984 0.14718416 0.033233371
0.66667104 0.14807299 0.033221945
0.66772401 0.14836372 0.033632569
0.6679948 0.14925152 0.033621155
0.66904688 0.14953917 0.034031805
0.66931736 0.15042593 0.034020402
0.66958791 0.15131271 0.034009002
0.6698584 0.15219946 0.033997603
0.67012888 0.15308622 0.033986203
0.67117906 0.15336768 0.034396958
0.67144924 0.15425341 0.034385573
0.67171943 0.15513913 0.034374185
0.67198962 0.15602486 0.034362797
0.67225987 0.1569106 0.034351412
0.67253006 0.15779632 0.034340024
0.67357796 0.1580705 0.03475086
0.67384785 0.1589552 0.034739487
0.67489493 0.15922631 0.035150379
0.67516446 0.16010997 0.035139017
0.67543405 0.16099364 0.035127658
0.62254351 0.084764585 0.022333872
0.62363154 0.085171178 0.022744058
0.62552738 0.085065581 0.023576241
0.62742192 0.084955864 0.024408493
0.62769967 0.085866399 0.024396786
0.62878489 0.086263694 0.024807092
0.63067663 0.086144663 0.02563945
0.63256705 0.08602149 0.026471859
0.63364977 0.08641053 0.026882272
0.63473183 0.086797483 0.027292725
0.63581324 0.08718238 0.02770319
0.63689405 0.087565221 0.028113682
0.6379742 0.087945983 0.028524185
0.63905376 0.088324681 0.028934728
0.63932806 0.089223854 0.028923169
0.64040667 0.089599431 0.029333768
0.64068067 0.090497561 0.029322222
0.64095461 0.091395691 0.029310675
0.64203191 0.09176714 0.029721329
0.64230561 0.092664234 0.029709795
0.64257926 0.093561336 0.029698262
0.6428529 0.094458424 0.029686728
0.64312661 0.095355518 0.029675195
0.64340025 0.096252605 0.029663661
0.64447534 0.096616849 0.030074393
0.64474875 0.097512916 0.030062873
0.64502209 0.098408982 0.030051352
0.64609593 0.098769069 0.030462136
0.64636892 0.099664092 0.030450629
0.64664197 0.10055912 0.030439124
0.64691502 0.10145414 0.030427616
0.64718807 0.10234918 0.030416111
0.64746106 0.10324419 0.030404603
0.64773411 0.10413923 0.030393098
0.64800715 0.10503424 0.03038159
0.64907813 0.10538504 0.030792478
0.64935088 0.10627902 0.030780986
0.64962357 0.10717301 0.030769493
0.64989632 0.10806703 0.030757999
0.65016901 0.10896101 0.030746507
0.65044177 0.109855 0.030735012
0.65071446 0.11074901 0.03072352
0.65098721 0.11164299 0.030712025
0.65205544 0.11198447 0.031123064
0.65232784 0.11287743 0.031111583
0.65260023 0.11377039 0.031100104
0.65287262 0.11466335 0.031088624
0.65314502 0.11555631 0.031077143
0.65341741 0.11644927 0.031065663
0.6536898 0.11734223 0.031054184
0.65396225 0.11823519 0.031042702
0.65423465 0.11912815 0.031031223
0.65450704 0.1200211 0.031019744
0.65477943 0.12091407 0.031008264
0.65584385 0.12124317 0.031419445
0.65611589 0.12213507 0.031407978
0.65638798 0.12302701 0.031396512
0.65666008 0.12391894 0.031385045
0.65693218 0.12481085 0.031373579
0.65720427 0.12570278 0.031362113
0.65747637 0.12659472 0.031350646
0.65774846 0.12748663 0.03133918
0.6580205 0.12837856 0.031327713
0.65829259 0.12927049 0.031316243
0.65856469 0.13016243 0.031304777
0.65883678 0.13105434 0.03129331
0.65910888 0.13194627 0.031281844
0.65938097 0.13283817 0.031270377
0.65965307 0.13373011 0.031258911
0.6599251 0.13462202 0.031247444
0.6601972 0.13551395 0.031235978
0.66125596 0.13582446 0.031647399
0.66152769 0.13671534 0.031635948
0.66179949 0.13760625 0.031624492
0.66207123 0.13849713 0.031613037
0.66234303 0.13938804 0.031601585
0.66261482 0.14027892 0.03159013
0.66367131 0.14058219 0.032001644
0.66394275 0.14147204 0.031990204
0.66421419 0.14236189 0.031978767
0.66526955 0.14266102 0.032390349
0.6655407 0.14354984 0.032378923
0.66581184 0.14443868 0.032367494
0.66608298 0.14532748 0.032356068
0.66713661 0.1456214 0.032767702
0.66740745 0.14650922 0.032756288
0.6676783 0.14739701 0.032744873
0.66873068 0.14768684 0.033156548
0.66900122 0.14857359 0.033145148
0.67005265 0.14886031 0.033556875
0.67032284 0.14974603 0.033545487
0.67059308 0.15063176 0.033534098
0.67086327 0.15151748 0.033522714
0.67113346 0.15240322 0.033511326
0.67218304 0.15268369 0.033923134
0.67245293 0.1535684 0.033911761
0.67272276 0.1544531 0.033900384
0.67299265 0.15533777 0.033889011
0.67326254 0.15622248 0.033877637
0.67353243 0.15710717 0.033866264
0.67457986 0.15738043 0.034278195
0.67484939 0.15826412 0.034266833
0.67589581 0.15853429 0.034678772
0.6761651 0.1594169 0.034667425
0.6779868 0.15906845 0.035502717
0.67825538 0.15994899 0.035491396
0.61197829 0.090357646 0.015919534
0.62277567 0.084683172 0.021406513
0.62386346 0.085089862 0.021817748
0.62575877 0.084984444 0.022652019
0.62765282 0.084874913 0.023486355
0.62793058 0.085785441 0.02347465
0.62982267 0.085669689 0.024309067
0.63171357 0.085549802 0.025143523
0.63279665 0.085940994 0.025554959
0.63387907 0.086330123 0.025966421
0.63496089 0.086717173 0.026377924
0.63604206 0.08710216 0.02678944
0.63712257 0.087485097 0.02720098
0.63820249 0.087865949 0.02761252
0.63928175 0.088244744 0.028024115
0.64036041 0.088621452 0.028435752
0.64143842 0.088996097 0.028847398
0.64171207 0.089893207 0.028835865
0.64198571 0.090790294 0.028824333
0.64225942 0.091687381 0.0288128
0.64333582 0.092056893 0.029224513
0.64360917 0.092952937 0.029212993
0.64388251 0.093849003 0.029201474
0.64415586 0.09474507 0.029189954
0.64442921 0.095641136 0.029178433
0.64550376 0.096004419 0.029590229
0.64577681 0.096899442 0.029578721
0.6460498 0.097794466 0.029567214
0.6471231 0.098153606 0.029979033
0.64739579 0.099047601 0.029967539
0.64766854 0.099941604 0.029956046
0.64794123 0.10083559 0.029944552
0.64821398 0.10172959 0.02993306
0.64848667 0.10262357 0.029921567
0.64875942 0.10351756 0.029910073
0.64903212 0.10441157 0.02989858
0.65010262 0.1047614 0.030310562
0.65037501 0.10565436 0.030299082
0.6506474 0.10654732 0.030287601
0.6509198 0.10744028 0.030276122
0.65119225 0.10833324 0.030264642
0.65146464 0.1092262 0.030253161
0.65173703 0.11011916 0.030241681
0.65200943 0.11101212 0.030230202
0.65228182 0.11190508 0.03021872
0.65255421 0.11279804 0.030207241
0.65282667 0.11369099 0.030195761
0.65309906 0.11458395 0.03018428
0.65337145 0.11547691 0.030172801
0.65364385 0.11636988 0.030161321
0.65470958 0.11670423 0.030573487
0.65498161 0.11759616 0.030562021
0.65525371 0.1184881 0.030550553
0.6555258 0.11938 0.030539086
0.6557979 0.12027194 0.03052762
0.65606999 0.12116387 0.030516153
0.65634209 0.12205578 0.030504687
0.65661418 0.12294771 0.03049322
0.65688628 0.12383965 0.030481752
0.65715832 0.12473155 0.030470286
0.65743041 0.12562348 0.030458819
0.65770251 0.12651542 0.030447353
0.6579746 0.12740733 0.030435886
0.6582467 0.12829927 0.03042442
0.65851879 0.12919119 0.030412951
0.65879089 0.13008313 0.030401485
0.65906292 0.13097504 0.030390019
0.65933502 0.13186698 0.030378552
0.66039473 0.13218167 0.030790972
0.66066653 0.13307257 0.030779516
0.66093826 0.13396345 0.030768063
0.66121006 0.13485436 0.03075661
0.66226822 0.1351639 0.031169094
0.66253966 0.13605376 0.031157656
0.6628111 0.13694362 0.031146215
0.6630826 0.13783351 0.031134775
0.66335404 0.13872336 0.031123335
0.66362548 0.13961321 0.031111894
0.66468149 0.1399155 0.031524487
0.66495264 0.14080434 0.031513061
0.66522378 0.14169316 0.031501632
0.66627842 0.14199132 0.031914264
0.66654927 0.14287911 0.03190285
0.66682005 0.14376689 0.031891439
0.66709089 0.14465469 0.031880025
0.66814399 0.14494772 0.032292694
0.66841453 0.14583448 0.032281291
0.66868502 0.14672121 0.032269891
0.66973686 0.14701012 0.032682642
0.67000705 0.14789584 0.032671254
0.67027724 0.14878157 0.03265987
0.67054743 0.14966729 0.032648481
0.67159772 0.14995097 0.033061299
0.67186755 0.15083566 0.033049926
0.67213744 0.15172037 0.033038549
0.67240733 0.15260504 0.033027176
0.67267722 0.15348974 0.033015803
0.67372566 0.15376726 0.033428714
0.6739952 0.1546509 0.033417355
0.67426479 0.15553458 0.033405993
0.67453432 0.15641822 0.033394635
0.6755811 0.15669057 0.033807598
0.67585039 0.15757319 0.033796251
0.67611963 0.1584558 0.033784904
0.67638886 0.15933843 0.033773556
0.67821008 0.15899016 0.034610935
0.67847866 0.1598707 0.034599613
0.61221391 0.090275034 0.014978566
0.61977386 0.08663328 0.018782971
0.62490356 0.08449965 0.021315468
0.62599021 0.084903307 0.021727795
0.62788367 0.084793963 0.022564232
0.62816143 0.085704491 0.022552527
0.63005304 0.085588925 0.02338903
0.6319434 0.085469216 0.024225587
0.63383245 0.085345402 0.025062196
0.63491434 0.08573357 0.025474736
0.63599557 0.086119682 0.025887273
0.63707614 0.086503737 0.026299851
0.63815612 0.08688572 0.026712442
0.63923544 0.087265648 0.027125059
0.64031416 0.087643474 0.027537733
0.64139223 0.088019252 0.027950404
0.64166588 0.088916339 0.027938871
0.64193952 0.089813448 0.027927337
0.64221323 0.090710536 0.027915804
0.64248687 0.091607623 0.02790427
0.64356303 0.091977224 0.028317034
0.64383638 0.092873275 0.028305516
0.64410973 0.093769342 0.028293995
0.64438307 0.094665401 0.028282475
0.64545768 0.095029801 0.028695306
0.64653164 0.095392153 0.029108135
0.64680433 0.09628614 0.029096641
0.64707708 0.097180136 0.029085148
0.64734977 0.098074123 0.029073656
0.64842224 0.098431304 0.029486593
0.64869463 0.099324264 0.029475113
0.64896703 0.10021722 0.029463634
0.64923942 0.1011102 0.029452153
0.64951181 0.10200313 0.029440673
0.64978421 0.10289609 0.029429194
0.6500566 0.10378905 0.029417714
0.65032905 0.10468201 0.029406233
0.65060145 0.10557497 0.029394753
0.65087384 0.10646793 0.029383274
0.65114623 0.10736088 0.029371792
0.65141863 0.10825384 0.029360313
0.65169102 0.1091468 0.029348833
0.65196347 0.11003977 0.029337354
0.65223587 0.11093273 0.029325873
0.65250826 0.11182569 0.029314393
0.6535753 0.11216531 0.029727528
0.65384734 0.11305722 0.029716061
0.65411943 0.11394915 0.029704595
0.65439153 0.11484108 0.029693129
0.65466362 0.11573299 0.029681662
0.65493572 0.11662493 0.029670194
0.65520781 0.11751686 0.029658727
0.65547991 0.11840879 0.029647261
0.65575194 0.1193007 0.029635794
0.65602404 0.12019263 0.029624328
0.65629613 0.12108457 0.02961286
0.65735936 0.12141178 0.030026169
0.65763116 0.12230266 0.030014716
0.6579029 0.12319354 0.030003263
0.65817469 0.12408445 0.029991809
0.65844649 0.12497533 0.029980356
0.65871823 0.12586623 0.029968902
0.65899003 0.12675712 0.029957449
0.65926176 0.127648 0.029945996
0.65953356 0.12853891 0.029934542
0.6598053 0.12942979 0.029923089
0.6600771 0.1303207 0.029911635
0.66034889 0.13121158 0.029900182
0.66140801 0.13152537 0.030313663
0.66167945 0.13241522 0.030302223
0.66195095 0.13330509 0.030290782
0.66222239 0.13419494 0.030279342
0.66328001 0.13450353 0.030692892
0.66355115 0.13539235 0.030681465
0.66382229 0.13628119 0.030670037
0.66409343 0.13717002 0.030658612
0.66436458 0.13805884 0.030647185
0.66463572 0.13894768 0.030635757
0.66569108 0.13924903 0.031049399
0.66596186 0.14013679 0.031037986
0.66623271 0.1410246 0.031026572
0.66650355 0.14191239 0.031015158
0.6675573 0.14220859 0.031428836
0.66782784 0.14309534 0.031417437
0.66809833 0.14398213 0.031406038
0.66836888 0.14486888 0.031394634
0.66863936 0.14575563 0.031383235
0.66969126 0.14604564 0.031797022
0.66996145 0.14693137 0.031785637
0.67023164 0.14781709 0.031774249
0.67050183 0.14870282 0.031762861
0.67155212 0.14898764 0.032176714
0.67182201 0.14987232 0.032165341
0.67287141 0.15015404 0.032579236
0.673141 0.15103772 0.032567877
0.67341059 0.15192136 0.032556515
0.67368013 0.15280502 0.032545157
0.67394972 0.15368868 0.032533795
0.67421925 0.15457234 0.032522436
0.67448884 0.15545601 0.032511074
0.67475837 0.15633966 0.032499712
0.67580491 0.1566121 0.032913726
0.67607415 0.15749472 0.032902379
0.67634344 0.15837733 0.032891031
0.67661268 0.15925996 0.032879684
0.6784333 0.15891187 0.033719163
0.67870194 0.15979241 0.033707842
0.60678959 0.093739703 0.01106208
0.60707527 0.09467607 0.011050043
0.62513524 0.084418416 0.020390194
0.62702918 0.084312312 0.021228693
0.62811452 0.084713005 0.021642094
0.62839228 0.08562354 0.02163039
0.63028336 0.085508153 0.022468993
0.63217324 0.085388631 0.023307649
0.63406175 0.085265003 0.024146345
0.6351434 0.08565326 0.024559936
0.63622433 0.086039469 0.024973523
0.63730466 0.086423613 0.025387136
0.63838434 0.086805694 0.025800778
0.63946342 0.087185703 0.026214445
0.64054191 0.087563626 0.026628153
0.64161968 0.087939493 0.02704189
0.64189333 0.088836581 0.027030356
0.64216703 0.08973369 0.027018823
0.64244068 0.090630777 0.027007289
0.64271432 0.091527864 0.026995756
0.64379025 0.091897555 0.027409555
0.64406359 0.092793606 0.027398037
0.64433694 0.093689673 0.027386516
0.64541155 0.094055206 0.027800385
0.6456846 0.094950229 0.027788877
0.64675832 0.09531267 0.028202755
0.64703101 0.096206658 0.028191263
0.64730376 0.097100653 0.02817977
0.64837623 0.097458951 0.02859373
0.64864862 0.098351911 0.028582251
0.64892101 0.09924487 0.028570771
0.64919347 0.10013783 0.028559292
0.64946586 0.1010308 0.02854781
0.64973825 0.10192373 0.028536331
0.65001065 0.10281669 0.028524851
0.65028304 0.10370965 0.02851337
0.65055543 0.10460261 0.028501891
0.65082783 0.10549558 0.028490411
0.65110028 0.10638854 0.028478932
0.65137267 0.1072815 0.02846745
0.65164506 0.10817446 0.028455971
0.65271306 0.1085183 0.028870117
0.65298516 0.10941023 0.02885865
0.65325725 0.11030214 0.028847184
0.65352935 0.11119407 0.028835718
0.65380144 0.11208601 0.028824249
0.65407354 0.11297791 0.028812783
0.65434557 0.11386985 0.028801316
0.65461767 0.11476178 0.02878985
0.65488976 0.11565369 0.028778384
0.65595466 0.1159872 0.029192649
0.6562264 0.11687811 0.029181195
0.65649819 0.11776899 0.029169742
0.65676993 0.11865987 0.029158289
0.65704173 0.11955078 0.029146835
0.65731353 0.12044166 0.029135382
0.65758526 0.12133257 0.029123927
0.65785706 0.12222345 0.029112475
0.6581288 0.12311433 0.029101022
0.6584006 0.12400524 0.029089566
0.65867233 0.12489612 0.029078113
0.65894413 0.12578703 0.02906666
0.65921593 0.12667792 0.029055206
0.65948766 0.1275688 0.029043753
0.65975946 0.12845971 0.029032299
0.6600312 0.12935059 0.029020846
0.66109073 0.12966654 0.029435337
0.66136217 0.1305564 0.029423896
0.66163367 0.13144626 0.029412458
0.66190511 0.13233611 0.029401017
0.66296309 0.13264687 0.029815603
0.66323423 0.1335357 0.029804178
0.66350538 0.13442451 0.02979275
0.66377652 0.13531333 0.029781323
0.66404766 0.13620217 0.029769896
0.6643188 0.137091 0.029758468
0.66458994 0.13797982 0.029747043
0.66564536 0.13828228 0.030161707
0.66591614 0.1391701 0.030150292
0.66618699 0.14005786 0.03013888
0.66724116 0.14035626 0.030553581
0.66751164 0.14124301 0.030542182
0.66778219 0.14212976 0.030530781
0.66805267 0.1430165 0.030519381
0.66910523 0.14330971 0.030934179
0.66937542 0.14419544 0.030922791
0.66964561 0.14508116 0.030911405
0.66991585 0.14596689 0.030900016
0.6709668 0.14625491 0.031314868
0.67123669 0.14713958 0.031303495
0.67150658 0.14802429 0.031292118
0.67177647 0.14890899 0.031280745
0.67204636 0.14979365 0.031269372
0.67309552 0.15007548 0.031684317
0.67336506 0.15095916 0.031672955
0.67363465 0.1518428 0.031661596
0.67390418 0.15272646 0.031650234
0.67417377 0.15361013 0.031638876
0.6744433 0.15449378 0.031627513
0.6747129 0.15537745 0.031616155
0.67498243 0.1562611 0.031604793
0.67602873 0.15653363 0.032019857
0.67629796 0.15741624 0.03200851
0.6765672 0.15829886 0.031997163
0.67683649 0.15918149 0.031985816
0.67865658 0.15883358 0.032827381
0.67892522 0.15971412 0.03281606
0.60702705 0.093656458 0.010113791
0.60731268 0.094592817 0.010101752
0.62536687 0.08433719 0.019464921
0.62726033 0.084231272 0.02030552
0.62834543 0.084632054 0.020719972
0.62942988 0.085030757 0.021134451
0.63132018 0.084914528 0.021975154
0.63320911 0.084794156 0.022815909
0.63429105 0.085184596 0.023230493
0.63537246 0.085572951 0.023645135
0.63645315 0.085959248 0.024059772
0.63753319 0.08634349 0.024474436
0.63861263 0.08672566 0.024889113
0.63969141 0.087105766 0.025303829
0.6407696 0.087483771 0.02571859
0.64184713 0.087859735 0.02613336
0.64212084 0.088756822 0.026121827
0.64239448 0.089653932 0.026110293
0.64266813 0.090551019 0.02609876
0.64294177 0.091448106 0.026087228
0.64401746 0.091817893 0.026502077
0.6442908 0.092713945 0.026490558
0.64456415 0.093610004 0.026479037
0.64563853 0.093975633 0.026893955
0.64591157 0.094870657 0.026882449
0.64698499 0.095233187 0.027297378
0.64725769 0.096127175 0.027285885
0.64753044 0.09702117 0.027274391
0.64860266 0.097379558 0.027689403
0.64887506 0.098272517 0.027677923
0.64914745 0.099165477 0.027666442
0.64941984 0.10005844 0.027654963
0.64969224 0.10095142 0.027643483
0.64996463 0.10184435 0.027632004
0.65023708 0.10273731 0.027620522
0.65050948 0.10363027 0.027609043
0.65078187 0.10452323 0.027597563
0.65105426 0.10541619 0.027586082
0.65132666 0.10630915 0.027574603
0.65159905 0.10720211 0.027563123
0.6518715 0.10809506 0.027551642
0.65293926 0.108439 0.027966825
0.6532113 0.10933094 0.027955357
0.65348339 0.11022285 0.027943891
0.65375549 0.11111478 0.027932424
0.65402758 0.11200671 0.027920958
0.65429968 0.11289862 0.027909491
0.65457177 0.11379056 0.027898025
0.65484387 0.11468249 0.027886556
0.6551159 0.1155744 0.02787509
0.65618056 0.11590799 0.028290406
0.6564523 0.1167989 0.028278952
0.6567241 0.11768978 0.028267499
0.65699583 0.11858066 0.028256046
0.65726763 0.11947157 0.028244592
0.65753937 0.12036245 0.028233139
0.65781116 0.12125336 0.028221685
0.65808296 0.12214424 0.028210232
0.6583547 0.12303513 0.028198779
0.6586265 0.12392604 0.028187325
0.65889823 0.12481692 0.028175872
0.65917003 0.12570782 0.028164418
0.65944177 0.1265987 0.028152965
0.65971357 0.12748958 0.028141512
0.65998536 0.12838049 0.028130058
0.6602571 0.12927137 0.028118605
0.66131634 0.12958743 0.028534144
0.66158783 0.13047728 0.028522706
0.66185927 0.13136715 0.028511265
0.66213071 0.132257 0.028499825
0.66318846 0.13256785 0.028915448
0.6634596 0.13345668 0.028904021
0.66373074 0.13434549 0.028892593
0.66400188 0.13523431 0.028881166
0.66427302 0.13612314 0.028869739
0.66454417 0.13701198 0.028858313
0.66481531 0.1379008 0.028846886
0.66587043 0.13820335 0.0292626
0.66614127 0.13909116 0.029251186
0.66641212 0.13997893 0.029239774
0.66746598 0.14027742 0.029655525
0.66773647 0.14116417 0.029644126
0.66800702 0.14205092 0.029632725
0.6682775 0.14293768 0.029621325
0.66932982 0.14323096 0.030037172
0.66960001 0.1441167 0.030025786
0.67065138 0.14440686 0.030441659
0.67092127 0.14529155 0.030430285
0.67119116 0.14617626 0.030418912
0.67146099 0.14706093 0.030407539
0.67173088 0.14794563 0.030396163
0.67200077 0.14883032 0.03038479
0.67304999 0.14911327 0.030800771
0.67331958 0.14999692 0.030789411
0.67358911 0.15088059 0.03077805
0.6738587 0.15176424 0.03076669
0.67412823 0.15264788 0.03075533
0.67439783 0.15353157 0.03074397
0.67466736 0.15441521 0.030732609
0.67493695 0.15529889 0.030721249
0.67520654 0.15618253 0.030709889
0.67625254 0.15645516 0.031125987
0.67652178 0.15733777 0.03111464
0.67679101 0.1582204 0.031103292
0.67706025 0.15910302 0.031091945
0.67887986 0.15875529 0.03193561
0.6791485 0.15963584 0.031924289
0.61211264 0.090533786 0.011728493
0.61885816 0.087403141 0.015133986
0.62559855 0.084255964 0.018539662
0.62829852 0.083640568 0.01980954
0.62857628 0.084551103 0.019797835
0.63046694 0.08443816 0.020640597
0.63235641 0.084321074 0.021483414
0.63343871 0.08471366 0.021899022
0.63532591 0.08458934 0.022741932
0.63640666 0.084976755 0.023157606
0.63748676 0.085362144 0.023573307
0.63856626 0.085745431 0.023989022
0.6396451 0.086126663 0.024404775
0.64072335 0.086505793 0.024820572
0.64099735 0.087403923 0.024809025
0.64207458 0.087779976 0.025224846
0.64234829 0.088677071 0.025213312
0.64262193 0.089574173 0.025201779
0.64289558 0.09047126 0.025190245
0.64316928 0.091368355 0.025178714
0.64424467 0.091738224 0.025594613
0.64451802 0.092634276 0.025583094
0.64479136 0.093530342 0.025571574
0.64586544 0.093896054 0.025987513
0.64613849 0.094791077 0.025976006
0.64721167 0.095153704 0.026391985
0.64748436 0.096047692 0.026380492
0.64775711 0.096941687 0.026368998
0.64882904 0.097300172 0.026785061
0.6491015 0.098193131 0.026773579
0.64937389 0.099086091 0.0267621
0.64964628 0.09997905 0.02675062
0.64991868 0.10087202 0.026739139
0.65019107 0.10176495 0.02672766
0.65046346 0.10265791 0.02671618
0.65073586 0.10355087 0.026704701
0.65100831 0.10444383 0.026693219
0.6512807 0.10533679 0.02668174
0.65155309 0.10622975 0.02667026
0.65182549 0.10712271 0.026658779
0.65209788 0.10801568 0.0266473
0.6531654 0.1083597 0.027063532
0.6534375 0.10925164 0.027052065
0.65370953 0.11014354 0.027040599
0.65398163 0.11103548 0.027029132
0.65425372 0.11192741 0.027017666
0.65452582 0.11281932 0.0270062
0.65479791 0.11371125 0.026994731
0.65507001 0.11460319 0.026983265
0.6553421 0.11549509 0.026971798
0.6564064 0.11582878 0.027388165
0.6566782 0.11671969 0.02737671
0.65695 0.11761057 0.027365256
0.65722173 0.11850145 0.027353803
0.65749353 0.11939237 0.027342349
0.65776527 0.12028325 0.027330896
0.65803707 0.12117416 0.027319442
0.6583088 0.12206504 0.027307989
0.6585806 0.12295592 0.027296536
0.6588524 0.12384683 0.027285082
0.65912414 0.12473771 0.027273629
0.65939593 0.12562862 0.027262175
0.65966767 0.1265195 0.027250722
0.65993947 0.12741038 0.027239269
0.66021121 0.12830129 0.027227815
0.660483 0.12919217 0.027216362
0.661542 0.12950832 0.027632954
0.66181344 0.13039817 0.027621513
0.66208488 0.13128802 0.027610073
0.66235638 0.13217787 0.027598632
0.66341382 0.13248883 0.028015304
0.66368496 0.13337766 0.028003879
0.66395611 0.13426645 0.027992452
0.66422725 0.13515529 0.027981024
0.66449839 0.13604411 0.027969597
0.66476953 0.13693295 0.027958171
0.66504067 0.13782178 0.027946744
0.66609555 0.13812442 0.028363509
0.6663664 0.13901223 0.028352095
0.66663718 0.1399 0.028340681
0.66769081 0.14019857 0.02875747
0.66796136 0.14108533 0.028746068
0.66823184 0.14197208 0.028734669
0.66850233 0.14285883 0.028723268
0.66955441 0.14315222 0.029140152
0.6698246 0.14403795 0.029128766
0.67087573 0.14432821 0.029545689
0.67114556 0.1452129 0.029534316
0.67141545 0.1460976 0.029522941
0.67168534 0.14698227 0.029511567
0.67273492 0.14726739 0.029928572
0.67300451 0.14815104 0.029917212
0.67327404 0.14903471 0.029905852
0.67354363 0.14991836 0.029894492
0.67381316 0.15080203 0.029883131
0.67408276 0.15168567 0.029871771
0.67435229 0.15256932 0.029860409
0.67462188 0.15345299 0.029849049
0.67489141 0.15433665 0.029837688
0.675161 0.15522031 0.029826328
0.6754306 0.15610397 0.029814968
0.6764763 0.15637667 0.030232117
0.67674553 0.1572593 0.030220769
0.67701483 0.15814193 0.030209422
0.67728406 0.15902455 0.030198075
0.67910314 0.15867701 0.031043841
0.67937177 0.15955755 0.031032519
0.6123485 0.090451084 0.010786476
0.61909187 0.087321177 0.014200341
0.62502307 0.084683262 0.017186159
0.62933618 0.083050035 0.019315662
0.62961364 0.083959542 0.019303968
0.63230968 0.083334088 0.020577116
0.63258618 0.084240489 0.020565463
0.6344738 0.084119476 0.021410432
0.63555497 0.08450903 0.021827132
0.63663542 0.084896542 0.022243856
0.63771528 0.085282013 0.022660607
0.63879448 0.085665397 0.023077356
0.63987309 0.086046726 0.02349416
0.6409511 0.086425945 0.023910992
0.6412251 0.087324075 0.023899445
0.6423021 0.087700218 0.024316316
0.64257574 0.088597313 0.024304783
0.64284939 0.089494415 0.024293251
0.64312309 0.090391502 0.024281718
0.64339674 0.091288596 0.024270184
0.64447182 0.091658562 0.024687134
0.64474517 0.092554606 0.024675615
0.64501852 0.093450673 0.024664095
0.64609241 0.093816482 0.025081085
0.6463654 0.094711505 0.025069578
0.64743835 0.095074221 0.025486607
0.64771104 0.095968209 0.025475113
0.64798379 0.096862204 0.02546362
0.64905548 0.097220778 0.025880732
0.64932787 0.098113738 0.025869252
0.64960027 0.099006698 0.025857773
0.64987266 0.099899657 0.025846291
0.65014511 0.10079263 0.025834812
0.65041751 0.10168557 0.025823332
0.6506899 0.10257853 0.025811851
0.65096229 0.10347149 0.025800372
0.65123469 0.10436445 0.025788892
0.65150708 0.10525741 0.025777413
0.65177953 0.10615037 0.025765931
0.65205193 0.10704333 0.025754452
0.65232432 0.10793629 0.025742972
0.65339154 0.10828041 0.02616024
0.65366364 0.10917234 0.026148774
0.65393573 0.11006425 0.026137307
0.65420783 0.11095618 0.026125839
0.65447992 0.11184812 0.026114373
0.65475196 0.11274002 0.026102906
0.65502405 0.11363196 0.02609144
0.65529615 0.11452389 0.026079973
0.65556824 0.1154158 0.026068507
0.6566323 0.11574958 0.026485922
0.6569041 0.11664049 0.026474468
0.65717584 0.11753137 0.026463015
0.65744764 0.11842225 0.026451562
0.65771943 0.11931316 0.026440108
0.65799117 0.12020404 0.026428655
0.65826297 0.12109495 0.026417201
0.65853471 0.12198583 0.026405748
0.6588065 0.12287671 0.026394295
0.65907824 0.12376762 0.026382839
0.65935004 0.1246585 0.026371386
0.65962183 0.12554941 0.026359932
0.65989357 0.12644029 0.026348479
0.66016537 0.12733117 0.026337026
0.66043711 0.12822208 0.026325572
0.6607089 0.12911296 0.026314119
0.6617676 0.12942921 0.026731761
0.6620391 0.13031906 0.026720321
0.66231054 0.13120891 0.02670888
0.66258198 0.13209876 0.02669744
0.66363919 0.1324098 0.027115149
0.66391033 0.13329864 0.027103722
0.66418147 0.13418743 0.027092295
0.66445261 0.13507627 0.027080867
0.66472375 0.13596509 0.027069442
0.6649949 0.13685392 0.027058015
0.66526604 0.13774276 0.027046587
0.66632068 0.13804549 0.027464403
0.66659147 0.1389333 0.027452989
0.66686231 0.13982107 0.027441574
0.6679157 0.14011973 0.027859414
0.66818619 0.14100648 0.027848013
0.66845667 0.14189324 0.027836613
0.66872722 0.14277999 0.027825212
0.669779 0.14307347 0.028243147
0.67004919 0.14395919 0.028231759
0.67110002 0.14424954 0.028649732
0.67136991 0.14513424 0.028638359
0.6716398 0.14601895 0.028626986
0.67190963 0.14690362 0.028615613
0.67295897 0.14718883 0.029033652
0.67322856 0.14807247 0.029022291
0.67349809 0.14895615 0.029010931
0.67376769 0.14983979 0.028999571
0.67403722 0.15072347 0.02898821
0.67430681 0.15160711 0.02897685
0.67457634 0.15249076 0.02896549
0.67484593 0.15337443 0.02895413
0.67511553 0.15425809 0.028942769
0.67538506 0.15514176 0.028931407
0.67565465 0.15602541 0.028920047
0.67670012 0.15629821 0.029338248
0.67696935 0.15718083 0.029326901
0.67723858 0.15806346 0.029315554
0.67750788 0.15894607 0.029304206
0.67932642 0.15859872 0.030152056
0.67959505 0.15947926 0.030140735
0.60935432 0.092393935 0.0081273988
0.61771125 0.088254049 0.012408132
0.62041372 0.087652646 0.013684109
0.62956679 0.082969174 0.018394588
0.62984425 0.083878681 0.018382896
0.63334543 0.082741946 0.020088499
0.63362163 0.083647311 0.02007686
0.63550842 0.083525427 0.020923944
0.63658899 0.083914064 0.021341706
0.63766885 0.08430066 0.021759478
0.63874817 0.084685169 0.022177264
0.63982677 0.085067615 0.022595106
0.64010108 0.085966781 0.022583546
0.64117885 0.086346097 0.023001429
0.64145279 0.08724422 0.022989882
0.64252955 0.087620459 0.023407802
0.64280319 0.088517554 0.02339627
0.6430769 0.089414656 0.023384737
0.64335054 0.090311743 0.023373203
0.64362419 0.091208838 0.02336167
0.64469904 0.091578893 0.023779657
0.64497238 0.092474945 0.023768136
0.64524573 0.093371011 0.023756616
0.64631933 0.093736909 0.024174655
0.64659238 0.094631933 0.024163149
0.64766502 0.094994739 0.024581229
0.64793772 0.095888726 0.024569735
0.64821047 0.096782729 0.024558242
0.64928192 0.097141385 0.024976389
0.64955431 0.098034352 0.02496491
0.64982671 0.098927312 0.024953429
0.6500991 0.099820271 0.024941949
0.65037149 0.10071325 0.02493047
0.65064389 0.10160618 0.02491899
0.65091634 0.10249913 0.024907509
0.65118873 0.10339209 0.024896029
0.65146112 0.10428505 0.02488455
0.65173352 0.10517801 0.024873069
0.65200591 0.10607097 0.024861589
0.6522783 0.10696393 0.02485011
0.6525507 0.10785689 0.024838628
0.65361768 0.10820111 0.025256947
0.65388978 0.10909304 0.02524548
0.65416187 0.10998495 0.025234014
0.65443397 0.11087688 0.025222547
0.65470606 0.11176881 0.025211081
0.65497816 0.11266072 0.025199614
0.65525025 0.11355266 0.025188146
0.65552229 0.11444459 0.02517668
0.65579438 0.1153365 0.025165213
0.65685821 0.11567037 0.025583679
0.65713 0.11656128 0.025572225
0.65740174 0.11745216 0.025560772
0.65767354 0.11834304 0.025549319
0.65794528 0.11923395 0.025537865
0.65821707 0.12012483 0.025526412
0.65848887 0.12101574 0.025514958
0.65876061 0.12190662 0.025503505
0.6590324 0.1227975 0.025492052
0.65930414 0.12368841 0.025480598
0.65957594 0.1245793 0.025469145
0.65984768 0.12547021 0.025457691
0.66011947 0.12636109 0.025446238
0.66039127 0.12725197 0.025434785
0.66066301 0.12814288 0.025423331
0.66093481 0.12903376 0.025411878
0.66199327 0.12935008 0.025830554
0.6622647 0.13023993 0.025819113
0.66253614 0.1311298 0.025807673
0.66280764 0.13201965 0.025796233
0.66386455 0.13233078 0.026215008
0.66413569 0.13321961 0.02620358
0.66440684 0.13410841 0.026192153
0.66467798 0.13499725 0.026180726
0.66494912 0.13588607 0.0261693
0.66522026 0.1367749 0.026157873
0.6654914 0.13766374 0.026146445
0.66654575 0.13796656 0.026565297
0.66681659 0.13885437 0.026553882
0.66708744 0.13974214 0.026542468
0.66814053 0.1400409 0.026961356
0.66841102 0.14092764 0.026949957
0.66868156 0.1418144 0.026938556
0.66895205 0.14270115 0.026927156
0.67000359 0.14299473 0.02734614
0.67027378 0.14388046 0.027334753
0.67132431 0.1441709 0.027753763
0.6715942 0.14505559 0.02774239
0.67186409 0.14594029 0.027731014
0.67213398 0.14682496 0.027719641
0.67318302 0.14711025 0.028138747
0.67345262 0.14799391 0.028127387
0.67372215 0.14887758 0.028116025
0.67399174 0.14976123 0.028104665
0.67426133 0.1506449 0.028093304
0.67453086 0.15152855 0.028081944
0.67480046 0.15241219 0.028070584
0.67506999 0.15329587 0.028059224
0.67533958 0.15417951 0.028047863
0.67560911 0.1550632 0.028036503
0.6758787 0.15594684 0.028025143
0.67692393 0.15621974 0.028444378
0.67719316 0.15710236 0.02843303
0.6774624 0.15798499 0.028421683
0.67773163 0.1588676 0.028410336
0.67954969 0.15852043 0.029260287
0.67981833 0.15940097 0.029248966
0.61039841 0.091804579 0.0076114982
0.61794549 0.088171899 0.011472399
0.62064725 0.087570772 0.012751513
0.62092817 0.088491648 0.012739674
0.6357168 0.080224812 0.020474339
0.63599205 0.08112707 0.020462738
0.63465655 0.083054349 0.019590355
0.63573748 0.083445117 0.020009143
0.63681775 0.083833851 0.02042794
0.63789737 0.084220529 0.020846764
0.6389764 0.084605135 0.0212656
0.64005476 0.08498767 0.021684492
0.64032906 0.085886844 0.021672931
0.64140654 0.086266242 0.022091864
0.64168054 0.087164372 0.022080317
0.642757 0.087540701 0.022499274
0.64303064 0.088437796 0.022487741
0.64330435 0.089334898 0.022476207
0.64357799 0.090231985 0.022464674
0.64385164 0.091129079 0.02245314
0.64492625 0.091499224 0.022872178
0.6451996 0.092395276 0.022860657
0.64547294 0.093291342 0.022849137
0.6465463 0.09365733 0.023268227
0.64681929 0.09455236 0.023256721
0.6478917 0.094915256 0.023675837
0.64816439 0.095809244 0.023664342
0.64843714 0.096703239 0.02365285
0.6495083 0.097061999 0.02407206
0.64978069 0.097954959 0.024060581
0.65005314 0.098847918 0.024049101
0.65032554 0.099740878 0.024037622
0.65059793 0.10063385 0.024026141
0.65087032 0.10152678 0.024014661
0.65114272 0.10241974 0.024003182
0.65141511 0.1033127 0.0239917
0.6516875 0.10420567 0.023980221
0.65195996 0.10509863 0.023968741
0.65223235 0.10599159 0.02395726
0.65250474 0.10688455 0.02394578
0.65277714 0.10777751 0.023934301
0.65384388 0.1081218 0.02435367
0.65411592 0.10901374 0.024342202
0.65438801 0.10990565 0.024330735
0.65466011 0.11079758 0.024319269
0.6549322 0.11168952 0.024307802
0.6552043 0.11258142 0.024296336
0.65547639 0.11347336 0.024284869
0.65574849 0.11436529 0.024273401
0.65602052 0.1152572 0.024261935
0.65708411 0.11559116 0.024681438
0.6573559 0.11648207 0.024669982
0.65762764 0.11737295 0.024658529
0.65789944 0.11826383 0.024647076
0.65817118 0.11915474 0.024635622
0.65844297 0.12004562 0.024624169
0.65871471 0.12093654 0.024612715
0.65898651 0.12182742 0.024601262
0.65925831 0.1227183 0.024589809
0.65953004 0.12360921 0.024578355
0.65980184 0.12450009 0.024566902
0.66007358 0.12539099 0.024555448
0.66034538 0.12628187 0.024543995
0.66061711 0.12717275 0.024532542
0.66088891 0.12806366 0.024521088
0.66116071 0.12895454 0.024509635
0.66221887 0.12927097 0.024929361
0.66249037 0.13016082 0.024917921
0.66276181 0.13105068 0.024906481
0.66303325 0.13194054 0.024895042
0.66408992 0.13225175 0.025314851
0.66436106 0.13314059 0.025303423
0.6646322 0.13402939 0.025291996
0.66490334 0.13491821 0.025280571
0.66517448 0.13580705 0.025269143
0.66544563 0.13669588 0.025257716
0.66571677 0.13758472 0.025246289
0.66677088 0.13788763 0.02566619
0.66704172 0.13877544 0.025654776
0.6673125 0.1396632 0.025643362
0.66836536 0.13996206 0.026063301
0.6686359 0.14084882 0.026051901
0.66890639 0.14173555 0.0260405
0.66917688 0.14262231 0.026029101
0.67022818 0.14291598 0.026449135
0.67049837 0.1438017 0.026437746
0.67154866 0.14409223 0.026857806
0.67181855 0.14497693 0.026846433
0.67208844 0.14586164 0.02683506
0.67235827 0.14674631 0.026823686
0.67340708 0.14703169 0.027243827
0.67367667 0.14791535 0.027232466
0.67394626 0.14879902 0.027221106
0.67421579 0.14968267 0.027209746
0.67448539 0.15056634 0.027198385
0.67475492 0.15144999 0.027187023
0.67502451 0.15233363 0.027175663
0.67529404 0.15321732 0.027164303
0.67556363 0.15410095 0.027152942
0.67583317 0.15498464 0.027141582
0.67610276 0.15586828 0.027130222
0.67637229 0.15675193 0.027118862
0.67741698 0.15702389 0.02753916
0.67768621 0.1579065 0.027527813
0.67795545 0.15878913 0.027516466
0.67822468 0.15967178 0.027505118
0.6106351 0.091721602 0.0066663437
0.62059981 0.086568043 0.011830756
0.62168705 0.086980656 0.012250298
0.62196767 0.087900482 0.012238473
0.63594556 0.080144592 0.019560589
0.63622081 0.081046857 0.019548988
0.63488585 0.082973942 0.018674506
0.63596654 0.083364807 0.019094342
0.63704652 0.083753631 0.01951419
0.6381259 0.084140405 0.019934064
0.63920462 0.084525101 0.020353949
0.64028275 0.084907733 0.020773862
0.64055705 0.085806899 0.020762302
0.64163429 0.086186394 0.021182284
0.64190823 0.087084524 0.021170737
0.64298445 0.087460943 0.021590745
0.64325815 0.088358037 0.021579212
0.6435318 0.089255139 0.021567678
0.64380544 0.090152226 0.021556145
0.64407915 0.091049321 0.021544613
0.64515346 0.091419563 0.021964699
0.64542681 0.092315614 0.021953179
0.64570016 0.093211673 0.021941658
0.64677322 0.093577757 0.022361798
0.64704627 0.094472781 0.022350293
0.64731932 0.095367819 0.022338785
0.64839113 0.095729761 0.022758964
0.64866382 0.096623763 0.02274747
0.64973474 0.096982606 0.023167718
0.65000713 0.097875565 0.023156239
0.65027952 0.098768525 0.023144759
0.65055192 0.099661484 0.023133278
0.65082437 0.10055446 0.023121798
0.65109676 0.1014474 0.023110319
0.65136915 0.10234036 0.023098838
0.65164155 0.10323332 0.023087358
0.65191394 0.10412627 0.023075879
0.65218633 0.10501923 0.023064399
0.65245873 0.10591219 0.023052918
0.65273118 0.10680515 0.023041438
0.65300357 0.10769811 0.023029959
0.65407002 0.10804251 0.023450376
0.65434211 0.10893445 0.02343891
0.65461421 0.10982635 0.023427444
0.65488625 0.11071829 0.023415977
0.65515834 0.11161022 0.023404509
0.65543044 0.11250213 0.023393042
0.65570253 0.11339406 0.023381576
0.65597463 0.114286 0.023370109
0.65624672 0.1151779 0.023358643
0.65651882 0.11606984 0.023347177
0.65679085 0.11696177 0.023335708
0.65706295 0.11785371 0.023324242
0.65733504 0.11874561 0.023312775
0.65760714 0.11963755 0.023301309
0.65866888 0.11996642 0.023721928
0.65894061 0.12085733 0.023710474
0.65921241 0.12174821 0.023699021
0.65948415 0.12263909 0.023687568
0.65975595 0.12353 0.023676112
0.66002774 0.12442088 0.023664661
0.66029948 0.12531179 0.023653205
0.66057128 0.12620267 0.023641752
0.66084301 0.12709355 0.023630299
0.66111481 0.12798446 0.023618845
0.66138655 0.12887534 0.023607392
0.66244453 0.12919186 0.024028169
0.66271597 0.13008171 0.024016729
0.66298741 0.13097157 0.02400529
0.66325891 0.13186142 0.02399385
0.66431528 0.13217273 0.024414709
0.66458642 0.13306156 0.024403282
0.66485757 0.13395037 0.024391854
0.66512871 0.13483919 0.024380427
0.66539985 0.13572803 0.024369001
0.66567099 0.13661686 0.024357574
0.66594213 0.13750568 0.024346147
0.666996 0.1378087 0.024767097
0.66726679 0.13869651 0.024755685
0.66753763 0.13958429 0.02474427
0.66859019 0.13988322 0.025165245
0.66886073 0.14076997 0.025153844
0.66913122 0.14165673 0.025142444
0.66940176 0.14254348 0.025131043
0.67045271 0.14283723 0.025552114
0.67072296 0.14372295 0.025540726
0.67177296 0.14401358 0.025961837
0.67204285 0.14489828 0.025950463
0.67231274 0.14578298 0.025939088
0.67258263 0.14666764 0.025927715
0.67363113 0.14695314 0.026348906
0.67390072 0.14783677 0.026337545
0.67417032 0.14872046 0.026326185
0.67443985 0.1496041 0.026314825
0.67470944 0.15048778 0.026303465
0.67497897 0.15137142 0.026292104
0.67524856 0.15225507 0.026280744
0.6755181 0.15313874 0.026269384
0.67578769 0.1540224 0.026258023
0.67605722 0.15490606 0.026246661
0.67632681 0.15578972 0.026235301
0.67659634 0.15667336 0.026223941
0.67764074 0.15694541 0.02664529
0.67791003 0.15782803 0.026633942
0.67740506 0.15932433 0.02618986
0.67767465 0.160208 0.0261785
0.62083334 0.086486176 0.010898161
0.62192029 0.086898871 0.011318753
0.62220091 0.087818705 0.011306928
0.63483924 0.081989206 0.017770281
0.63511515 0.082893543 0.017758654
0.63619554 0.083284497 0.018179541
0.63727528 0.08367341 0.018600425
0.63835442 0.084060282 0.019021349
0.63943291 0.084445067 0.019442284
0.64051074 0.084827788 0.019863248
0.64078504 0.085726954 0.019851688
0.64186203 0.086106546 0.020272721
0.64213598 0.087004676 0.020261174
0.64321196 0.087381192 0.020682231
0.64348561 0.088278279 0.020670697
0.64375925 0.089175381 0.020659164
0.64403296 0.090072468 0.02064763
0.6443066 0.090969563 0.020636098
0.64538068 0.091339894 0.02105722
0.64565402 0.092235945 0.0210457
0.64592737 0.093132012 0.021034181
0.64620072 0.094028071 0.021022661
0.64727318 0.094393209 0.021443864
0.64754623 0.095288247 0.021432357
0.6486178 0.095650278 0.021853587
0.6488905 0.096544281 0.021842092
0.64916319 0.097438261 0.0218306
0.64943594 0.098332264 0.021819105
0.64970863 0.099226266 0.021807613
0.64998138 0.10012025 0.021796118
0.65025407 0.10101425 0.021784626
0.65052682 0.10190824 0.021773132
0.65079951 0.10280222 0.021761639
0.65107226 0.10369623 0.021750145
0.65134495 0.10459021 0.021738652
0.65161765 0.1054842 0.02172716
0.6518904 0.10637819 0.021715665
0.65216309 0.1072722 0.021704173
0.65322995 0.10761872 0.022125615
0.6535024 0.10851168 0.022114135
0.6537748 0.10940465 0.022102656
0.65404719 0.11029761 0.022091174
0.65431958 0.11119056 0.022079695
0.65459198 0.11208352 0.022068216
0.65486437 0.11297648 0.022056736
0.65513682 0.11386944 0.022045255
0.65540922 0.1147624 0.022033775
0.65568161 0.11565536 0.022022296
0.655954 0.11654832 0.022010814
0.6562264 0.11744128 0.021999335
0.65649879 0.11833424 0.021987855
