# .PCD v0.7 - Point Cloud Data file format
VERSION 0.7
FIELDS x y z
SIZE 4 4 4
TYPE F F F
COUNT 1 1 1
WIDTH 1350
HEIGHT 1
VIEWPOINT 0 0 0 1 0 0 0
POINTS 1350
DATA ascii
0.5600884 -0.10013759 0.038768247
0.56036842 -0.099219829 0.038756449
0.55977148 -0.098001309 0.038342133
0.56005174 -0.097082511 0.03833032
0.55945575 -0.095860891 0.037915979
0.55973637 -0.094941057 0.037904155
0.56001699 -0.094021231 0.037892327
0.55942225 -0.092795469 0.037477922
0.55970317 -0.091874607 0.037466083
0.55910939 -0.090645745 0.037051633
0.5585162 -0.089414805 0.036637157
0.55879772 -0.088491879 0.036625292
0.55820554 -0.087257847 0.036210779
0.55848742 -0.086333886 0.036198899
0.55789614 -0.085096762 0.035784345
0.55817831 -0.084171765 0.035772454
0.55846053 -0.083246768 0.035760563
0.5587427 -0.082321763 0.035748668
0.55902487 -0.081396766 0.035736777
0.55930704 -0.080471769 0.035724886
0.55958921 -0.079546772 0.035712995
0.55900049 -0.078301378 0.035298333
0.55928296 -0.077375345 0.035286427
0.55956548 -0.076449312 0.035274524
0.55984795 -0.07552328 0.035262618
0.56013048 -0.074597247 0.035250712
0.56041294 -0.073671214 0.035238806
0.56069541 -0.072745182 0.0352269
0.56097794 -0.071819149 0.035214998
0.5612604 -0.070893124 0.035203092
0.56154293 -0.069967091 0.035191186
0.56182539 -0.069041051 0.03517928
0.56210786 -0.068115018 0.035167374
0.56239039 -0.067188993 0.035155471
0.56267285 -0.06626296 0.035143565
0.56295538 -0.065336928 0.035131659
0.56323785 -0.064410895 0.035119753
0.5626545 -0.063147932 0.034704883
0.56293726 -0.062220868 0.034692965
0.56322008 -0.061293799 0.034681045
0.56350291 -0.060366735 0.034669127
0.56378573 -0.05943967 0.03465721
0.5640685 -0.058512602 0.034645289
0.56435132 -0.057585537 0.034633372
0.56549776 -0.057002641 0.035024513
0.56578028 -0.056076609 0.035012607
0.56606275 -0.055150576 0.035000701
0.56634527 -0.054224543 0.034988798
0.56662774 -0.053298507 0.034976892
0.56691027 -0.052372474 0.034964986
0.56719273 -0.051446449 0.03495308
0.5674752 -0.050520416 0.034941178
0.56775773 -0.04959438 0.034929272
0.56804019 -0.048668347 0.034917366
0.56832272 -0.047742315 0.03490546
0.56860518 -0.046816289 0.034893554
0.56888765 -0.045890257 0.034881651
0.57002974 -0.045321818 0.035272993
0.5703119 -0.044396818 0.035261098
0.57145298 -0.043831494 0.035652481
0.57259345 -0.04326823 0.03604389
0.57373339 -0.042707052 0.036435325
0.5740146 -0.041785154 0.036423475
0.57515347 -0.041227065 0.036814947
0.57629174 -0.040671032 0.037206449
0.57657236 -0.039751202 0.037194625
0.57685292 -0.038831372 0.037182797
0.57713354 -0.037911538 0.037170973
0.57741416 -0.036991708 0.037159145
0.57769477 -0.036071874 0.037147321
0.57797533 -0.035152044 0.037135497
0.57825595 -0.03423221 0.037123669
0.57853657 -0.033312388 0.037111845
0.57967168 -0.032766689 0.037503466
0.57995194 -0.031847887 0.037491653
0.5802322 -0.030929096 0.03747984
0.58136606 -0.030387532 0.037871528
0.58249933 -0.029848065 0.038263258
0.58277899 -0.028931329 0.038251471
0.58305866 -0.028014602 0.038239684
0.58333832 -0.027097868 0.038227901
0.56229568 -0.11596736 0.040839143
0.56257343 -0.11505683 0.040827435
0.56196982 -0.11386114 0.040412378
0.56224787 -0.11294957 0.040400658
0.56252599 -0.11203801 0.040388938
0.56280404 -0.11112645 0.040377218
0.56220204 -0.10992558 0.039962079
0.56248039 -0.10901299 0.039950348
0.56187928 -0.10780901 0.039535169
0.56127882 -0.10660298 0.039119963
0.56067902 -0.10539489 0.038704731
0.56095839 -0.10447919 0.038692955
0.56123769 -0.10356349 0.038681183
0.56063914 -0.10235126 0.038265914
0.56091881 -0.10143454 0.038254127
0.56119847 -0.10051781 0.03824234
0.56147808 -0.099601075 0.038230557
0.56088108 -0.098383665 0.037815202
0.56116104 -0.097465903 0.037803404
0.56056499 -0.096245401 0.037388012
0.56084532 -0.095326602 0.037376199
0.56112558 -0.094407804 0.03736439
0.56053078 -0.093183175 0.036948957
0.5608114 -0.092263341 0.036937132
0.56021756 -0.091035612 0.036521647
0.56049848 -0.090114743 0.036509808
0.55990559 -0.088883914 0.036094282
0.5593133 -0.087650999 0.035678733
0.55959487 -0.086728066 0.035666864
0.55987638 -0.08580514 0.035654999
0.56015795 -0.084882207 0.035643134
0.56043947 -0.083959274 0.035631269
0.56072104 -0.083036341 0.035619404
0.56100255 -0.082113415 0.035607539
0.56128412 -0.081190482 0.035595674
0.56069469 -0.079948276 0.035180002
0.56097656 -0.079024315 0.035168123
0.56125844 -0.078100346 0.035156246
0.56154031 -0.077176385 0.035144366
0.56182218 -0.076252416 0.03513249
0.56210399 -0.075328454 0.03512061
0.56238586 -0.074404486 0.03510873
0.56266773 -0.073480524 0.035096854
0.5629496 -0.072556555 0.035084974
0.56323147 -0.071632594 0.035073094
0.56351334 -0.070708625 0.035061218
0.56379515 -0.069784664 0.035049338
0.56407702 -0.068860702 0.035037458
0.56435889 -0.067936733 0.035025582
0.56464076 -0.067012765 0.035013702
0.56492263 -0.066088803 0.035001822
0.5652045 -0.065164834 0.034989946
0.56462073 -0.063904032 0.03457405
0.5649029 -0.062979035 0.034562156
0.56518507 -0.062054042 0.034550264
0.5654673 -0.061129041 0.034538373
0.56574947 -0.060204037 0.034526482
0.56603163 -0.059279036 0.034514587
0.5663138 -0.058354035 0.034502696
0.56745934 -0.057773121 0.034894913
0.56774122 -0.056849152 0.034883037
0.56802309 -0.05592519 0.034871157
0.56830496 -0.055001222 0.034859277
0.56858683 -0.05407726 0.034847401
0.5688687 -0.053153291 0.034835521
0.56915051 -0.05222933 0.034823645
0.56943238 -0.051305361 0.034811765
0.56971425 -0.0503814 0.034799885
0.56999612 -0.049457431 0.034788009
0.57027799 -0.048533469 0.034776129
0.57055986 -0.047609504 0.034764249
0.57084167 -0.046685543 0.034752373
0.57198286 -0.046119079 0.035144791
0.57226437 -0.045196149 0.035132926
0.57340467 -0.044632807 0.035525382
0.57368588 -0.043710914 0.035513531
0.57482517 -0.043150663 0.035906028
0.5759638 -0.04259247 0.036298554
0.57624435 -0.041672643 0.03628673
0.57738209 -0.041117553 0.036679279
0.57766235 -0.040198755 0.036667466
0.57794261 -0.039279956 0.036655653
0.57822293 -0.038361162 0.036643844
0.57850319 -0.037442364 0.036632031
0.57878351 -0.036523566 0.036620218
0.57906377 -0.035604764 0.036608405
0.57934403 -0.034685973 0.036596593
0.57962435 -0.033767175 0.03658478
0.57990462 -0.032848373 0.03657297
0.58103883 -0.032304652 0.036965679
0.5813188 -0.031386893 0.036953881
0.58159876 -0.030469127 0.036942083
0.58273178 -0.029929569 0.037334848
0.58301145 -0.029012835 0.037323061
0.58329111 -0.028096106 0.037311275
0.58357078 -0.027179372 0.037299491
0.56373572 -0.11843124 0.040749129
0.56401283 -0.11752278 0.04073745
0.56428999 -0.11661432 0.040725771
0.56368572 -0.11542182 0.040309701
0.56308204 -0.11422725 0.039893605
0.5633598 -0.11331672 0.0398819
0.56363755 -0.11240619 0.039870195
0.56391531 -0.11149566 0.03985849
0.56331325 -0.11029593 0.039442312
0.56359136 -0.10938437 0.039430592
0.56299019 -0.10818153 0.039014392
0.56238967 -0.10697661 0.038598146
0.56178975 -0.10576964 0.038181894
0.56206882 -0.10485498 0.038170133
0.56234783 -0.10394031 0.038158376
0.56174922 -0.10272921 0.037742052
0.56202853 -0.10181351 0.03773028
0.56230789 -0.10089782 0.037718508
0.56258726 -0.09998212 0.037706736
0.5619902 -0.09876585 0.037290361
0.56226987 -0.097849116 0.037278574
0.5616737 -0.096629731 0.036862146
0.56195366 -0.095711969 0.036850348
0.56223363 -0.094794199 0.036838546
0.56163883 -0.093570694 0.036422066
0.56191909 -0.092651896 0.036410253
0.56132525 -0.091425292 0.035993747
0.56160581 -0.090505458 0.03598192
0.56101292 -0.089275755 0.035565373
0.56129378 -0.088354886 0.035553534
0.5615747 -0.087434024 0.035541695
0.56185561 -0.086513162 0.035529856
0.56213653 -0.0855923 0.03551802
0.56154549 -0.08435639 0.035101391
0.56182677 -0.083434492 0.035089541
0.56210798 -0.082512587 0.035077687
0.56238919 -0.081590697 0.035065837
0.56267041 -0.080668792 0.035053983
0.56295168 -0.079746895 0.035042129
0.5632329 -0.078824997 0.035030279
0.56351411 -0.077903099 0.035018425
0.56379533 -0.076981202 0.035006575
0.5640766 -0.076059304 0.034994721
0.56435782 -0.075137407 0.034982871
0.56463903 -0.074215509 0.034971017
0.56492025 -0.073293611 0.034959167
0.56520152 -0.072371714 0.034947313
0.56548274 -0.071449816 0.034935463
0.56576395 -0.070527919 0.034923609
0.56604517 -0.069606021 0.034911759
0.56632644 -0.068684116 0.034899905
0.56660765 -0.067762218 0.034888055
0.56688887 -0.066840321 0.034876201
0.56717014 -0.065918431 0.034864351
0.56658596 -0.064659767 0.034447417
0.56686747 -0.063736834 0.034435552
0.56714904 -0.062813908 0.034423687
0.56743062 -0.061890975 0.034411818
0.56771213 -0.060968038 0.034399953
0.5679937 -0.060045112 0.034388088
0.56827521 -0.059122175 0.034376223
0.56941998 -0.058543239 0.034769535
0.56970119 -0.057621345 0.034757681
0.56998241 -0.056699447 0.034745827
0.57026362 -0.05577755 0.034733977
0.5705449 -0.054855648 0.034722123
0.57082611 -0.053933751 0.034710273
0.57110733 -0.053011853 0.034698419
0.57138854 -0.052089959 0.034686569
0.57166982 -0.051168062 0.034674715
0.57195103 -0.050246157 0.034662865
0.57223225 -0.049324259 0.034651011
0.57251346 -0.048402365 0.034639161
0.57279474 -0.047480468 0.034627307
0.57393497 -0.046915993 0.035020787
0.57421589 -0.045995127 0.035008952
0.57535523 -0.045433745 0.035402469
0.57563579 -0.044513911 0.035390645
0.57677418 -0.043955632 0.035784207
0.57705444 -0.043036833 0.035772394
0.57733476 -0.042118043 0.035760581
0.57761502 -0.041199241 0.035748769
0.5787518 -0.040646125 0.036142409
0.57903177 -0.039728362 0.036130611
0.57931179 -0.038810596 0.036118813
0.57959175 -0.037892837 0.036107015
0.57987171 -0.036975071 0.036095213
0.58015168 -0.036057308 0.036083415
0.58043164 -0.035139542 0.036071617
0.5807116 -0.034221776 0.036059819
0.58099157 -0.033304017 0.036048017
0.58127153 -0.032386251 0.036036219
0.58155149 -0.031468492 0.036024421
0.58183146 -0.030550724 0.036012623
0.58296424 -0.030011073 0.036406439
0.58324391 -0.029094338 0.036394652
0.58352351 -0.02817761 0.036382865
0.58380318 -0.027260875 0.036371078
0.58408284 -0.026344148 0.036359295
0.56401777 -0.12151516 0.04026952
0.56429458 -0.12060773 0.040257853
0.56457138 -0.1197003 0.040246189
0.56484824 -0.11879288 0.040234521
0.56512505 -0.11788544 0.040222857
0.56452036 -0.11669508 0.039805733
0.56391633 -0.11550268 0.039388631
0.56419373 -0.11459319 0.039376937
0.56447119 -0.11368369 0.039365243
0.56474864 -0.11277419 0.039353549
0.5650261 -0.11186469 0.03934186
0.56442398 -0.11066609 0.038924646
0.56470174 -0.10975555 0.038912941
0.56410056 -0.10855385 0.038495701
0.56349999 -0.10735007 0.038078435
0.56290001 -0.10614421 0.037661128
0.56317872 -0.10523058 0.037649382
0.56345743 -0.10431695 0.037637636
0.56285876 -0.10310697 0.037220292
0.56313777 -0.10219231 0.037208535
0.56341684 -0.10127764 0.037196774
0.56369585 -0.10036298 0.037185013
0.56309873 -0.099147834 0.036767602
0.5633781 -0.098232135 0.03675583
0.56278193 -0.097013891 0.036338381
0.56306159 -0.096097164 0.036326595
0.56334126 -0.09518043 0.036314808
0.56274635 -0.093958035 0.035897288
0.56302631 -0.093040273 0.03588549
0.56330627 -0.09212251 0.035873692
0.56271267 -0.090895988 0.035456132
0.56299293 -0.08997719 0.035444323
0.56327319 -0.089058392 0.03543251
0.56355351 -0.088139601 0.035420697
0.56383377 -0.087220803 0.035408884
0.56324208 -0.085988089 0.034991249
0.56352264 -0.085068256 0.034979422
0.56380326 -0.084148429 0.034967598
0.56408387 -0.083228596 0.03495577
0.56436443 -0.082308762 0.034943946
0.56464505 -0.081388928 0.034932122
0.56492567 -0.080469102 0.034920294
0.56520623 -0.079549268 0.03490847
0.56548685 -0.078629442 0.034896646
0.56576747 -0.077709608 0.034884818
0.56604803 -0.076789774 0.034872994
0.56632864 -0.075869948 0.034861166
0.56660926 -0.074950114 0.034849342
0.56688982 -0.074030288 0.034837518
0.56717044 -0.073110454 0.03482569
0.56745106 -0.07219062 0.034813866
0.56773168 -0.071270794 0.034802038
0.56801224 -0.07035096 0.034790214
0.56829286 -0.069431134 0.03477839
0.56857347 -0.0685113 0.034766562
0.56885403 -0.067591473 0.034754738
0.56913465 -0.06667164 0.03474291
0.56855017 -0.065415144 0.03432497
0.56883109 -0.064494282 0.034313131
0.569112 -0.06357342 0.034301292
0.56939292 -0.062652558 0.034289453
0.56967384 -0.061731696 0.034277614
0.56995475 -0.060810834 0.034265775
0.57023567 -0.059889968 0.034253936
0.57137942 -0.059312992 0.034648307
0.57166004 -0.058393162 0.034636483
0.57194066 -0.057473328 0.034624659
0.57222122 -0.056553498 0.034612831
0.57250184 -0.055633664 0.034601007
0.57278246 -0.054713834 0.034589179
0.57306302 -0.053794 0.034577355
0.57334363 -0.05287417 0.034565531
0.57362425 -0.05195434 0.034553703
0.57390481 -0.051034514 0.034541879
0.57418543 -0.050114684 0.034530055
0.57446605 -0.04919485 0.034518227
0.57474667 -0.04827502 0.034506403
0.57588601 -0.047712509 0.03490096
0.57616627 -0.04679371 0.034889147
0.57730472 -0.046234306 0.035283744
0.57758468 -0.04531654 0.035271946
0.57872224 -0.044760261 0.0356666
0.57900184 -0.043843526 0.035654813
0.57842457 -0.042563252 0.035236549
0.57870454 -0.041645486 0.035224751
0.57984084 -0.041093338 0.035619456
0.5801205 -0.040176611 0.03560767
0.58040011 -0.039259877 0.035595883
0.58067977 -0.03834315 0.0355841
0.58095944 -0.037426416 0.035572313
0.5812391 -0.036509689 0.035560526
0.58151877 -0.035592955 0.035548743
0.58179843 -0.034676228 0.035536956
0.58207804 -0.033759493 0.035525169
0.58150423 -0.032467846 0.03510676
0.58178425 -0.031550087 0.035094962
0.58206421 -0.030632319 0.035083164
0.5831967 -0.030092577 0.035478029
0.58347631 -0.029175842 0.035466243
0.58375597 -0.028259113 0.035454456
0.58403563 -0.027342379 0.035442669
0.5843153 -0.026425652 0.035430886
0.58459496 -0.025508918 0.035419099
0.56430113 -0.12459268 0.039791886
0.56457764 -0.12368628 0.039780233
0.56485415 -0.12277988 0.03976858
0.56513065 -0.12187349 0.039756928
0.56452465 -0.12068841 0.039338853
0.56480151 -0.11978098 0.039327186
0.56507832 -0.11887355 0.039315522
0.56535512 -0.11796612 0.039303854
0.56475067 -0.11677586 0.038885698
0.56502783 -0.11586739 0.038874015
0.56530493 -0.11495893 0.038862336
0.5655821 -0.11405047 0.038850658
0.5658592 -0.11314201 0.038838979
0.56613636 -0.11223354 0.0388273
0.56553417 -0.11103606 0.038409077
0.56581157 -0.11012656 0.038397387
0.56521034 -0.10892598 0.037979111
0.56460977 -0.10772333 0.037560809
0.56400979 -0.10651861 0.037142482
0.5642882 -0.10560601 0.037130747
0.56456655 -0.10469342 0.037119016
0.56396776 -0.10348455 0.036700632
0.56424648 -0.10257092 0.036688887
0.56452519 -0.10165729 0.036677141
0.5648039 -0.10074366 0.036665395
0.56420678 -0.099529639 0.036246948
0.56448579 -0.098614976 0.036235187
0.5647648 -0.097700305 0.03622343
0.56504387 -0.09678565 0.036211669
0.5644483 -0.095566459 0.035793155
0.5647276 -0.09465076 0.035781384
0.56500697 -0.093735062 0.035769612
0.56441265 -0.092511743 0.035351042
0.56469232 -0.091595009 0.035339255
0.56497198 -0.090678282 0.035327472
0.56437886 -0.089450814 0.034908835
0.56465882 -0.088533051 0.034897037
0.56493884 -0.087615281 0.034885239
0.56521881 -0.086697519 0.034873437
0.56549877 -0.085779756 0.034861639
0.56577873 -0.084861994 0.034849841
0.5660587 -0.083944231 0.034838043
0.56633866 -0.083026461 0.034826241
0.56661862 -0.082108699 0.034814443
0.56689858 -0.081190936 0.034802645
0.56717855 -0.080273174 0.034790847
0.56745851 -0.079355411 0.034779046
0.56773853 -0.078437641 0.034767248
0.5680185 -0.077519879 0.03475545
0.56829846 -0.076602116 0.034743652
0.56857842 -0.075684354 0.03473185
0.56885839 -0.074766591 0.034720052
0.56913835 -0.073848821 0.034708254
0.56941831 -0.072931059 0.034696452
0.56969827 -0.072013296 0.034684654
0.56997824 -0.071095534 0.034672856
0.5702582 -0.070177771 0.034661058
0.57053822 -0.069260001 0.034649257
0.57081819 -0.068342239 0.034637459
0.57109815 -0.067424476 0.034625661
0.57051331 -0.066170149 0.034206696
0.57079357 -0.06525135 0.034194883
0.57107389 -0.06433256 0.03418307
0.57135415 -0.063413754 0.034171257
0.57163441 -0.062494956 0.034159444
0.57191473 -0.061576158 0.034147631
0.57219499 -0.060657367 0.034135822
0.57333791 -0.060082361 0.034531269
0.57361788 -0.059164595 0.034519471
0.57389784 -0.058246836 0.03450767
0.5741778 -0.05732907 0.034495872
0.57445776 -0.056411307 0.034484074
0.57473773 -0.055493541 0.034472276
0.57501769 -0.054575775 0.034460474
0.57529765 -0.053658016 0.034448676
0.57557762 -0.05274025 0.034436878
0.57585764 -0.051822487 0.03442508
0.5761376 -0.050904721 0.034413278
0.57641757 -0.049986955 0.03440148
0.57669753 -0.049069196 0.034389682
0.57783604 -0.048508681 0.03478533
0.5781157 -0.047591954 0.034773547
0.57925326 -0.047034524 0.035169218
0.57953256 -0.046118829 0.035157446
0.57981193 -0.045203127 0.035145674
0.58009124 -0.044287432 0.035133902
0.57951397 -0.043008305 0.034714617
0.57979363 -0.042091571 0.03470283
0.58092928 -0.04154034 0.035098586
0.58120859 -0.040624645 0.035086814
0.58148795 -0.03970895 0.035075042
0.58176726 -0.038793247 0.035063267
0.58204663 -0.037877552 0.035051495
0.58232594 -0.036961857 0.035039723
0.5826053 -0.036046162 0.035027951
0.58288461 -0.03513046 0.035016179
0.5823105 -0.033840995 0.03459676
0.58259016 -0.032924268 0.034584977
0.58286983 -0.032007542 0.03457319
0.58314949 -0.031090807 0.034561403
0.5834291 -0.03017408 0.03454962
0.58370876 -0.029257346 0.034537833
0.58398843 -0.028340619 0.034526046
0.58426809 -0.027423883 0.03451426
0.58454776 -0.026507156 0.034502476
0.58482736 -0.025590422 0.03449069
0.56453097 -0.12467326 0.038873948
0.56480747 -0.12376686 0.038862295
0.56508398 -0.12286047 0.038850643
0.56536049 -0.12195408 0.03883899
0.56475478 -0.12076908 0.038419865
0.56503159 -0.11986165 0.038408197
0.56530839 -0.11895423 0.038396534
0.5655852 -0.1180468 0.038384866
0.565862 -0.11713937 0.038373202
0.56613886 -0.11623194 0.038361534
0.56641567 -0.11532451 0.038349871
0.56669247 -0.11441708 0.038338203
0.56696928 -0.11350965 0.038326535
0.56724608 -0.11260223 0.038314871
0.56664383 -0.11140585 0.037895583
0.56692094 -0.11049739 0.037883904
0.56631964 -0.10929793 0.037464608
0.56571901 -0.1080964 0.037045281
0.56511897 -0.10689281 0.036625914
0.56539702 -0.10598125 0.036614198
0.56567514 -0.10506968 0.036602478
0.56507635 -0.10386196 0.036183059
0.56535476 -0.10294936 0.036171328
0.56563312 -0.10203677 0.036159594
0.56591153 -0.10112417 0.036147863
0.56531429 -0.099911258 0.035728376
0.565593 -0.09899763 0.035716631
0.56587172 -0.098083995 0.035704885
0.56615043 -0.097170368 0.035693139
0.56642914 -0.096256733 0.035681393
0.56670785 -0.095343105 0.035669647
0.56611282 -0.094122976 0.035250068
0.56639189 -0.09320832 0.035238311
0.56579781 -0.091985084 0.03481869
0.56607717 -0.091069385 0.034806918
0.56635648 -0.090153687 0.034795146
0.56663585 -0.089237995 0.034783375
0.56691515 -0.088322297 0.034771603
0.56719452 -0.087406598 0.034759831
0.56747383 -0.086490907 0.034748059
0.5677532 -0.085575208 0.034736287
0.56803256 -0.084659509 0.034724511
0.56831187 -0.083743811 0.034712739
0.56859124 -0.082828119 0.034700967
0.56887054 -0.081912421 0.034689195
0.56914991 -0.080996722 0.034677424
0.56942922 -0.080081023 0.034665652
0.56970859 -0.079165325 0.03465388
0.56998789 -0.078249633 0.034642108
0.57026726 -0.077333935 0.034630332
0.57054657 -0.076418236 0.03461856
0.57082593 -0.075502537 0.034606788
0.57110524 -0.074586838 0.034595016
0.57138461 -0.073671147 0.034583244
0.57166392 -0.072755449 0.034571473
0.57194328 -0.071839757 0.034559701
0.57222259 -0.070924059 0.034547929
0.57250196 -0.07000836 0.034536153
0.57278126 -0.069092661 0.034524381
0.57306063 -0.06817697 0.034512609
0.57247543 -0.066924796 0.034092635
0.5727551 -0.066008061 0.034080848
0.5730347 -0.065091334 0.034069065
0.57331437 -0.0641746 0.034057278
0.57359403 -0.063257873 0.034045491
0.5738737 -0.062341146 0.034033708
0.57415336 -0.061424419 0.034021921
0.57529533 -0.060851388 0.03441843
0.5755747 -0.059935693 0.034406658
0.575854 -0.059019998 0.034394886
0.57613337 -0.058104295 0.034383114
0.57641268 -0.0571886 0.034371343
0.57669204 -0.056272905 0.034359571
0.57697135 -0.05535721 0.034347799
0.57725072 -0.054441508 0.034336023
0.57753003 -0.053525813 0.034324251
0.57780939 -0.052610118 0.034312479
0.5780887 -0.051694416 0.034300707
0.57836807 -0.050778724 0.034288935
0.57864738 -0.049863029 0.034277163
0.57978499 -0.04930447 0.034673873
0.580064 -0.048389807 0.034662116
0.58034301 -0.047475141 0.034650356
0.58062208 -0.046560477 0.034638595
0.58090109 -0.045645814 0.034626838
0.5811801 -0.044731151 0.034615077
0.58145911 -0.043816488 0.03460332
0.58088213 -0.042537455 0.034182984
0.58201718 -0.041987166 0.034579802
0.58229619 -0.041072503 0.034568042
0.5825752 -0.040157832 0.034556285
0.58285421 -0.039243169 0.034544524
0.58313328 -0.038328506 0.034532763
0.58341229 -0.037413847 0.034521006
0.58283746 -0.036127575 0.034100577
0.58311683 -0.035211876 0.034088805
0.58254296 -0.033922501 0.03366835
0.58282262 -0.033005774 0.033656567
0.58310229 -0.032089047 0.033644781
0.58338189 -0.031172311 0.033632994
0.58366156 -0.030255584 0.033621207
0.58394122 -0.02933885 0.033609424
0.58422089 -0.028422123 0.033597637
0.58450055 -0.027505388 0.03358585
0.58478016 -0.02658866 0.033574067
0.58505982 -0.025671925 0.03356228
0.56420779 -0.12656663 0.03797932
0.5644843 -0.12566024 0.037967667
0.5647608 -0.12475384 0.037956014
0.56503731 -0.12384745 0.037944362
0.56531376 -0.12294105 0.037932709
0.56559026 -0.12203466 0.037921056
0.56586677 -0.12112826 0.037909403
0.56614327 -0.12022187 0.037897751
0.56553847 -0.1190349 0.037477545
0.56581527 -0.11812747 0.037465882
0.56609213 -0.11722004 0.037454214
0.56636894 -0.11631262 0.037442546
0.56664574 -0.11540519 0.037430882
0.56692255 -0.11449776 0.037419215
0.56807882 -0.1138771 0.037816178
0.56835532 -0.1129707 0.037804525
0.56775302 -0.11177547 0.037384219
0.56802982 -0.11086804 0.037372552
0.56742841 -0.10966969 0.036952186
0.56682771 -0.10846929 0.03653184
0.56622761 -0.10726683 0.036111437
0.56650537 -0.1063563 0.036099732
0.56678313 -0.10544576 0.036088027
0.56618434 -0.10423917 0.035667583
0.5664624 -0.1033276 0.035655867
0.56674051 -0.10241604 0.035644148
0.56701857 -0.10150447 0.035632428
0.56729662 -0.10059292 0.035620708
0.56757474 -0.099681348 0.035608988
0.5678528 -0.098769791 0.035597268
0.56813085 -0.097858228 0.035585552
0.56840897 -0.096946664 0.035573833
0.56868702 -0.096035101 0.035562113
0.56809169 -0.094817132 0.035141509
0.56837004 -0.093904532 0.035129778
0.56777561 -0.092683442 0.034709137
0.56805432 -0.091769814 0.034697391
0.56833303 -0.090856187 0.034685645
0.56861174 -0.089942552 0.034673899
0.56889045 -0.089028925 0.034662154
0.56916916 -0.08811529 0.034650408
0.56944788 -0.087201662 0.034638662
0.56972659 -0.086288035 0.034626916
0.5700053 -0.0853744 0.03461517
0.57028395 -0.08446078 0.034603424
0.57056266 -0.083547145 0.034591679
0.57084137 -0.082633518 0.034579933
0.57112008 -0.08171989 0.034568187
0.57139879 -0.080806255 0.034556441
0.57167751 -0.079892628 0.034544695
0.57195622 -0.078979 0.034532949
0.57223493 -0.078065366 0.034521203
0.57251364 -0.077151738 0.034509458
0.57279235 -0.076238111 0.034497712
0.57307106 -0.075324476 0.034485966
0.57334977 -0.074410848 0.03447422
0.57362849 -0.073497221 0.034462474
0.5739072 -0.072583586 0.034450728
0.57418591 -0.071669959 0.034438983
0.57446462 -0.070756331 0.034427237
0.57474333 -0.069842696 0.034415491
0.57502204 -0.068929069 0.034403745
0.57443643 -0.067679062 0.033982746
0.57471544 -0.066764399 0.033970986
0.5749945 -0.065849736 0.033959229
0.57527351 -0.064935073 0.033947468
0.57555252 -0.064020403 0.033935711
0.57583153 -0.06310574 0.03392395
0.5761106 -0.06219108 0.033912193
0.57725167 -0.061620034 0.034309778
0.57753038 -0.060706403 0.034298033
0.5778091 -0.059792776 0.034286287
0.57808781 -0.058879144 0.034274541
0.57836652 -0.057965513 0.034262795
0.57864523 -0.057051886 0.034251049
0.57892394 -0.056138255 0.034239303
0.57920265 -0.055224624 0.034227557
0.57948136 -0.054310996 0.034215812
0.57976007 -0.053397365 0.034204066
0.58003879 -0.052483734 0.03419232
0.58031744 -0.051570106 0.034180574
0.58059615 -0.050656475 0.034168828
0.58173293 -0.050099909 0.034566619
0.58201134 -0.04918731 0.034554884
0.5822897 -0.048274714 0.034543153
0.58256811 -0.047362123 0.034531422
0.58198971 -0.046088327 0.034110099
0.58226842 -0.045174696 0.034098353
0.58254713 -0.044261064 0.034086607
0.58197004 -0.042983148 0.033665251
0.58310455 -0.042433806 0.034063116
0.58338326 -0.041520175 0.03405137
0.58366197 -0.040606543 0.034039624
0.58394068 -0.039692916 0.034027878
0.5842194 -0.038779285 0.034016136
0.58364421 -0.037495166 0.033594698
0.58392322 -0.036580503 0.033582937
0.58334899 -0.035293285 0.033161446
0.58362836 -0.03437759 0.033149675
0.58390766 -0.033461895 0.033137903
0.58418703 -0.032546196 0.033126127
0.58361435 -0.031253815 0.032704584
0.58389401 -0.030337088 0.032692797
0.58417368 -0.029420353 0.032681014
0.58445334 -0.028503627 0.032669228
0.58473295 -0.027586892 0.032657441
0.58501261 -0.026670163 0.032645658
0.58529228 -0.025753429 0.032633871
0.56300038 -0.12818986 0.036675218
0.56416112 -0.12755361 0.03707302
0.56443763 -0.12664722 0.037061367
0.56471413 -0.12574083 0.037049714
0.56499058 -0.12483443 0.037038062
0.56526709 -0.12392803 0.037026409
0.56554359 -0.12302164 0.037014756
0.5658201 -0.12211525 0.037003104
0.5660966 -0.12120885 0.036991451
0.56637311 -0.12030245 0.036979798
0.56664962 -0.11939606 0.036968146
0.56692612 -0.11848966 0.036956493
0.56720263 -0.11758327 0.03694484
0.56747913 -0.11667687 0.036933187
0.56775564 -0.11577047 0.036921535
0.56891161 -0.11514973 0.037319534
0.56918776 -0.11424436 0.037307896
0.56946397 -0.11333901 0.037296254
0.5688616 -0.11214489 0.036874924
0.56913811 -0.1112385 0.036863271
0.5685367 -0.11004129 0.0364419
0.56793588 -0.108842 0.036020484
0.56821305 -0.10793354 0.036008805
0.56849015 -0.10702508 0.035997126
0.56789064 -0.10582167 0.035575677
0.5681681 -0.10491217 0.035563983
0.56844556 -0.10400268 0.035552289
0.56872302 -0.10309318 0.035540596
0.56900042 -0.10218368 0.035528906
0.56927788 -0.10127418 0.035517212
0.56955534 -0.10036469 0.035505518
0.56895834 -0.099153012 0.035083961
0.57011026 -0.0985457 0.035482135
0.57038766 -0.097636208 0.035470441
0.57066512 -0.096726708 0.035458747
0.57006943 -0.095510893 0.035037138
0.57034719 -0.094600365 0.035025433
0.5697524 -0.093381457 0.034603767
0.57003045 -0.092469893 0.034592047
0.57030857 -0.091558337 0.034580328
0.57058662 -0.090646766 0.034568608
0.57086468 -0.08973521 0.034556892
0.57114279 -0.088823646 0.034545172
0.57142085 -0.087912083 0.034533452
0.57169896 -0.087000519 0.034521732
0.57197702 -0.086088955 0.034510013
0.57225507 -0.085177392 0.034498293
0.57253319 -0.084265828 0.034486573
0.57281125 -0.083354264 0.034474857
0.5730893 -0.082442708 0.034463137
0.57336742 -0.081531145 0.034451418
0.57364547 -0.080619581 0.034439698
0.57392359 -0.079708017 0.034427978
0.57420164 -0.078796454 0.034416258
0.5744797 -0.07788489 0.034404539
0.57475781 -0.076973327 0.034392823
0.57503587 -0.07606177 0.034381103
0.57531393 -0.075150199 0.034369383
0.57559204 -0.074238643 0.034357663
0.5758701 -0.073327072 0.034345943
0.57614815 -0.072415516 0.034334224
0.57642627 -0.071503945 0.034322504
0.57670432 -0.070592389 0.034310788
0.57698244 -0.069680825 0.034299068
0.57639647 -0.068432972 0.033877045
0.57667488 -0.06752038 0.033865314
0.57695323 -0.066607781 0.033853579
0.57723165 -0.065695181 0.033841848
0.57751006 -0.064782582 0.033830114
0.57778841 -0.06386999 0.033818383
0.57806683 -0.062957399 0.033806648
0.579207 -0.06238832 0.034205314
0.57948512 -0.061476752 0.034193594
0.57976317 -0.060565196 0.034181874
0.58004129 -0.059653629 0.034170154
0.58031934 -0.058742065 0.034158438
0.5805974 -0.057830505 0.034146719
0.58087552 -0.056918941 0.034134999
0.58115357 -0.056007378 0.034123279
0.58143163 -0.055095818 0.034111559
0.58170974 -0.054184254 0.03409984
0.5819878 -0.053272687 0.03408812
0.58226585 -0.052361131 0.034076404
0.58254397 -0.051449567 0.034064684
0.58367974 -0.050894968 0.034463547
0.58395749 -0.049984436 0.034451842
0.58423525 -0.049073901 0.034440134
0.58365625 -0.047803313 0.034017805
0.58393437 -0.046891753 0.034006085
0.58335626 -0.045618065 0.03358373
0.58363467 -0.044705465 0.033572
0.58305752 -0.043428663 0.033149589
0.58419144 -0.042880271 0.033548534
0.58446985 -0.041967683 0.033536803
0.58474827 -0.041055083 0.033525068
0.58417231 -0.039774142 0.033102605
0.58445102 -0.038860515 0.03309086
0.58387613 -0.037576485 0.032668374
0.58415514 -0.036661822 0.032656614
0.58443415 -0.035747159 0.032644857
0.58471322 -0.0348325 0.032633096
0.58499223 -0.033917829 0.032621335
0.58441919 -0.032627605 0.032198768
0.58469856 -0.03171191 0.032186996
0.58497787 -0.030796217 0.032175224
0.58525723 -0.029880522 0.032163452
0.58553654 -0.028964819 0.03215168
0.58581591 -0.028049124 0.032139909
0.58609521 -0.027133429 0.032128137
0.58637458 -0.026217729 0.032116361
0.56411445 -0.12854059 0.036166735
0.56439096 -0.1276342 0.036155082
0.5646674 -0.1267278 0.03614343
0.56494391 -0.12582141 0.036131777
0.56522042 -0.12491501 0.036120124
0.56549692 -0.12400862 0.036108471
0.56577343 -0.12310223 0.036096819
0.56604993 -0.12219582 0.036085166
0.56720787 -0.12156776 0.036484107
0.56748402 -0.12066239 0.03647247
0.56776023 -0.11975703 0.036460832
0.56803644 -0.11885167 0.03644919
0.56831259 -0.1179463 0.036437552
0.56858879 -0.11704095 0.036425911
0.568865 -0.11613558 0.036414273
0.57002038 -0.11551578 0.036813334
0.57029623 -0.11461145 0.036801707
0.57057214 -0.11370712 0.036790084
0.56996971 -0.11251414 0.036367714
0.57024592 -0.11160877 0.036356073
0.57052207 -0.11070342 0.036344435
0.56992096 -0.10950629 0.035922028
0.57019746 -0.1085999 0.035910375
0.57047397 -0.1076935 0.035898723
0.56987405 -0.10649226 0.035476249
0.57015091 -0.10558482 0.035464581
0.57042772 -0.10467739 0.035452913
0.57070452 -0.10376997 0.03544125
0.57098132 -0.10286254 0.035429582
0.57125819 -0.10195511 0.035417918
0.57153499 -0.10104768 0.035406251
0.57093757 -0.099838145 0.034983654
0.5720886 -0.099232823 0.035382919
0.5723654 -0.098325394 0.035371251
0.57264227 -0.097417966 0.035359588
0.5720461 -0.096204296 0.034936938
0.5723232 -0.095295839 0.034925256
0.57172811 -0.094079085 0.034502584
0.57200551 -0.093169585 0.034490891
0.57228297 -0.092260092 0.034479197
0.57256043 -0.0913506 0.034467507
0.57283789 -0.0904411 0.034455813
0.57311529 -0.0895316 0.03444412
0.57339275 -0.088622108 0.034432426
0.57367021 -0.087712616 0.034420736
0.57394767 -0.086803116 0.034409042
0.57422513 -0.085893624 0.034397349
0.57450253 -0.084984124 0.034385659
0.57477999 -0.084074631 0.034373965
0.57505745 -0.083165132 0.034362271
0.57533491 -0.082255639 0.034350578
0.57561237 -0.081346147 0.034338888
0.57588977 -0.080436647 0.034327194
0.57616723 -0.079527147 0.0343155
0.57644469 -0.078617655 0.03430381
0.57672215 -0.077708162 0.034292117
0.57699955 -0.076798663 0.034280423
0.577277 -0.07588917 0.034268729
0.57755446 -0.07497967 0.034257039
0.57783192 -0.074070178 0.034245346
0.57810938 -0.073160686 0.034233652
0.57838678 -0.072251186 0.034221958
0.57866424 -0.071341693 0.034210268
0.5789417 -0.070432194 0.034198575
0.57835537 -0.069186494 0.033775527
0.57863313 -0.068275973 0.033763822
0.57891089 -0.067365438 0.033752117
0.57918864 -0.06645491 0.033740412
0.57946646 -0.065544382 0.033728704
0.57974422 -0.064633854 0.033716999
0.58002198 -0.063723326 0.033705294
0.58116126 -0.063156225 0.034105033
0.58143872 -0.062246729 0.034093343
0.58171618 -0.061337236 0.034081649
0.58199364 -0.060427736 0.034069955
0.58227104 -0.059518244 0.034058262
0.5825485 -0.058608752 0.034046572
0.58282596 -0.057699252 0.034034878
0.58310342 -0.056789756 0.034023184
0.58338088 -0.055880256 0.034011491
0.58365828 -0.054970764 0.033999801
0.58393574 -0.054061271 0.033988107
0.5842132 -0.053151771 0.033976413
0.58449066 -0.052242279 0.033964723
0.58476806 -0.051332783 0.03395303
0.58504552 -0.050423283 0.033941336
0.58532298 -0.049513791 0.033929642
0.58560044 -0.048604298 0.033917952
0.58502167 -0.047333799 0.033494588
0.58529943 -0.046423271 0.033482879
0.58472162 -0.045149669 0.033059474
0.58414447 -0.043874007 0.032636043
0.5852778 -0.043326546 0.033036038
0.58555585 -0.042414978 0.033024319
0.58583397 -0.041503415 0.033012599
0.58525801 -0.040223621 0.032589115
0.5846827 -0.038941741 0.032165587
0.58496141 -0.038028114 0.032153841
0.58524013 -0.037114482 0.032142095
0.58551884 -0.036200851 0.032130349
0.58494508 -0.034913819 0.031706788
0.58522415 -0.033999149 0.031695027
0.58465135 -0.032709017 0.031271409
0.58493072 -0.031793322 0.031259637
0.58521003 -0.030877627 0.031247865
0.58548939 -0.029961932 0.031236093
0.58576876 -0.029046232 0.03122432
0.58604807 -0.028130537 0.031212548
0.58632743 -0.027214842 0.031200776
0.58660674 -0.026299139 0.031189004
0.56406778 -0.12952758 0.035260439
0.56434423 -0.12862118 0.035248786
0.56462073 -0.12771478 0.035237134
0.56489724 -0.12680839 0.035225481
0.56517375 -0.125902 0.035213828
0.56545025 -0.1249956 0.035202175
0.56660885 -0.12436433 0.035602126
0.56688505 -0.12345897 0.035590488
0.56716126 -0.12255361 0.035578847
0.56743741 -0.12164824 0.035567209
0.56859446 -0.12102214 0.035967242
0.56887031 -0.12011781 0.035955615
0.56914622 -0.11921349 0.035943989
0.56942207 -0.11830916 0.035932362
0.56969792 -0.11740483 0.035920735
0.56997383 -0.1165005 0.035909109
0.57112867 -0.11588165 0.036309253
0.57140422 -0.11497836 0.036297638
0.57167977 -0.11407506 0.036286026
0.57107729 -0.1128832 0.035862606
0.57135314 -0.11197887 0.035850979
0.57162905 -0.11107454 0.035839353
0.5719049 -0.11017021 0.035827726
0.57218075 -0.10926588 0.035816099
0.57158023 -0.10806782 0.035392616
0.57185638 -0.10716246 0.035380974
0.57213259 -0.1062571 0.035369337
0.57153326 -0.10505491 0.034945812
0.57180977 -0.10414851 0.034934159
0.57208627 -0.10324211 0.034922507
0.57236278 -0.10233572 0.034910854
0.57263929 -0.10142932 0.034899201
0.57291579 -0.10052293 0.034887549
0.57406586 -0.099919565 0.035287861
0.57434207 -0.0990142 0.035276219
0.57461822 -0.098108843 0.035264581
0.57402182 -0.096897349 0.034840938
0.57429826 -0.095990956 0.034829285
0.57370275 -0.094776362 0.034405585
0.57397962 -0.093868934 0.034393921
0.57425642 -0.092961505 0.034382254
0.57453322 -0.092054076 0.03437059
0.57481003 -0.091146648 0.034358922
0.57508683 -0.090239212 0.034347255
0.5753637 -0.089331783 0.034335591
0.5756405 -0.088424355 0.034323923
0.5759173 -0.087516926 0.034312259
0.57619411 -0.086609498 0.034300592
0.57647091 -0.085702069 0.034288928
0.57674778 -0.084794641 0.03427726
0.57702458 -0.083887219 0.034265593
0.57730138 -0.082979783 0.034253929
0.57757819 -0.082072355 0.034242261
0.57785505 -0.081164926 0.034230597
0.57813185 -0.080257498 0.03421893
0.57840866 -0.079350069 0.034207262
0.57868546 -0.078442641 0.034195598
0.57896227 -0.077535212 0.034183931
0.57923913 -0.076627783 0.034172267
0.57951593 -0.075720355 0.034160599
0.57979274 -0.074812926 0.034148935
0.58006954 -0.073905498 0.034137268
0.58034635 -0.072998069 0.0341256
0.58062321 -0.072090641 0.034113936
0.58090001 -0.071183212 0.034102269
0.58031327 -0.069939658 0.0336782
0.58059037 -0.069031201 0.033666518
0.58086753 -0.068122737 0.033654839
0.58114463 -0.067214273 0.03364316
0.58142179 -0.066305809 0.033631481
0.58169889 -0.065397345 0.033619802
0.58197606 -0.064488888 0.033608124
0.5831145 -0.063923776 0.034008939
0.58339137 -0.063016348 0.033997275
0.58366817 -0.062108923 0.033985607
0.58394498 -0.061201494 0.033973943
0.58422178 -0.060294058 0.033962276
0.58449864 -0.05938663 0.033950612
0.58477545 -0.058479201 0.033938944
0.58505225 -0.057571772 0.033927277
0.58532906 -0.056664348 0.033915613
0.58560586 -0.055756919 0.033903945
0.58588272 -0.054849491 0.033892281
0.58615953 -0.053942062 0.033880614
0.58643633 -0.053034633 0.033868946
0.58671314 -0.052127205 0.033857282
0.586133 -0.050861955 0.033432931
0.58641016 -0.049953487 0.033421252
0.58668727 -0.049045026 0.033409573
0.58610851 -0.04777566 0.032985173
0.58638591 -0.046866167 0.032973479
0.5858081 -0.04559369 0.03254905
0.58523083 -0.044319153 0.032124583
0.58550894 -0.043407589 0.032112863
0.585787 -0.042496026 0.032101143
0.58606505 -0.041584458 0.032089423
0.58548945 -0.040304758 0.031664889
0.58576781 -0.039392162 0.031653158
0.58604622 -0.038479563 0.031641424
0.58632463 -0.037566975 0.031629693
0.58575046 -0.036282081 0.031205077
0.585177 -0.034995139 0.030780477
0.58545607 -0.034080468 0.030768719
0.58488357 -0.03279043 0.03034405
0.58516288 -0.031874735 0.030332278
0.58544225 -0.03095904 0.030320507
0.58572155 -0.030043345 0.030308733
0.58600092 -0.029127643 0.030296961
0.58628023 -0.028211948 0.030285189
0.58655959 -0.027296253 0.030273417
0.5868389 -0.026380552 0.030261643
0.56429756 -0.12960817 0.034342486
0.56457406 -0.12870176 0.034330834
0.56485057 -0.12779537 0.034319181
0.56512707 -0.12688898 0.034307528
0.56540358 -0.12598258 0.034295876
0.56568009 -0.12507619 0.034284223
0.56683844 -0.12444483 0.034685239
0.56799614 -0.12381553 0.03508627
0.56827199 -0.1229112 0.035074644
0.5685479 -0.12200688 0.035063017
0.56970435 -0.12138173 0.03546413
0.56997991 -0.12047844 0.035452515
0.57025552 -0.11957514 0.035440903
0.57053107 -0.11867185 0.035429291
0.57080662 -0.11776856 0.035417676
0.57108217 -0.11686526 0.035406064
0.57223642 -0.11624733 0.035807241
0.57251161 -0.11534508 0.03579564
0.57278687 -0.11444281 0.03578404
0.57218438 -0.11325208 0.035359614
0.57245994 -0.11234879 0.035347998
0.57273549 -0.11144549 0.035336386
0.57301104 -0.11054219 0.035324775
0.57328659 -0.1096389 0.035313159
0.57356215 -0.10873561 0.035301547
0.5738377 -0.10783231 0.035289936
0.57411325 -0.10692902 0.03527832
0.57351357 -0.10572897 0.034853745
0.57378942 -0.10482464 0.034842119
0.57406527 -0.10392031 0.034830492
0.57434118 -0.10301598 0.034818865
0.57461703 -0.10211166 0.034807239
0.57489288 -0.10120732 0.034795612
0.57604218 -0.10060596 0.035197031
0.57631773 -0.099702656 0.035185419
0.57659328 -0.098799363 0.035173807
0.5759964 -0.097590014 0.034749109
0.57627225 -0.096685685 0.034737483
0.57567638 -0.095473252 0.034312777
0.57595253 -0.094567887 0.034301136
0.57622874 -0.093662523 0.034289498
0.57650495 -0.092757165 0.034277856
0.57678109 -0.091851801 0.034266219
0.5770573 -0.090946436 0.034254577
0.57733351 -0.090041079 0.034242939
0.57760966 -0.089135714 0.034231298
0.57788587 -0.088230357 0.03421966
0.57816201 -0.087324992 0.034208022
0.57843822 -0.086419635 0.034196381
0.57871443 -0.08551427 0.034184743
0.57899058 -0.084608912 0.034173101
0.57926679 -0.083703548 0.034161463
0.57954299 -0.082798183 0.034149822
0.57981914 -0.081892826 0.034138184
0.58009535 -0.080987461 0.034126543
0.5803715 -0.080082096 0.034114905
0.58064771 -0.079176739 0.034103263
0.58092391 -0.078271374 0.034091625
0.58120006 -0.077366017 0.034079988
0.58147627 -0.076460652 0.034068346
0.58175248 -0.075555295 0.034056708
0.58202863 -0.07464993 0.034045067
0.58230484 -0.073744573 0.034033429
0.58258098 -0.072839208 0.034021787
0.58285719 -0.071933843 0.03401015
0.5831334 -0.071028478 0.033998508
0.58340955 -0.070123121 0.03398687
0.58282316 -0.068879686 0.033561751
0.58309966 -0.067973293 0.033550099
0.58337617 -0.067066893 0.033538446
0.58365268 -0.0661605 0.033526793
0.58392912 -0.0652541 0.03351514
0.58506668 -0.064690948 0.033917032
0.58534288 -0.063785583 0.033905394
0.58561903 -0.062880233 0.033893753
0.58589524 -0.061974868 0.033882115
0.58617145 -0.061069503 0.033870474
0.5864476 -0.060164139 0.033858836
0.5867238 -0.059258785 0.033847198
0.58699995 -0.05835342 0.033835556
0.58727616 -0.057448056 0.033823919
0.58755237 -0.056542695 0.033812277
0.58782852 -0.055637337 0.033800639
0.58724713 -0.054377358 0.033375304
0.58752364 -0.053470965 0.033363651
0.58780015 -0.052564569 0.033351999
0.58807665 -0.051658172 0.033340346
0.58749688 -0.050393026 0.032914963
0.58777368 -0.049485598 0.032903295
0.58719474 -0.048217334 0.032477856
0.5874719 -0.047308873 0.032466177
0.58689398 -0.046037525 0.032040711
0.5863167 -0.04476412 0.031615209
0.58659446 -0.043853588 0.0316035
0.58687222 -0.04294306 0.031591795
0.5862962 -0.041665502 0.031166252
0.58657432 -0.040753946 0.031154532
0.58685237 -0.039842378 0.031142814
0.5862776 -0.0385607 0.030717202
0.58655602 -0.037648112 0.030705471
0.58598214 -0.036363307 0.030279817
0.58540893 -0.035076458 0.029854154
0.58568799 -0.034161787 0.029842395
0.58511573 -0.032871842 0.029416692
0.5853951 -0.031956147 0.02940492
0.58567441 -0.031040452 0.029393146
0.58595377 -0.030124757 0.029381374
0.58623308 -0.029209055 0.029369602
0.58651245 -0.02829336 0.02935783
0.58679175 -0.027377665 0.029346056
0.56452739 -0.12968874 0.033424549
0.5648039 -0.12878235 0.033412896
0.5650804 -0.12787595 0.033401243
0.56535691 -0.12696956 0.033389591
0.56651562 -0.12633604 0.033791617
0.56679177 -0.12543067 0.033779979
0.56794959 -0.12480026 0.034182046
0.56822544 -0.12389594 0.034170419
0.56850129 -0.12299161 0.034158792
0.56965786 -0.12236533 0.034560941
0.56993341 -0.12146204 0.034549329
0.57108897 -0.12083886 0.034951486
0.57136422 -0.11993659 0.034939889
0.57163948 -0.11903434 0.034928288
0.57191467 -0.11813207 0.034916688
0.57218993 -0.11722981 0.034905087
0.57334358 -0.11661283 0.035307329
0.57361853 -0.1157116 0.03529574
0.57389343 -0.11481038 0.035284154
0.57329088 -0.11362077 0.034858689
0.57356614 -0.11271851 0.034847092
0.57384139 -0.11181624 0.034835491
0.57411659 -0.11091398 0.034823891
0.57439184 -0.11001172 0.03481229
0.5746671 -0.10910946 0.034800693
0.57494235 -0.1082072 0.034789093
0.57521755 -0.10730494 0.034777492
0.5754928 -0.10640268 0.034765892
0.57576805 -0.10550041 0.034754295
0.57604331 -0.10459816 0.034742694
0.57631856 -0.10369589 0.034731094
0.57659376 -0.10279363 0.034719493
0.57686901 -0.10189138 0.034707896
0.57801729 -0.10129196 0.035110358
0.57829225 -0.10039073 0.035098772
0.57856715 -0.099489503 0.035087187
0.57796997 -0.09828233 0.034661498
0.57824522 -0.097380064 0.034649897
0.57764894 -0.096169792 0.034224167
0.57792449 -0.095266491 0.034212552
0.5782001 -0.094363198 0.03420094
0.57847565 -0.093459904 0.034189329
0.57875121 -0.092556611 0.034177713
0.57902676 -0.091653317 0.034166101
0.57930231 -0.090750016 0.03415449
0.57957786 -0.08984673 0.034142874
0.57985342 -0.088943429 0.034131262
0.58012897 -0.088040136 0.034119651
0.58040452 -0.087136842 0.034108035
0.58068007 -0.086233549 0.034096424
0.58095562 -0.085330255 0.034084812
0.58123118 -0.084426954 0.034073196
0.58150673 -0.083523661 0.034061585
0.58178228 -0.082620367 0.034049973
0.58205783 -0.081717074 0.034038357
0.58233339 -0.08081378 0.034026746
0.58260894 -0.079910487 0.034015134
0.58288449 -0.079007193 0.034003522
0.58316004 -0.078103893 0.033991907
0.5834356 -0.077200599 0.033980295
0.58371115 -0.076297306 0.033968683
0.58398676 -0.075394012 0.033957068
0.58426231 -0.074490719 0.033945456
0.58453786 -0.073587418 0.033933844
0.58481342 -0.072684132 0.033922229
0.58508897 -0.071780831 0.033910617
0.58536452 -0.070877537 0.033899006
0.58477765 -0.069636241 0.033472847
0.5850535 -0.068731911 0.033461221
0.58532941 -0.06782759 0.033449594
0.58560526 -0.066923261 0.033437967
0.58588117 -0.066018924 0.033426341
0.58701783 -0.065457776 0.033829328
0.58729339 -0.064554475 0.033817712
0.58756894 -0.063651189 0.0338061
0.58784449 -0.062747888 0.033794489
0.58812004 -0.061844595 0.033782873
0.5883956 -0.060941298 0.033771262
0.58867115 -0.060038008 0.03375965
0.5889467 -0.059134707 0.033748038
0.58836401 -0.057879969 0.033321705
0.58863986 -0.056975644 0.033310078
0.58891571 -0.056071315 0.033298451
0.58833426 -0.054812469 0.032872096
0.58861047 -0.053907104 0.032860458
0.58888668 -0.053001739 0.03284882
0.58916283 -0.052096386 0.032837179
0.58858299 -0.050832361 0.032410756
0.5888595 -0.049925964 0.032399103
0.58828056 -0.048658844 0.031972643
0.58855742 -0.047751416 0.031960979
0.58797938 -0.046481177 0.031534459
0.58740205 -0.045208894 0.031107934
0.58767951 -0.044299401 0.031096241
0.58710313 -0.043024015 0.030669672
0.58738089 -0.042113479 0.030657968
0.5868054 -0.040834989 0.030231345
0.58708352 -0.039923426 0.030219626
0.58650899 -0.038641836 0.029792979
0.5867874 -0.037729245 0.029781247
0.58621377 -0.036444537 0.029354544
0.58564085 -0.035157777 0.028927844
0.58591992 -0.034243107 0.028916085
0.58534795 -0.032953255 0.028489318
0.58562726 -0.03203756 0.028477546
0.58590662 -0.031121865 0.028465772
0.58618593 -0.03020617 0.028454
0.5864653 -0.029290468 0.028442228
0.58674461 -0.028374773 0.028430456
0.56475723 -0.12976933 0.0325066
0.56503373 -0.12886293 0.032494944
0.56531024 -0.12795654 0.032483291
0.56646901 -0.1273219 0.032886371
0.56674516 -0.12641653 0.032874729
0.56702137 -0.12551117 0.032863092
0.56817889 -0.12488066 0.033266209
0.56845474 -0.12397633 0.033254582
0.56961137 -0.12334894 0.033657752
0.56988692 -0.12244564 0.03364614
0.57104254 -0.12182134 0.034049336
0.57131773 -0.12091907 0.034037735
0.57247239 -0.12029786 0.034440972
0.57274735 -0.11939663 0.034429386
0.57302225 -0.1184954 0.034417801
0.5732972 -0.11759418 0.034406215
0.57445025 -0.11697814 0.0348095
0.57472491 -0.11607794 0.034797929
0.57499951 -0.11517775 0.034786355
0.57527411 -0.11427756 0.03477478
0.57554871 -0.11337736 0.03476321
0.57582331 -0.11247717 0.034751635
0.57609791 -0.11157697 0.034740064
0.57637256 -0.11067678 0.03472849
0.57664716 -0.10977659 0.034716915
0.57692176 -0.10887639 0.034705345
0.57719636 -0.1079762 0.03469377
0.57747096 -0.107076 0.034682196
0.57774562 -0.10617581 0.034670625
0.57802022 -0.10527562 0.03465905
0.57829481 -0.10437542 0.03464748
0.57856941 -0.10347523 0.034635905
0.57884401 -0.10257503 0.034624331
0.57999146 -0.10197759 0.035027873
0.58026576 -0.10107844 0.035016313
0.58054 -0.10017928 0.035004754
0.57994246 -0.098974258 0.03457804
0.58021706 -0.098074064 0.034566466
0.57962048 -0.096865945 0.034139726
0.57989538 -0.095964722 0.034128141
0.58017027 -0.095063493 0.034116555
0.58044523 -0.094162263 0.034104969
0.58072013 -0.093261041 0.03409338
0.58099508 -0.092359811 0.034081794
0.58126998 -0.091458581 0.034070209
0.58154494 -0.090557352 0.034058623
0.58181983 -0.089656129 0.034047037
0.58209479 -0.0887549 0.034035452
0.58236969 -0.08785367 0.034023862
0.58264464 -0.086952448 0.034012277
0.58291954 -0.086051211 0.034000691
0.58319449 -0.085149989 0.033989105
0.58346939 -0.084248759 0.03397752
0.58374435 -0.083347537 0.03396593
0.58401924 -0.082446307 0.033954345
0.5842942 -0.081545077 0.033942759
0.5845691 -0.080643848 0.033931173
0.58484399 -0.079742618 0.033919588
0.58511895 -0.078841396 0.033908002
0.58539385 -0.077940166 0.033896413
0.5856688 -0.077038936 0.033884827
0.5859437 -0.076137714 0.033873241
0.58621866 -0.075236484 0.033861656
0.58649355 -0.074335255 0.03385007
0.58676851 -0.073434032 0.033838481
0.5870434 -0.072532795 0.033826895
0.58731836 -0.071631573 0.033815309
0.5867312 -0.070392445 0.033388156
0.58700645 -0.069490187 0.033376556
0.58728164 -0.068587929 0.033364959
0.5875569 -0.067685664 0.033353359
0.58783215 -0.066783406 0.033341758
0.58810741 -0.065881148 0.033330157
0.5883826 -0.064978883 0.033318561
0.58865786 -0.064076617 0.03330696
0.58893311 -0.06317436 0.033295359
0.58920836 -0.062272094 0.033283759
0.58948356 -0.061369836 0.033272162
0.58975881 -0.060467578 0.033260562
0.59003407 -0.059565317 0.033248961
0.58945131 -0.058311727 0.032821622
0.58972687 -0.057408426 0.03281001
0.59000242 -0.056505136 0.032798398
0.58942091 -0.055247389 0.032370988
0.58969676 -0.05434306 0.032359362
0.58997262 -0.053438727 0.032347739
0.58939242 -0.052176878 0.031920291
0.58966857 -0.051271513 0.031908654
0.58908933 -0.05000655 0.031481154
0.58851069 -0.048739523 0.031053642
0.5887875 -0.047832094 0.031041976
0.58820975 -0.046561945 0.030614424
0.58763266 -0.045289755 0.030186847
0.58791012 -0.044380262 0.030175153
0.58818758 -0.043470759 0.030163461
0.58761173 -0.042194434 0.02973583
0.58703655 -0.040916033 0.029308172
0.58731467 -0.040004469 0.029296452
0.58674043 -0.038722973 0.028868755
0.58701879 -0.037810382 0.028857023
0.58644545 -0.036525764 0.02842927
