# .PCD v0.7 - Point Cloud Data file format
VERSION 0.7
FIELDS x y z
SIZE 4 4 4
TYPE F F F
COUNT 1 1 1
WIDTH 1339
HEIGHT 1
VIEWPOINT 0 0 0 1 0 0 0
POINTS 1339
DATA ascii
0.50470024 -0.11345291 0.0085417768
0.50424081 -0.11403538 0.0085184509
0.50378138 -0.11461786 0.0084951259
0.50332201 -0.11520033 0.0084718
0.50286257 -0.11578281 0.008448475
0.50240314 -0.11636528 0.0084251491
0.50194377 -0.11694776 0.0084018242
0.50148433 -0.11753023 0.0083784983
0.5010249 -0.11811271 0.0083551724
0.50056553 -0.11869518 0.0083318474
0.5001061 -0.11927765 0.0083085224
0.49911022 -0.11908167 0.0087220203
0.49865147 -0.1196633 0.0086987289
0.49819273 -0.12024492 0.0086754374
0.49773398 -0.12082656 0.008652145
0.49727523 -0.12140818 0.0086288536
0.49734962 -0.12277251 0.0081685688
0.56271857 -0.05541604 0.0057137464
0.56225181 -0.056007825 0.0056900484
0.56178504 -0.05659961 0.00566635
0.56131828 -0.057191402 0.0056426516
0.56085157 -0.057783186 0.0056189531
0.55976981 -0.057696689 0.0060290778
0.55868948 -0.057608537 0.0064392448
0.55822402 -0.058198627 0.0064156144
0.55714571 -0.058107935 0.0068258834
0.55668092 -0.058697183 0.0068022865
0.55560458 -0.058603946 0.007212657
0.5551405 -0.059192348 0.0071890941
0.55467641 -0.05978075 0.0071655316
0.5536027 -0.05968409 0.0075760633
0.55313927 -0.060271647 0.0075525343
0.55267584 -0.060859203 0.0075290054
0.55221248 -0.06144676 0.0075054765
0.55174905 -0.062034313 0.0074819475
0.55128562 -0.062621869 0.0074584186
0.5508222 -0.063209414 0.0074348901
0.55035877 -0.063796975 0.0074113607
0.54989535 -0.064384535 0.0073878318
0.54943192 -0.06497208 0.0073643029
0.54896855 -0.065559641 0.0073407739
0.54850513 -0.066147186 0.0073172455
0.5480417 -0.066734746 0.0072937161
0.54757828 -0.067322299 0.0072701876
0.54711485 -0.067909859 0.0072466587
0.54665142 -0.068497404 0.0072231297
0.546188 -0.069084965 0.0071996008
0.54572463 -0.06967251 0.0071760719
0.5452612 -0.07026007 0.0071525429
0.54479778 -0.070847623 0.0071290145
0.54433435 -0.071435176 0.0071054851
0.54387093 -0.072022736 0.0070819561
0.5434075 -0.072610289 0.0070584272
0.54294407 -0.073197849 0.0070348983
0.54248065 -0.073785394 0.0070113698
0.54201728 -0.074372955 0.0069878404
0.54155385 -0.0749605 0.0069643119
0.54109043 -0.07554806 0.006940783
0.540627 -0.07613562 0.0069172536
0.54016358 -0.076723166 0.0068937251
0.53970015 -0.077310726 0.0068701957
0.53923672 -0.077898279 0.0068466673
0.5387733 -0.078485839 0.0068231383
0.53830993 -0.079073399 0.0067996089
0.53784651 -0.079660945 0.0067760805
0.53738308 -0.080248505 0.0067525511
0.5363341 -0.080120549 0.0071643121
0.53587133 -0.080707252 0.0071408171
0.53540862 -0.08129397 0.0071173217
0.53494585 -0.081880681 0.0070938268
0.53448308 -0.082467385 0.0070703318
0.53402036 -0.083054096 0.0070468369
0.53297609 -0.082920216 0.0074588354
0.53251398 -0.083506078 0.007435374
0.53205186 -0.084091939 0.0074119125
0.53158981 -0.084677793 0.0073884521
0.53112775 -0.085263662 0.0073649907
0.53066564 -0.085849524 0.0073415292
0.53020358 -0.086435378 0.0073180688
0.52974147 -0.087021247 0.0072946073
0.52927941 -0.087607108 0.0072711459
0.5288173 -0.088192962 0.0072476855
0.52835524 -0.088778824 0.007224224
0.52789313 -0.089364693 0.0072007626
0.52743107 -0.089950547 0.0071773021
0.52696896 -0.090536408 0.0071538407
0.5265069 -0.091122277 0.0071303798
0.52604485 -0.091708131 0.0071069188
0.5250119 -0.091559872 0.0075194929
0.52455044 -0.092144884 0.0074960655
0.52408904 -0.092729896 0.0074726385
0.52362764 -0.093314908 0.0074492116
0.52316624 -0.093899928 0.0074257837
0.52270478 -0.09448494 0.0074023567
0.52224338 -0.095069952 0.0073789298
0.52178198 -0.095654964 0.0073555028
0.52132058 -0.096239991 0.0073320749
0.52085912 -0.096825004 0.007308648
0.52039772 -0.097410008 0.007285221
0.51993632 -0.09799502 0.0072617941
0.51947492 -0.098580033 0.0072383666
0.51901346 -0.09916506 0.0072149392
0.51855206 -0.099750072 0.0071915123
0.51809067 -0.10033508 0.0071680848
0.51762927 -0.1009201 0.0071446579
0.51716781 -0.10150512 0.0071212305
0.51670641 -0.10209013 0.0070978035
0.51624501 -0.10267514 0.0070743761
0.51578361 -0.10326015 0.0070509491
0.51532215 -0.10384518 0.0070275217
0.51430458 -0.10367744 0.0074408758
0.51384383 -0.10426159 0.0074174828
0.51338309 -0.10484576 0.0073940894
0.51292235 -0.10542993 0.0073706959
0.5124616 -0.1060141 0.0073473025
0.51200086 -0.10659827 0.0073239091
0.51154011 -0.10718244 0.0073005166
0.51107937 -0.10776661 0.0072771232
0.51061863 -0.10835078 0.0072537297
0.51015788 -0.10893495 0.0072303363
0.50969708 -0.10951912 0.0072069429
0.5086875 -0.10934118 0.007620729
0.50822741 -0.1099245 0.0075973701
0.50776732 -0.11050782 0.0075740106
0.50730723 -0.11109114 0.0075506512
0.5068472 -0.11167447 0.0075272918
0.50638711 -0.11225778 0.0075039328
0.50538218 -0.11207396 0.0079179313
0.50492281 -0.11265644 0.0078946054
0.50446337 -0.11323891 0.0078712795
0.50400394 -0.11382139 0.0078479545
0.50354457 -0.11440386 0.0078246286
0.50308514 -0.11498634 0.0078013032
0.50262576 -0.11556881 0.0077779777
0.50216633 -0.11615129 0.0077546523
0.5017069 -0.11673376 0.0077313269
0.50124753 -0.11731624 0.0077080014
0.50078809 -0.11789871 0.0076846755
0.50032866 -0.11848117 0.0076613505
0.49986926 -0.11906365 0.0076380251
0.49940985 -0.11964612 0.0076146997
0.49895045 -0.1202286 0.0075913742
0.49849102 -0.12081107 0.0075680488
0.49803162 -0.12139355 0.0075447229
0.49757221 -0.12197603 0.0075213974
0.49711278 -0.1225585 0.007498072
0.56294471 -0.054606829 0.005056228
0.56247795 -0.055198621 0.0050325296
0.56201118 -0.055790406 0.0050088312
0.55952954 -0.057479579 0.0053488356
0.55844951 -0.05739174 0.0057599768
0.55798411 -0.05798183 0.0057363464
0.5569061 -0.057891447 0.00614759
0.55644137 -0.058480695 0.0061239931
0.55536532 -0.058387771 0.0065353382
0.55490124 -0.05897617 0.0065117753
0.55443716 -0.059564572 0.0064882124
0.5533638 -0.059468225 0.0068997187
0.55290037 -0.060055777 0.0068761897
0.55243695 -0.060643338 0.0068526608
0.55197352 -0.06123089 0.0068291319
0.55151016 -0.061818447 0.0068056029
0.55104673 -0.062406 0.006782074
0.5505833 -0.062993549 0.0067585455
0.55011988 -0.063581109 0.0067350166
0.54965645 -0.064168669 0.0067114872
0.54919302 -0.064756215 0.0066879587
0.5487296 -0.065343775 0.0066644298
0.54826623 -0.06593132 0.0066409009
0.54780281 -0.06651888 0.0066173719
0.54733938 -0.067106433 0.006593843
0.54687595 -0.067693993 0.0065703141
0.54641253 -0.068281539 0.0065467856
0.5459491 -0.068869099 0.0065232562
0.54548568 -0.069456644 0.0064997277
0.54502225 -0.070044205 0.0064761983
0.54455888 -0.07063175 0.0064526699
0.54409546 -0.07121931 0.0064291409
0.54363203 -0.07180687 0.0064056115
0.5431686 -0.072394423 0.0063820831
0.54270518 -0.072981983 0.0063585541
0.54224175 -0.073569529 0.0063350252
0.54177833 -0.074157089 0.0063114963
0.54131496 -0.074744634 0.0062879673
0.54085153 -0.075332195 0.0062644384
0.54038811 -0.075919755 0.0062409095
0.53992468 -0.0765073 0.0062173805
0.53946126 -0.07709486 0.0061938516
0.53899783 -0.077682413 0.0061703227
0.5385344 -0.078269973 0.0061467937
0.53807098 -0.078857534 0.0061232648
0.53760761 -0.079445079 0.0060997359
0.53714418 -0.080032639 0.0060762069
0.53609556 -0.079904996 0.0064889425
0.53563279 -0.080491699 0.0064654476
0.53517002 -0.081078418 0.0064419522
0.53470731 -0.081665128 0.0064184573
0.53424454 -0.082251832 0.0063949623
0.53378177 -0.082838535 0.0063714674
0.53273785 -0.082704969 0.00678444
0.53227574 -0.08329083 0.0067609786
0.53181368 -0.083876699 0.0067375172
0.53135163 -0.084462553 0.0067140567
0.53088951 -0.085048415 0.0066905953
0.5304274 -0.085634284 0.0066671339
0.52996534 -0.086220138 0.0066436734
0.52950329 -0.086805999 0.006620212
0.52904117 -0.087391861 0.006596751
0.52857912 -0.087977715 0.0065732901
0.528117 -0.088563584 0.0065498287
0.52765495 -0.089149445 0.0065263677
0.52719283 -0.089735299 0.0065029068
0.52673078 -0.090321168 0.0064794454
0.52626866 -0.09090703 0.0064559844
0.52580661 -0.091492884 0.0064325235
0.52477401 -0.091344938 0.0068460717
0.52431262 -0.09192995 0.0068226447
0.52385116 -0.092514962 0.0067992178
0.52338976 -0.093099974 0.0067757908
0.52292836 -0.093684994 0.0067523629
0.52246696 -0.094270006 0.006728936
0.5220055 -0.094855018 0.006705509
0.5215441 -0.09544003 0.0066820821
0.5210827 -0.096025057 0.0066586542
0.52062124 -0.096610069 0.0066352272
0.52015984 -0.097195081 0.0066118003
0.51969844 -0.097780094 0.0065883729
0.51923704 -0.098365106 0.0065649459
0.51877558 -0.098950125 0.0065415185
0.51831418 -0.099535137 0.0065180915
0.51785278 -0.10012015 0.0064946641
0.51739138 -0.10070516 0.0064712372
0.51692992 -0.10129018 0.0064478097
0.51646852 -0.10187519 0.0064243828
0.51600713 -0.10246021 0.0064009554
0.51554573 -0.10304522 0.0063775284
0.51508427 -0.10363024 0.006354101
0.51406705 -0.10346282 0.0067684297
0.51360631 -0.10404697 0.0067450367
0.51314557 -0.10463114 0.0067216433
0.51268482 -0.10521531 0.0066982498
0.51222408 -0.10579948 0.0066748564
0.51176333 -0.10638365 0.006651463
0.51130259 -0.10696781 0.00662807
0.51084185 -0.10755198 0.0066046771
0.5103811 -0.10813615 0.0065812836
0.5099203 -0.10872032 0.0065578902
0.50891042 -0.10854355 0.0069726175
0.50845033 -0.10912687 0.0069492576
0.50799024 -0.10971019 0.0069258986
0.50753015 -0.11029351 0.0069025392
0.50707006 -0.11087684 0.0068791797
0.50660998 -0.11146015 0.0068558203
0.50614995 -0.11204347 0.0068324613
0.50514537 -0.11185995 0.007247434
0.50468594 -0.11244243 0.0072241081
0.50422657 -0.11302491 0.0072007827
0.50376713 -0.11360738 0.0071774572
0.5033077 -0.11418986 0.0071541318
0.50284833 -0.11477233 0.0071308063
0.50238889 -0.11535481 0.0071074809
0.50192946 -0.11593729 0.0070841555
0.50147009 -0.11651976 0.0070608296
0.50101066 -0.11710224 0.0070375041
0.50055122 -0.11768471 0.0070141787
0.50009185 -0.11826718 0.0069908537
0.49963242 -0.11884965 0.0069675283
0.49917302 -0.11943213 0.0069442028
0.49871361 -0.1200146 0.0069208769
0.49825418 -0.12059708 0.0068975515
0.49779478 -0.12117955 0.006874226
0.49733537 -0.12176203 0.0068509006
0.49687594 -0.1223445 0.0068275752
0.5582096 -0.05717494 0.0050807088
0.55774415 -0.057765029 0.0050570783
0.55666649 -0.057674959 0.0054692961
0.55620176 -0.058264207 0.0054456997
0.55512607 -0.058171593 0.005858019
0.55466199 -0.058759995 0.0058344565
0.55419791 -0.059348393 0.0058108936
0.5531249 -0.059252359 0.0062233745
0.55266148 -0.059839912 0.0061998456
0.55219805 -0.060427472 0.0061763166
0.55173463 -0.061015025 0.0061527877
0.5512712 -0.061602581 0.0061292588
0.55080783 -0.062190134 0.0061057298
0.55034441 -0.062777683 0.0060822014
0.54988098 -0.063365243 0.006058672
0.54941756 -0.063952804 0.006035143
0.54895413 -0.064540349 0.0060116146
0.5484907 -0.065127909 0.0059880852
0.54802728 -0.065715455 0.0059645567
0.54756385 -0.066303015 0.0059410273
0.54710048 -0.066890568 0.0059174988
0.54663706 -0.06747812 0.0058939699
0.54617363 -0.068065673 0.005870441
0.54571021 -0.068653233 0.005846912
0.54524678 -0.069240779 0.0058233831
0.54478335 -0.069828339 0.0057998542
0.54431999 -0.070415884 0.0057763257
0.54385656 -0.071003444 0.0057527963
0.54339314 -0.071591005 0.0057292674
0.54292971 -0.072178558 0.0057057389
0.54246628 -0.072766118 0.0056822095
0.54200286 -0.073353663 0.005658681
0.54153943 -0.073941223 0.0056351516
0.541076 -0.074528769 0.0056116232
0.54061258 -0.075116329 0.0055880942
0.54014921 -0.075703889 0.0055645648
0.53968579 -0.076291434 0.0055410364
0.53922236 -0.076878995 0.005517507
0.53875893 -0.077466547 0.0054939785
0.53829551 -0.078054108 0.0054704496
0.53783208 -0.078641661 0.0054469202
0.53736866 -0.079229213 0.0054233917
0.53690523 -0.079816774 0.0053998628
0.53585696 -0.079689436 0.0058135726
0.53539425 -0.080276147 0.0057900776
0.53493148 -0.080862865 0.0057665822
0.53446871 -0.081449568 0.0057430873
0.534006 -0.082036279 0.0057195923
0.53354323 -0.082622983 0.0056960974
0.53249961 -0.082489721 0.0061100447
0.53203756 -0.08307559 0.0060865832
0.53157544 -0.083661452 0.0060631223
0.53111339 -0.084247306 0.0060396614
0.53065127 -0.084833175 0.0060161999
0.53018922 -0.085419036 0.005992739
0.52972716 -0.086004891 0.005969278
0.52926505 -0.086590752 0.0059458166
0.52880293 -0.087176621 0.0059223557
0.52834088 -0.087762475 0.0058988947
0.52787882 -0.088348337 0.0058754333
0.52741671 -0.088934205 0.0058519724
0.52695465 -0.08952006 0.0058285114
0.52649254 -0.090105921 0.00580505
0.52603048 -0.09069179 0.0057815891
0.52556837 -0.091277637 0.0057581281
0.52453613 -0.091130003 0.0061726514
0.52407473 -0.091715015 0.006149224
0.52361327 -0.092300028 0.0061257971
0.52315187 -0.09288504 0.0061023701
0.52269047 -0.093470067 0.0060789422
0.52222908 -0.094055079 0.0060555153
0.52176762 -0.094640084 0.0060320883
0.52130622 -0.095225096 0.0060086614
0.52084482 -0.095810123 0.0059852335
0.52038342 -0.096395135 0.0059618065
0.51992196 -0.096980147 0.0059383796
0.51946056 -0.097565159 0.0059149526
0.51899916 -0.098150171 0.0058915252
0.51853776 -0.098735191 0.0058680978
0.5180763 -0.099320203 0.0058446708
0.5176149 -0.099905215 0.0058212434
0.5171535 -0.10049023 0.0057978164
0.51613325 -0.10032735 0.0062129498
0.5156725 -0.10091152 0.0061895563
0.51521176 -0.10149568 0.0061661638
0.51475102 -0.10207985 0.0061427704
0.51429027 -0.10266402 0.006119377
0.51382953 -0.10324819 0.0060959836
0.51336879 -0.10383235 0.0060725906
0.51290804 -0.10441652 0.0060491972
0.5124473 -0.10500069 0.0060258037
0.51198655 -0.10558486 0.0060024103
0.51152581 -0.10616903 0.0059790169
0.51106507 -0.10675319 0.0059556239
0.51060432 -0.10733736 0.005932231
0.51014352 -0.10792153 0.0059088375
0.50968277 -0.1085057 0.0058854441
0.50867319 -0.10832924 0.006301146
0.5082131 -0.10891256 0.0062777861
0.50775307 -0.10949588 0.0062544271
0.50729299 -0.1100792 0.0062310677
0.5068329 -0.11066253 0.0062077083
0.50637281 -0.11124584 0.0061843488
0.50591272 -0.11182916 0.0061609894
0.5049085 -0.11164596 0.0065769367
0.50444913 -0.11222843 0.0065536113
0.5039897 -0.11281091 0.0065302858
0.50353026 -0.11339338 0.0065069604
0.50307089 -0.11397586 0.0064836349
0.50261146 -0.11455834 0.0064603095
0.50215203 -0.11514081 0.0064369836
0.50169265 -0.11572329 0.0064136581
0.50123322 -0.11630576 0.0063903327
0.50077379 -0.11688824 0.0063670073
0.50031441 -0.11747071 0.0063436818
0.49985501 -0.11805318 0.0063203569
0.49939558 -0.11863565 0.006297031
0.49893618 -0.11921813 0.0062737055
0.49847677 -0.1198006 0.0062503801
0.49801734 -0.12038308 0.0062270546
0.49755794 -0.12096556 0.0062037292
0.49709854 -0.12154803 0.0061804038
0.4966391 -0.12213051 0.0061570778
0.55488688 -0.057955414 0.0051807002
0.55442274 -0.058543816 0.0051571373
0.55395865 -0.059132218 0.0051335748
0.55288601 -0.059036493 0.0055470299
0.55242258 -0.059624046 0.0055235014
0.55195916 -0.060211606 0.005499972
0.55149573 -0.060799159 0.0054764431
0.5510323 -0.061386716 0.0054529142
0.55056888 -0.061974268 0.0054293852
0.55010551 -0.062561817 0.0054058568
0.54964209 -0.063149378 0.0053823278
0.54917866 -0.063736938 0.0053587984
0.54871523 -0.064324483 0.00533527
0.54825181 -0.064912044 0.005311741
0.54778838 -0.065499589 0.0052882121
0.54732496 -0.066087149 0.0052646832
0.54686159 -0.066674694 0.0052411542
0.54639816 -0.067262255 0.0052176253
0.54593474 -0.067849807 0.0051940968
0.54547131 -0.068437368 0.0051705674
0.54500788 -0.069024913 0.005147039
0.54454446 -0.069612473 0.0051235096
0.54408103 -0.070200019 0.0050999811
0.54361761 -0.070787579 0.0050764522
0.54315418 -0.071375139 0.0050529228
0.54269081 -0.071962692 0.0050293943
0.54222739 -0.072550245 0.0050058654
0.53561842 -0.079473883 0.005138203
0.53515565 -0.080060594 0.0051147081
0.53469294 -0.080647305 0.0050912127
0.53423017 -0.081234016 0.0050677177
0.5337674 -0.081820719 0.0050442228
0.53330469 -0.08240743 0.0050207279
0.53226143 -0.082274482 0.0054356493
0.53179932 -0.082860343 0.0054121879
0.53133726 -0.083446212 0.0053887269
0.53087515 -0.084032066 0.005365266
0.53041309 -0.084617928 0.0053418046
0.52995098 -0.085203797 0.0053183436
0.52948892 -0.085789643 0.0052948827
0.52902681 -0.086375512 0.0052714217
0.52856475 -0.086961374 0.0052479603
0.5281027 -0.087547228 0.0052244994
0.52764058 -0.088133097 0.0052010384
0.52717847 -0.088718958 0.005177577
0.52671641 -0.089304812 0.0051541161
0.52625436 -0.089890674 0.0051306551
0.52579224 -0.090476543 0.0051071937
0.52533019 -0.091062397 0.0050837328
0.52429825 -0.090915069 0.0054992307
0.52383685 -0.091500081 0.0054758033
0.52337545 -0.092085093 0.0054523763
0.52291399 -0.092670105 0.0054289494
0.52245259 -0.093255132 0.0054055215
0.52199119 -0.093840145 0.0053820945
0.52152979 -0.094425157 0.0053586676
0.52106833 -0.095010169 0.0053352406
0.52060694 -0.095595188 0.0053118127
0.52014554 -0.096180201 0.0052883858
0.51968414 -0.096765213 0.0052649588
0.51922268 -0.097350225 0.0052415319
0.51876128 -0.097935237 0.0052181045
0.51829988 -0.098520257 0.005194677
0.51783848 -0.099105269 0.0051712501
0.51737702 -0.099690281 0.0051478227
0.51691562 -0.10027529 0.0051243957
0.51589572 -0.10011273 0.0055405041
0.51543498 -0.1006969 0.0055171107
0.51497424 -0.10128106 0.0054937177
0.51451349 -0.10186523 0.0054703243
0.51405275 -0.1024494 0.0054469309
0.513592 -0.10303357 0.0054235375
0.51313126 -0.10361773 0.0054001445
0.51267052 -0.1042019 0.0053767511
0.51220977 -0.10478607 0.0053533576
0.51174903 -0.10537024 0.0053299642
0.51128829 -0.10595441 0.0053065713
0.51082754 -0.10653856 0.0052831783
0.50981629 -0.10636496 0.0056997524
0.5093562 -0.10694829 0.0056763929
0.50889611 -0.10753161 0.0056530335
0.50843602 -0.10811492 0.0056296745
0.50797594 -0.10869825 0.0056063146
0.50751585 -0.10928157 0.0055829552
0.50705576 -0.10986488 0.0055595962
0.50659573 -0.11044821 0.0055362363
0.50613564 -0.11103153 0.0055128774
0.50567555 -0.11161485 0.0054895179
0.50467169 -0.11143196 0.0059064399
0.50421226 -0.11201444 0.0058831144
0.50375289 -0.11259691 0.005859789
0.50329345 -0.11317939 0.0058364635
0.50283402 -0.11376186 0.0058131376
0.50237465 -0.11434434 0.0057898122
0.50191522 -0.11492681 0.0057664867
0.50145578 -0.11550929 0.0057431613
0.50099641 -0.11609177 0.0057198359
0.50053698 -0.11667424 0.0056965104
0.50007755 -0.11725672 0.0056731845
0.49961817 -0.11783918 0.0056498596
0.49915874 -0.11842165 0.0056265341
0.49869934 -0.11900413 0.0056032087
0.49823993 -0.1195866 0.0055798832
0.4977805 -0.12016908 0.0055565578
0.4973211 -0.12075155 0.0055332324
0.4968617 -0.12133403 0.0055099064
0.49640226 -0.1219165 0.005486581
0.51141942 -0.10381737 0.0051217182
0.51095933 -0.10440069 0.0050983592
0.51049924 -0.104984 0.0050749998
0.51003915 -0.10556733 0.0050516399
0.50957906 -0.10615065 0.0050282809
0.50911897 -0.10673398 0.005004921
0.50443482 -0.11121796 0.0052359425
0.50397545 -0.11180043 0.0052126171
0.50351602 -0.11238291 0.0051892917
0.50305659 -0.11296538 0.0051659662
0.50259721 -0.11354786 0.0051426408
0.50213778 -0.11413033 0.0051193153
0.50167835 -0.11471281 0.0050959894
0.50121897 -0.11529528 0.005072664
0.50075954 -0.11587776 0.0050493386
0.50030011 -0.11646023 0.0050260131
0.49984074 -0.11704271 0.0050026877
0.50345707 -0.096906185 0.040277261
0.50464171 -0.096219972 0.040642988
0.50493813 -0.095248468 0.040630497
0.50523448 -0.094276965 0.040618006
0.50553083 -0.093305454 0.040605519
0.50582719 -0.09233395 0.040593028
0.50612354 -0.091362439 0.040580537
0.50162804 -0.10699292 0.039796498
0.50192446 -0.10602142 0.039784007
0.50222081 -0.10504991 0.039771516
0.50251716 -0.1040784 0.039759025
0.50281352 -0.1031069 0.039746538
0.50310987 -0.10213539 0.039734047
0.50340623 -0.10116389 0.039721556
0.50370264 -0.10019238 0.039709065
0.50399899 -0.099220872 0.039696578
0.50429535 -0.098249361 0.039684087
0.5045917 -0.097277857 0.039671596
0.50488806 -0.096306346 0.039659109
0.50518441 -0.095334843 0.039646618
0.50548083 -0.094363332 0.039634127
0.50666392 -0.093681172 0.040000949
0.50695997 -0.092710696 0.039988473
0.50725603 -0.091740228 0.039975997
0.50755209 -0.090769753 0.039963521
0.50784808 -0.089799277 0.039951045
0.50814414 -0.08882881 0.039938569
0.50217324 -0.10929503 0.03921774
0.50246924 -0.10832456 0.039205261
0.5027653 -0.10735408 0.039192785
0.50306135 -0.10638361 0.039180309
0.50335741 -0.10541313 0.039167833
0.50365347 -0.10444266 0.039155357
0.50394952 -0.10347219 0.039142881
0.50424558 -0.10250171 0.039130401
0.50454158 -0.10153124 0.039117925
0.50483763 -0.10056077 0.039105449
0.50513369 -0.099590294 0.039092973
0.50542974 -0.098619819 0.039080497
0.5057258 -0.097649351 0.039068021
0.50602186 -0.096678875 0.039055541
0.50631791 -0.0957084 0.039043065
0.50661397 -0.094737932 0.039030589
0.50779653 -0.094056726 0.039398484
0.50809228 -0.093087286 0.039386019
0.50838798 -0.092117846 0.039373558
0.50868374 -0.091148406 0.039361093
0.5089795 -0.090178967 0.039348632
0.5092752 -0.089209527 0.039336167
0.50957096 -0.088240087 0.039323702
0.50986665 -0.087270647 0.039311241
0.50390649 -0.11089498 0.039009754
0.50420189 -0.10992657 0.038997304
0.50360638 -0.10868451 0.038603637
0.50390208 -0.10771507 0.038591176
0.50419784 -0.10674563 0.038578711
0.50449353 -0.10577619 0.03856625
0.50478929 -0.10480675 0.038553786
0.50508505 -0.10383731 0.038541324
0.50538075 -0.10286787 0.03852886
0.50567651 -0.10189843 0.038516395
0.50597221 -0.10092899 0.038503934
0.50626796 -0.099959552 0.038491469
0.50656366 -0.098990113 0.038479008
0.50685942 -0.098020673 0.038466543
0.50715518 -0.097051233 0.038454078
0.50745088 -0.096081793 0.038441617
0.50774664 -0.095112354 0.038429152
0.5089286 -0.094432071 0.038798101
0.509224 -0.093463667 0.038785651
0.5095194 -0.092495263 0.038773201
0.50981486 -0.091526851 0.038760751
0.51011026 -0.090558447 0.038748302
0.51040566 -0.089590043 0.038735852
0.51070112 -0.088621631 0.038723402
0.51099652 -0.087653227 0.038710952
0.51217562 -0.08698225 0.039080013
0.51247072 -0.086014874 0.039067578
0.50445318 -0.11318732 0.038436111
0.50474828 -0.11221995 0.038423676
0.50504339 -0.11125258 0.038411237
0.50533849 -0.11028521 0.038398802
0.50474286 -0.10904427 0.038004108
0.50503826 -0.10807586 0.037991658
0.50533372 -0.10710745 0.037979208
0.50562912 -0.10613905 0.037966758
0.50592452 -0.10517064 0.037954308
0.50621998 -0.10420223 0.037941858
0.50651538 -0.10323383 0.037929408
0.50681078 -0.10226543 0.037916958
0.50710618 -0.10129701 0.037904508
0.50740165 -0.10032861 0.037892058
0.50769705 -0.099360205 0.037879609
0.50799245 -0.098391794 0.037867159
0.50828791 -0.09742339 0.037854709
0.50858331 -0.096454985 0.037842259
0.50887871 -0.095486574 0.037829809
0.51006013 -0.094807237 0.038199816
0.51035523 -0.093839869 0.038187377
0.51065034 -0.092872493 0.038174942
0.51094544 -0.091905117 0.038162503
0.51124054 -0.090937749 0.038150068
0.51153564 -0.089970373 0.03813763
0.51183075 -0.089003004 0.038125195
0.51212585 -0.088035628 0.038112756
0.51330435 -0.08736559 0.038482882
0.51448238 -0.086697638 0.038853042
0.51477683 -0.085732333 0.038840633
0.50797147 -0.11531394 0.0390018
0.50826532 -0.11435071 0.038989417
0.50677639 -0.11284672 0.038210507
0.50617969 -0.11160999 0.037814818
0.50647449 -0.11064365 0.037802394
0.5067693 -0.10967731 0.037789971
0.5070641 -0.10871097 0.037777547
0.50735885 -0.10774463 0.037765123
0.50765365 -0.10677829 0.037752699
0.50794846 -0.10581195 0.037740275
0.5082432 -0.10484561 0.037727851
0.50853801 -0.10387927 0.037715431
0.50883281 -0.10291293 0.037703007
0.50912762 -0.1019466 0.037690584
0.50942236 -0.10098026 0.03767816
0.50971717 -0.10001392 0.037665736
0.51001197 -0.099047579 0.037653312
0.51030672 -0.098081239 0.037640888
0.51060152 -0.097114898 0.037628464
0.51089633 -0.096148558 0.037616041
0.51119113 -0.095182218 0.03760362
0.51148587 -0.094215885 0.037591197
0.51178068 -0.093249545 0.037578773
0.51207548 -0.092283204 0.037566349
0.51237023 -0.091316864 0.037553925
0.51266503 -0.090350524 0.037541501
0.51295984 -0.089384183 0.037529077
0.51325458 -0.088417843 0.037516654
0.51443267 -0.087748773 0.037887845
0.51560998 -0.087081738 0.038259059
0.51678669 -0.086416781 0.038630296
0.51708055 -0.08545354 0.038617909
0.50970602 -0.11689718 0.03880721
0.50999922 -0.11593601 0.038794853
0.50940096 -0.11470559 0.038398199
0.50791228 -0.11320283 0.037617218
0.50820643 -0.11223855 0.03760482
0.50850058 -0.11127428 0.037592422
0.50790453 -0.11003663 0.037195679
0.50819904 -0.10907132 0.037183266
0.50849348 -0.10810601 0.037170857
0.50878799 -0.1071407 0.037158448
0.50908244 -0.1061754 0.037146036
0.50937688 -0.1052101 0.037133627
0.50967139 -0.10424479 0.037121218
0.50996584 -0.10327949 0.037108805
0.51026034 -0.10231418 0.037096396
0.51055479 -0.10134887 0.037083987
0.5108493 -0.10038356 0.037071574
0.51114374 -0.09941826 0.037059166
0.51143819 -0.098452955 0.037046757
0.5117327 -0.097487651 0.037034344
0.51202714 -0.096522346 0.037021935
0.51232165 -0.095557041 0.037009526
0.5126161 -0.094591729 0.036997113
0.51291054 -0.093626425 0.036984704
0.51320505 -0.09266112 0.036972295
0.5134995 -0.091695815 0.036959883
0.513794 -0.090730511 0.036947474
0.51497203 -0.090060286 0.037319694
0.51526618 -0.089096017 0.037307296
0.51556033 -0.088131748 0.037294898
0.5167371 -0.087465659 0.03766717
0.51791322 -0.086801641 0.038039461
0.51908875 -0.086139686 0.038411785
0.52026367 -0.085479818 0.03878415
0.52143794 -0.084821999 0.039156523
0.52173048 -0.083862893 0.039144192
0.51204067 -0.11970006 0.03901438
0.51233292 -0.11874199 0.039002065
0.51262516 -0.11778392 0.038989749
0.51202595 -0.11655772 0.038592096
0.51053613 -0.11506029 0.037809074
0.50993848 -0.11382893 0.037411358
0.50934148 -0.11259551 0.037013628
0.50963533 -0.11163227 0.037001245
0.50992912 -0.11066902 0.036988862
0.51022297 -0.10970579 0.036976479
0.51051682 -0.10874255 0.036964092
0.51081067 -0.10777931 0.03695171
0.51110452 -0.10681607 0.036939327
0.51139838 -0.10585283 0.036926944
0.51169217 -0.10488959 0.036914561
0.51198602 -0.10392635 0.036902174
0.51227987 -0.10296312 0.036889791
0.51257372 -0.10199988 0.036877409
0.51286757 -0.10103664 0.036865026
0.51316142 -0.1000734 0.036852643
0.51345521 -0.099110164 0.036840256
0.51374906 -0.098146923 0.036827873
0.51404291 -0.097183682 0.036815491
0.51433676 -0.096220449 0.036803108
0.51463062 -0.095257208 0.036790725
0.51492447 -0.094293967 0.036778342
0.51521826 -0.093330726 0.036765955
0.51551211 -0.092367493 0.036753573
0.51580596 -0.091404252 0.03674119
0.51609981 -0.090441011 0.036728807
0.51639366 -0.089477777 0.036716424
0.51757014 -0.088811599 0.037089728
0.51786369 -0.087849393 0.03707736
0.51903927 -0.087186314 0.03745072
0.5202142 -0.086525321 0.037824124
0.52138853 -0.085866377 0.038197525
0.52256221 -0.085209496 0.038570967
0.52373523 -0.084554695 0.038944427
0.52490765 -0.083901949 0.039317913
0.52607948 -0.08325129 0.039691441
0.52637076 -0.082296319 0.039679162
0.51466882 -0.12153502 0.039215405
0.51496017 -0.12058005 0.039203126
0.51435959 -0.1193591 0.038804479
0.51375967 -0.11813609 0.038405832
0.51316035 -0.11691102 0.038007159
0.51256174 -0.11568389 0.037608445
0.51196373 -0.11445469 0.037209719
0.51136625 -0.1132234 0.036810938
0.5116595 -0.11226223 0.036798581
0.5119527 -0.11130106 0.036786225
0.51224589 -0.11033989 0.036773868
0.51253909 -0.10937872 0.036761511
0.51283234 -0.10841755 0.036749154
0.51312554 -0.10745638 0.036736798
0.51341873 -0.1064952 0.036724437
0.51371193 -0.10553403 0.03671208
0.51400518 -0.10457286 0.036699723
0.51429838 -0.10361169 0.036687367
0.51459157 -0.10265052 0.03667501
0.51488477 -0.10168935 0.036662653
0.51517802 -0.10072818 0.036650296
0.51547122 -0.099766999 0.03663794
0.51576442 -0.09880583 0.036625583
0.51605761 -0.09784466 0.036613226
0.51635087 -0.096883483 0.036600869
0.51664406 -0.095922314 0.036588512
0.51693726 -0.094961144 0.036576156
0.51723051 -0.093999974 0.036563799
0.51752371 -0.093038797 0.036551442
0.5178169 -0.092077628 0.036539085
0.5181101 -0.091116458 0.036526728
0.51840335 -0.090155289 0.036514372
0.51957899 -0.089491099 0.036888782
0.51987189 -0.088530958 0.03687644
0.52016479 -0.087570824 0.036864094
0.52133912 -0.086910754 0.037238535
0.52251285 -0.086252749 0.037613012
0.52368593 -0.085596815 0.0379875
0.52485842 -0.084942952 0.038362019
0.5260303 -0.08429116 0.038736589
0.52720147 -0.083641432 0.03911116
0.52749252 -0.082687497 0.039098896
0.52866274 -0.082040861 0.039473519
0.52895343 -0.081087954 0.03946127
0.52924412 -0.080135055 0.039449017
0.52953482 -0.079182148 0.039436769
0.53070349 -0.078540683 0.039811444
0.53099388 -0.077588819 0.039799206
0.51640475 -0.12310043 0.03903525
0.51669544 -0.12214753 0.039023001
0.51609421 -0.12092979 0.03862337
0.51549363 -0.11970998 0.038223699
0.51489359 -0.11848809 0.037824001
0.51429427 -0.11726414 0.037424292
0.5136956 -0.11603814 0.037024558
0.51309752 -0.11481006 0.036624793
0.51339006 -0.11385095 0.036612462
0.51368266 -0.11289185 0.036600132
0.51397526 -0.11193275 0.036587801
0.5142678 -0.11097364 0.036575474
0.5145604 -0.11001454 0.036563143
0.514853 -0.10905543 0.036550812
0.51514554 -0.10809632 0.036538482
0.51543814 -0.10713722 0.036526151
0.51573074 -0.10617812 0.03651382
0.51602328 -0.10521901 0.03650149
0.51631588 -0.10425991 0.036489159
0.51660848 -0.1033008 0.036476828
0.51690102 -0.1023417 0.036464497
0.51719362 -0.10138259 0.036452167
0.51748621 -0.10042349 0.036439836
0.51777875 -0.099464387 0.036427505
0.51807135 -0.098505281 0.036415178
0.51836395 -0.097546175 0.036402848
0.51865649 -0.096587069 0.036390517
0.51894909 -0.095627964 0.036378186
0.51924169 -0.094668858 0.036365855
0.51953429 -0.093709759 0.036353525
0.51982683 -0.092750654 0.036341194
0.52011943 -0.091791548 0.036328863
0.52041203 -0.090832442 0.036316533
0.52158672 -0.090170212 0.036691993
0.52187902 -0.089212142 0.036679678
0.52217126 -0.088254072 0.036667358
0.5224635 -0.087296002 0.036655042
0.52363664 -0.086638942 0.03703057
0.52480918 -0.085983947 0.037406124
0.52598113 -0.085331038 0.037781719
0.52715236 -0.084680177 0.03815734
0.52744335 -0.083726242 0.038145076
0.52861369 -0.083078481 0.038520724
0.52890438 -0.082125582 0.038508471
0.52919507 -0.081172675 0.038496219
0.52948576 -0.080219775 0.03848397
0.53065449 -0.079577185 0.038859684
0.53094482 -0.078625314 0.038847446
0.53211266 -0.077985838 0.039223213
0.53327984 -0.077348411 0.039598994
0.53356957 -0.076398611 0.039586782
0.53385931 -0.075448811 0.039574571
0.53414905 -0.074499004 0.039562359
0.53443879 -0.073549204 0.039550148
0.53676867 -0.072288826 0.040301893
0.53705782 -0.07134109 0.040289711
0.5373469 -0.070393354 0.040277526
0.53763604 -0.069445617 0.04026534
0.53792512 -0.068497881 0.040253159
0.53908789 -0.067874931 0.040629137
0.53937668 -0.066928223 0.040616967
0.53966546 -0.065981522 0.040604796
0.5399543 -0.065034822 0.040592626
0.54024309 -0.064088121 0.040580451
0.54053187 -0.063141413 0.040568281
0.54082066 -0.062194712 0.04055611
0.54110944 -0.061248008 0.04054394
0.54342872 -0.06002279 0.041296151
0.54458731 -0.059413277 0.041672289
0.54574537 -0.05880582 0.042048454
0.54603291 -0.05786325 0.042036336
0.54632044 -0.056920677 0.042024218
0.54660797 -0.055978112 0.042012103
0.5468955 -0.055035546 0.041999985
0.54718304 -0.054092977 0.041987866
0.54747057 -0.053150404 0.041975748
0.5477581 -0.052207839 0.041963629
0.54920048 -0.050668154 0.04232781
0.54948771 -0.04972662 0.042315707
0.54977494 -0.048785087 0.042303599
0.55006218 -0.047843546 0.042291496
0.55034935 -0.046902012 0.042279392
0.55063659 -0.045960478 0.042267289
0.55092382 -0.045018941 0.042255182
0.55121106 -0.044077408 0.042243078
0.51874381 -0.12587281 0.039259847
0.51903355 -0.12492301 0.039247636
0.51932329 -0.12397321 0.039235424
0.517829 -0.12249596 0.038446367
0.51722777 -0.12127934 0.038045701
0.51662707 -0.12006066 0.037645008
0.51602709 -0.11883991 0.037244286
0.51542765 -0.11761708 0.036843527
0.51571929 -0.11666107 0.036831234
0.5151208 -0.11543515 0.036430463
0.51541281 -0.11447812 0.036418159
0.51570475 -0.11352108 0.036405858
0.51599669 -0.11256404 0.036393553
0.51628864 -0.11160701 0.036381248
0.51658058 -0.11064997 0.036368944
0.51687253 -0.10969293 0.036356639
0.51716447 -0.1087359 0.036344338
0.51745641 -0.10777885 0.036332034
0.51774836 -0.10682182 0.036319729
0.51804036 -0.10586478 0.036307424
0.5183323 -0.10490774 0.03629512
0.51862425 -0.10395071 0.036282819
0.51891619 -0.10299367 0.036270514
0.51920813 -0.10203663 0.036258209
0.51950008 -0.10107959 0.036245905
0.51979202 -0.10012256 0.036233604
0.52008396 -0.099165514 0.036221299
0.52037591 -0.09820848 0.036208995
0.52066785 -0.097251438 0.03619669
0.52095985 -0.096294403 0.036184385
0.5212518 -0.095337369 0.036172085
0.52154374 -0.094380327 0.03615978
0.52183568 -0.093423292 0.036147475
0.52212763 -0.09246625 0.036135171
0.52241957 -0.091509216 0.036122866
0.52359343 -0.090848967 0.036499389
0.52388507 -0.089892961 0.036487099
0.52417666 -0.088936955 0.036474809
0.5244683 -0.087980956 0.036462519
0.52475995 -0.087024949 0.03645023
0.52593195 -0.086370915 0.03682686
0.52710325 -0.08571893 0.037203506
0.52827394 -0.085069008 0.037580173
0.52856463 -0.084116109 0.037567925
0.52973431 -0.083469294 0.037944634
0.53002471 -0.082517423 0.037932396
0.5303151 -0.081565551 0.037920158
0.53060544 -0.08061368 0.037907921
0.53089583 -0.079661809 0.037895683
0.53206372 -0.079021208 0.038272489
0.5332309 -0.078382663 0.038649306
0.53352064 -0.077432856 0.038637094
0.53381044 -0.076483056 0.038624883
0.53497636 -0.075848639 0.039001752
0.5352658 -0.074899875 0.038989555
0.53555518 -0.073951103 0.038977358
0.53671992 -0.073320821 0.03935428
0.537009 -0.072373085 0.039342094
0.53729814 -0.071425349 0.039329913
0.53758723 -0.070477612 0.039317727
0.53787637 -0.069529876 0.039305542
0.53816545 -0.06858214 0.03929336
0.53932792 -0.0679591 0.039670374
0.5396167 -0.067012392 0.039658204
0.53990555 -0.066065691 0.039646033
0.54019433 -0.065118991 0.039633863
0.54048312 -0.06417229 0.039621692
0.5407719 -0.063225582 0.039609518
0.54193223 -0.062609784 0.039986629
0.54309189 -0.061996043 0.040363763
0.54338002 -0.061051413 0.040351618
0.54453874 -0.060440768 0.040728796
0.54482657 -0.059497166 0.040716663
0.54598433 -0.05888962 0.041093878
0.54627186 -0.057947055 0.04108176
0.54655939 -0.057004478 0.041069642
0.54684693 -0.056061912 0.041057523
0.54713446 -0.055119347 0.041045409
0.54742205 -0.054176781 0.04103329
0.54770958 -0.053234205 0.041021172
0.54799712 -0.052291639 0.041009054
0.54828465 -0.051349074 0.040996935
0.54943925 -0.050751865 0.041374285
0.54972643 -0.049810331 0.041362178
0.55001366 -0.048868794 0.041350074
0.5503009 -0.047927253 0.041337971
0.55058813 -0.046985719 0.041325867
0.55087531 -0.046044186 0.04131376
0.55116254 -0.045102652 0.041301657
0.55144978 -0.044161119 0.041289553
0.55087245 -0.042865962 0.040887874
0.52076989 -0.1264783 0.039076786
0.52105904 -0.12553056 0.039064601
0.52045614 -0.12432024 0.038662966
0.51896214 -0.12284423 0.037871849
0.51836073 -0.12162872 0.037470132
0.51776004 -0.12041116 0.037068415
0.51716 -0.11919153 0.036666658
0.51745099 -0.1182376 0.036654394
0.51774198 -0.11728366 0.03664213
0.51714319 -0.11605991 0.036240321
0.51743448 -0.11510494 0.036228042
0.51772583 -0.11414997 0.036215767
0.51801711 -0.11319499 0.036203489
0.51830846 -0.11224002 0.03619121
0.51859975 -0.11128505 0.036178935
0.5188911 -0.11033008 0.036166657
0.51918244 -0.10937511 0.036154378
0.51947373 -0.10842014 0.036142103
0.51976508 -0.10746517 0.036129825
0.52005637 -0.1065102 0.036117546
0.52034771 -0.10555523 0.036105271
0.520639 -0.10460026 0.036092993
0.52093035 -0.10364529 0.036080714
0.52122164 -0.10269032 0.036068439
0.52151299 -0.10173535 0.036056161
0.52180427 -0.10078038 0.036043886
0.52209562 -0.099825405 0.036031608
0.52238691 -0.098870434 0.036019329
0.52267826 -0.097915463 0.036007054
0.52296954 -0.096960492 0.035994776
0.52326089 -0.096005522 0.035982497
0.52355218 -0.095050551 0.035970222
0.52384353 -0.09409558 0.035957944
0.52413481 -0.09314061 0.035945665
0.52442616 -0.092185639 0.03593339
0.52559912 -0.091527365 0.036311004
0.52589011 -0.090573423 0.036298737
0.5261811 -0.089619488 0.036286473
0.52647209 -0.088665552 0.03627421
0.52676314 -0.08771161 0.036261946
0.52793413 -0.087059535 0.036639642
0.52822483 -0.086106636 0.036627389
0.52939492 -0.08545766 0.037005108
0.52968532 -0.084505789 0.03699287
0.53085452 -0.083859928 0.037370659
0.53114456 -0.082909092 0.037358437
0.53143466 -0.081958257 0.03734621
0.53172469 -0.081007421 0.037333988
0.53201473 -0.080056585 0.037321765
0.53318202 -0.079416908 0.037699617
0.53347176 -0.078467108 0.037687406
0.5337615 -0.077517301 0.037675194
0.53492749 -0.076881766 0.038053088
0.53609288 -0.076248288 0.038431019
0.53638196 -0.075300552 0.038418837
0.5366711 -0.074352816 0.038406651
0.53783518 -0.07372348 0.038784638
0.53812397 -0.072776772 0.038772468
0.53841281 -0.071830079 0.038760297
0.53870159 -0.070883371 0.038748123
0.53899038 -0.06993667 0.038735952
0.53927916 -0.068989962 0.038723782
0.53956795 -0.068043269 0.038711611
0.53985679 -0.067096561 0.038699441
0.54101813 -0.066476539 0.039077546
0.54130656 -0.065530874 0.039065391
0.54159504 -0.064585201 0.039053231
0.54188353 -0.063639536 0.039041072
0.54304326 -0.063024662 0.039419245
0.54420227 -0.062411863 0.039797444
0.54449016 -0.061468259 0.039785314
0.54477799 -0.060524657 0.039773181
0.54506582 -0.05958106 0.039761052
0.54622334 -0.05897342 0.040139303
0.54651088 -0.058030855 0.040127184
0.54679841 -0.057088282 0.040115066
0.54708594 -0.056145713 0.040102948
0.54737347 -0.055203147 0.040090829
0.54766101 -0.054260582 0.040078714
0.54794854 -0.053318009 0.040066596
0.54823607 -0.05237544 0.040054478
0.5485236 -0.051432874 0.040042359
0.54967797 -0.050835572 0.040420756
0.5499652 -0.049894039 0.040408652
0.55025238 -0.048952505 0.040396549
0.55053961 -0.048010964 0.040384442
0.55082685 -0.04706943 0.040372338
0.55111408 -0.046127893 0.040360235
0.55140126 -0.045186359 0.040348131
0.55168849 -0.044244826 0.040336024
0.55111146 -0.042949762 0.039933298
0.52250659 -0.12802909 0.038910083
0.52279508 -0.12708344 0.038897928
0.52219141 -0.12587628 0.03849528
0.52158844 -0.12466709 0.038092606
0.52009469 -0.12319229 0.037299402
0.51949328 -0.12197793 0.036896676
0.51978338 -0.12102709 0.036884453
0.51918286 -0.11980961 0.036481656
0.51947325 -0.11885773 0.036469419
0.51976359 -0.11790587 0.036457181
0.52005398 -0.116954 0.036444943
0.51945513 -0.11573137 0.036042113
0.51974583 -0.11477846 0.03602986
0.52003652 -0.11382556 0.036017612
0.52032715 -0.11287265 0.036005359
0.52061784 -0.11191975 0.03599311
0.52090853 -0.11096685 0.035980858
0.52119923 -0.11001394 0.035968609
0.52148992 -0.10906104 0.035956357
0.52178061 -0.10810813 0.035944108
0.5220713 -0.10715523 0.035931855
0.52236199 -0.10620233 0.035919607
0.52265269 -0.10524943 0.035907354
0.52294338 -0.10429652 0.035895105
0.52323407 -0.10334362 0.035882853
0.52352476 -0.10239071 0.035870604
0.52381545 -0.10143781 0.035858352
0.52410614 -0.10048491 0.035846099
0.52439684 -0.099532001 0.035833851
0.52468753 -0.098579101 0.035821598
0.52497822 -0.097626194 0.035809349
0.52526891 -0.096673295 0.035797097
0.52555954 -0.095720388 0.035784848
0.52585024 -0.094767481 0.035772596
0.52614093 -0.093814582 0.035760347
0.52643162 -0.092861675 0.035748094
0.52760369 -0.092205375 0.03612677
0.52789408 -0.091253512 0.036114533
0.52818441 -0.09030164 0.036102299
0.52847481 -0.089349769 0.036090061
0.5287652 -0.088397898 0.036077823
0.52993536 -0.087747812 0.036456607
0.53022546 -0.086796977 0.036444385
0.53051549 -0.085846141 0.036432158
0.53080553 -0.084895298 0.036419936
0.53197414 -0.084250368 0.036798757
0.53226388 -0.083300568 0.036786545
0.53255361 -0.082350761 0.036774337
0.53284335 -0.081400961 0.036762126
0.53313309 -0.080451153 0.036749914
0.53429979 -0.07981243 0.037128817
0.53458923 -0.078863658 0.037116621
0.53487861 -0.077914886 0.03710442
0.53604406 -0.077280283 0.03748339
0.53720886 -0.076647751 0.037862387
0.53749764 -0.075701058 0.037850216
0.53778642 -0.07475435 0.037838046
0.53895003 -0.074125968 0.038217098
0.53923851 -0.073180296 0.038204938
0.539527 -0.072234631 0.038192779
0.53981549 -0.071288958 0.038180623
0.54010397 -0.070343293 0.038168464
0.54039246 -0.069397621 0.038156308
0.54068094 -0.068451956 0.038144149
0.54096937 -0.067506284 0.038131993
0.54213011 -0.066887192 0.038511146
0.54241824 -0.065942556 0.038499001
0.54270643 -0.064997919 0.038486857
0.54299462 -0.06405329 0.038474713
0.54415369 -0.063439362 0.038853947
0.54531217 -0.062827498 0.039233197
0.5455997 -0.061884928 0.039221078
0.54588729 -0.060942356 0.03920896
0.54617482 -0.05999979 0.039196841
0.54646236 -0.059057221 0.039184727
0.54761893 -0.058451563 0.039564051
0.54790616 -0.05751003 0.039551947
0.5481934 -0.056568496 0.039539844
0.54848057 -0.055626959 0.03952774
0.54876781 -0.054685418 0.039515633
0.54905504 -0.053743884 0.03950353
0.54847509 -0.052459244 0.039099902
0.54876262 -0.051516674 0.039087784
0.54991668 -0.050919283 0.039467216
0.55020392 -0.04997775 0.039455112
0.55049115 -0.049036216 0.039443009
0.55077833 -0.048094675 0.039430901
0.55106556 -0.047153138 0.039418798
0.5513528 -0.046211604 0.039406694
0.55164003 -0.04527007 0.039394587
0.55192727 -0.044328537 0.039382484
0.55135041 -0.043033563 0.038978722
0.55163801 -0.04209099 0.038966604
0.52456105 -0.13171878 0.039163221
0.52484864 -0.13077623 0.039151102
0.52513617 -0.12983365 0.039138984
0.52542371 -0.12889108 0.039126869
0.52481908 -0.12768818 0.038723238
0.5233233 -0.12622184 0.037928041
0.52272028 -0.12501375 0.037524346
0.52211785 -0.12380361 0.037120607
0.52151608 -0.12259141 0.036716856
0.52180552 -0.12164263 0.036704659
0.52120471 -0.12042733 0.036300872
0.52149445 -0.11947753 0.03628866
0.52178425 -0.11852772 0.036276449
0.52207398 -0.11757792 0.036264237
0.52147472 -0.11635745 0.035860382
0.52176481 -0.1154066 0.035848159
0.52205485 -0.11445577 0.035835933
0.52234489 -0.11350493 0.03582371
0.52263498 -0.1125541 0.035811488
0.52292502 -0.11160326 0.035799261
0.52321506 -0.11065242 0.035787039
0.52350515 -0.10970159 0.035774812
0.52379519 -0.10875075 0.035762589
0.52408522 -0.10779992 0.035750367
0.52437532 -0.10684908 0.03573814
0.52466536 -0.10589824 0.035725918
0.52495545 -0.1049474 0.035713691
0.52524549 -0.10399657 0.035701469
0.52553552 -0.10304573 0.035689246
0.52582562 -0.1020949 0.03567702
0.52611566 -0.10114406 0.035664797
0.52640569 -0.10019322 0.03565257
0.52669579 -0.099242382 0.035640348
0.52698582 -0.098291554 0.035628125
0.52727592 -0.09734071 0.035615899
0.52756596 -0.096389875 0.035603676
0.52785599 -0.095439039 0.035591453
0.52814609 -0.094488204 0.035579227
0.52843612 -0.093537368 0.035567004
0.5296073 -0.092883043 0.035946757
0.52989703 -0.091933236 0.035934545
0.53018677 -0.090983436 0.035922334
0.53047651 -0.090033635 0.035910122
0.53076625 -0.089083828 0.035897914
0.53193551 -0.088435702 0.036277745
0.53222495 -0.08748693 0.036265548
0.53251433 -0.086538166 0.036253352
0.53280377 -0.085589394 0.036241151
0.53309321 -0.084640622 0.036228955
0.53338265 -0.083691858 0.036216758
0.53367209 -0.082743086 0.036204562
0.5348388 -0.08210323 0.0365845
0.53512794 -0.081155494 0.036572315
0.53541702 -0.080207758 0.036560129
0.53570616 -0.079260021 0.036547948
0.53599524 -0.078312285 0.036535762
0.5371601 -0.077678628 0.036915794
0.53832436 -0.07704705 0.037295841
0.53861284 -0.076101385 0.037283685
0.53890133 -0.075155713 0.037271526
0.54006428 -0.074528262 0.037651639
0.54035246 -0.073583625 0.037639495
0.54064059 -0.072638988 0.037627351
0.54092878 -0.071694352 0.037615206
0.54121697 -0.070749715 0.037603062
0.54237801 -0.070128463 0.037983239
0.54266584 -0.069184862 0.037971109
0.54295373 -0.068241261 0.037958976
0.54324156 -0.06729766 0.037946846
0.54352939 -0.066354059 0.037934717
0.54381728 -0.065410458 0.037922584
0.54410511 -0.064466849 0.037910454
0.54526365 -0.063853867 0.038290739
0.54555118 -0.062911294 0.038278621
0.54583871 -0.061968729 0.038266502
0.54612625 -0.061026156 0.038254384
0.54641378 -0.06008359 0.038242266
0.54670131 -0.059141021 0.038230147
0.54785764 -0.05853527 0.038610525
0.54814488 -0.057593737 0.038598422
0.54843211 -0.056652203 0.038586318
0.54871935 -0.05571067 0.038574211
0.54900652 -0.054769129 0.038562108
0.54929376 -0.053827595 0.038550004
0.54958099 -0.052886061 0.038537897
0.54986823 -0.051944524 0.038525794
0.5501554 -0.05100299 0.03851369
0.55044264 -0.050061457 0.038501587
0.55072987 -0.049119923 0.03848948
0.55101711 -0.048178382 0.038477376
0.55130434 -0.047236849 0.038465273
0.55159152 -0.046295315 0.038453165
0.55187875 -0.045353781 0.038441062
0.55216599 -0.044412244 0.038428959
0.55158943 -0.043117363 0.038024146
0.55187696 -0.04217479 0.038012028
0.55216449 -0.041232225 0.037999909
0.52719289 -0.1335104 0.039398264
0.52747953 -0.13257094 0.039386187
0.52687329 -0.13137433 0.038981587
0.52626765 -0.13017564 0.038576946
0.52655488 -0.12923409 0.038564838
0.52595019 -0.12803231 0.038160175
0.52445465 -0.12656718 0.037362903
0.52385157 -0.12536025 0.036958173
0.52324909 -0.12415121 0.036553409
0.52353787 -0.12320451 0.036541238
0.52382666 -0.12225781 0.036529068
0.5241155 -0.12131111 0.036516897
0.52351463 -0.12009693 0.036112059
0.52380371 -0.11914919 0.036099873
0.52409285 -0.11820146 0.036087688
0.52349323 -0.11698314 0.035682809
0.52378267 -0.11603437 0.035670612
0.52407211 -0.1150856 0.035658415
0.52436155 -0.11413683 0.035646215
0.52465093 -0.11318806 0.035634018
0.52494037 -0.11223929 0.035621822
0.52522981 -0.11129052 0.035609625
0.52551925 -0.11034175 0.035597425
0.52580869 -0.10939299 0.035585228
0.52609807 -0.10844421 0.035573032
0.52638751 -0.10749544 0.035560835
0.52667695 -0.10654668 0.035548635
0.52696639 -0.10559791 0.035536438
0.52725583 -0.10464913 0.035524242
0.52754521 -0.10370037 0.035512045
0.52783465 -0.1027516 0.035499845
0.52812409 -0.10180283 0.035487648
0.52841353 -0.10085406 0.035475451
0.52870291 -0.09990529 0.035463255
0.52899235 -0.098956518 0.035451055
0.5292818 -0.098007753 0.035438858
0.52957124 -0.097058982 0.035426661
0.52986068 -0.09611021 0.035414465
0.53015006 -0.095161438 0.035402264
0.5304395 -0.094212674 0.035390068
0.53160977 -0.093560316 0.035770897
0.53189886 -0.092612579 0.035758715
0.532188 -0.091664843 0.03574653
0.53247708 -0.090717107 0.035734344
0.53276622 -0.089769371 0.035722159
0.53393459 -0.089123227 0.036103085
0.53422338 -0.088176519 0.036090914
0.53451216 -0.087229818 0.036078744
0.53480095 -0.086283118 0.036066573
0.53508979 -0.085336417 0.036054399
0.53537858 -0.084389709 0.036042228
0.53566736 -0.083443008 0.036030058
0.53595614 -0.082496308 0.036017887
0.53624493 -0.081549607 0.036005717
0.53653377 -0.080602899 0.035993546
0.53769869 -0.079968132 0.036374602
0.53798717 -0.079022467 0.036362443
0.53915113 -0.078390785 0.03674354
0.53943932 -0.077446148 0.036731396
0.53972745 -0.076501511 0.036719251
0.54089016 -0.075873971 0.037100401
0.54117799 -0.074930362 0.037088268
0.54146588 -0.073986769 0.037076138
0.54262727 -0.073363349 0.037457339
0.54291481 -0.072420783 0.037445221
0.54145646 -0.070833698 0.036646385
0.54261726 -0.070212357 0.037027612
0.54290509 -0.069268756 0.037015483
0.54319298 -0.068325154 0.03700335
0.54348081 -0.067381553 0.03699122
0.54376864 -0.066437952 0.036979087
0.54405653 -0.065494351 0.036966957
0.54434437 -0.064550743 0.036954828
0.54550266 -0.063937664 0.037336159
0.5466603 -0.063326657 0.037717521
0.54694754 -0.062385123 0.037705418
0.54723471 -0.06144359 0.037693314
0.54752195 -0.060502049 0.037681207
0.54780918 -0.059560515 0.037669104
0.54896498 -0.058955718 0.038050558
0.54925191 -0.058015216 0.03803847
0.54953879 -0.057074714 0.038026378
0.54982573 -0.056134213 0.038014285
0.55011261 -0.055193719 0.038002197
0.55039948 -0.054253217 0.037990104
0.55068642 -0.053312715 0.037978012
0.55010694 -0.052028235 0.037572268
0.55039418 -0.051086701 0.037560165
0.55068141 -0.050145168 0.037548058
0.55096859 -0.049203631 0.037535954
0.55125582 -0.048262089 0.037523851
0.55154306 -0.047320556 0.037511744
0.55183029 -0.046379022 0.03749964
0.55211747 -0.045437489 0.037487537
0.5524047 -0.044495955 0.037475429
0.55182844 -0.043201163 0.03706957
0.55211598 -0.04225859 0.037057452
