# .PCD v0.7 - Point Cloud Data file format
VERSION 0.7
FIELDS x y z
SIZE 4 4 4
TYPE F F F
COUNT 1 1 1
WIDTH 1380
HEIGHT 1
VIEWPOINT 0 0 0 1 0 0 0
POINTS 1380
DATA ascii
0.34289157 0.055595048 0.094238617
0.34259859 0.055218909 0.094232626
0.34230563 0.05484277 0.094226643
0.34201267 0.054466642 0.094220653
0.34222543 0.053250164 0.09380725
0.34193182 0.052873179 0.093801253
0.34163821 0.05249618 0.093795247
0.34134457 0.052119195 0.09378925
0.34105095 0.051742207 0.093783244
0.34075734 0.051365223 0.093777247
0.34046373 0.050988238 0.093771242
0.34017009 0.05061125 0.093765244
0.33987647 0.050234266 0.093759246
0.34008262 0.049009252 0.093345694
0.33978835 0.048631422 0.093339682
0.33949405 0.048253577 0.093333669
0.33919978 0.047875747 0.093327649
0.33890548 0.047497902 0.093321636
0.33861122 0.047120072 0.093315624
0.33831692 0.046742227 0.093309611
0.33802265 0.046364397 0.093303591
0.33772835 0.045986552 0.093297578
0.33743405 0.04560871 0.093291566
0.33713979 0.045230877 0.093285553
0.33684549 0.044853032 0.093279533
0.33704302 0.043616984 0.092865825
0.33674806 0.043238293 0.092859797
0.3369436 0.041999698 0.092446037
0.33664799 0.041620161 0.092439994
0.33635238 0.041240614 0.092433952
0.33654529 0.039998591 0.092020139
0.33624899 0.039618198 0.092014082
0.33643988 0.038373642 0.091600232
0.33614296 0.037992403 0.09159416
0.33584601 0.037611153 0.091588095
0.33554909 0.037229914 0.091582023
0.33525217 0.036848675 0.091575958
0.33495522 0.036467426 0.091569886
0.33465827 0.036086187 0.091563821
0.33436134 0.035704948 0.091557749
0.33406439 0.035323698 0.091551684
0.33424869 0.034070633 0.091137685
0.33347055 0.034561221 0.091539547
0.3331736 0.034179982 0.091533475
0.33287665 0.033798732 0.091527402
0.33257973 0.033417493 0.091521338
0.33228281 0.033036254 0.091515265
0.33103141 0.034408886 0.092325203
0.33025923 0.03490714 0.092727177
0.32966936 0.034149762 0.092715122
0.32889983 0.034651399 0.09311714
0.32813162 0.035154771 0.093519203
0.327838 0.034777783 0.093513206
0.32754439 0.034400798 0.0935072
0.32677886 0.034907546 0.093909308
0.32695714 0.033646815 0.093495198
0.32666352 0.03326983 0.0934892
0.32636991 0.032892842 0.093483195
0.39960602 0.084028974 0.082394779
0.39929318 0.083627313 0.082388386
0.39898035 0.083225645 0.082381994
0.39807326 0.083550051 0.082782209
0.39776108 0.083149232 0.082775831
0.39685601 0.083476178 0.083176084
0.39654449 0.083076209 0.083169714
0.39533052 0.083006606 0.083563663
0.39501965 0.082607493 0.083557308
0.39411923 0.082940392 0.08395765
0.39380902 0.082542129 0.083951317
0.39349884 0.082143866 0.083944976
0.39260101 0.082480185 0.084345385
0.39229149 0.082082771 0.08433906
0.39198196 0.081685364 0.084332734
0.39167243 0.08128795 0.084326401
0.39077798 0.081628501 0.08472687
0.3904691 0.081231944 0.084720559
0.39016023 0.080835387 0.084714249
0.3892684 0.081179343 0.085114762
0.38837788 0.08152502 0.08551532
0.38807034 0.081130162 0.085509039
0.38776281 0.080735311 0.085502751
0.38687497 0.081084371 0.085903354
0.3865681 0.080690369 0.085897081
0.36725444 0.081206366 0.092621148
0.36695883 0.080826826 0.092615105
0.36666322 0.080447286 0.092609063
0.36551622 0.080463618 0.093004368
0.36522126 0.080084927 0.092998341
0.36492634 0.079706237 0.092992313
0.36463138 0.079327546 0.092986286
0.36433643 0.078948855 0.092980258
0.36404148 0.078570172 0.092974231
0.36374655 0.078191482 0.092968203
0.3634516 0.077812791 0.092962176
0.36315665 0.0774341 0.092956141
0.36286169 0.07705541 0.092950113
0.36256677 0.076676719 0.092944086
0.36227182 0.076298036 0.092938058
0.36197686 0.075919345 0.092932031
0.36168191 0.075540654 0.092926003
0.36138695 0.075161964 0.092919976
0.36109203 0.074783273 0.092913948
0.36079708 0.07440459 0.09290792
0.35995761 0.07481578 0.093309507
0.35966334 0.074437931 0.093303494
0.35936904 0.074060105 0.093297482
0.35907477 0.073682256 0.093291469
0.35878047 0.07330443 0.093285449
0.35848621 0.072926581 0.093279436
0.35819191 0.07254874 0.093273424
0.35789764 0.072170906 0.093267411
0.35760334 0.071793064 0.093261391
0.35730907 0.071415231 0.093255378
0.35647687 0.071835794 0.093657129
0.35618323 0.071458809 0.093651131
0.35588962 0.071081825 0.093645126
0.35559601 0.07070484 0.093639128
0.35530239 0.070327848 0.093633123
0.35500875 0.069950864 0.093627125
0.35471514 0.069573864 0.093621127
0.35442153 0.06919688 0.093615122
0.35412788 0.068819895 0.093609124
0.35330236 0.069248959 0.094010994
0.3530094 0.068872817 0.094005011
0.35271645 0.068496689 0.093999021
0.35242349 0.068120547 0.09399303
0.3521305 0.067744412 0.093987048
0.35183758 0.067368276 0.093981057
0.35154459 0.066992126 0.093975075
0.35125163 0.066615999 0.093969084
0.35095868 0.066239856 0.093963094
0.35066572 0.065863721 0.093957111
0.35037276 0.065487593 0.093951121
0.3500798 0.065111451 0.093945138
0.34978685 0.064735308 0.093939148
0.34949389 0.064359173 0.093933158
0.34920093 0.063983046 0.093927175
0.34890798 0.063606903 0.093921185
0.34861502 0.06323076 0.093915194
0.34832206 0.062854633 0.093909211
0.34802911 0.062478494 0.093903221
0.34773612 0.062102355 0.093897238
0.34744319 0.061726227 0.093891248
0.34715024 0.061350085 0.093885258
0.34685725 0.060973946 0.093879275
0.34656432 0.060597818 0.093873285
0.34627134 0.06022168 0.093867294
0.34597838 0.059845537 0.093861312
0.34568542 0.059469409 0.093855321
0.34539247 0.05909327 0.093849339
0.34509951 0.058717128 0.093843348
0.34480655 0.058341 0.093837358
0.3445136 0.057964861 0.093831375
0.34422064 0.057588723 0.093825385
0.34392768 0.05721258 0.093819402
0.34363472 0.056836452 0.093813412
0.34334177 0.056460313 0.093807422
0.34304881 0.056084171 0.093801439
0.34275585 0.055708043 0.093795449
0.3424629 0.055331904 0.093789458
0.34216994 0.054955766 0.093783475
0.34187698 0.054579634 0.093777485
0.34208941 0.053363413 0.093363084
0.3417958 0.052986428 0.093357079
0.34150219 0.052609432 0.093351081
0.34120855 0.052232444 0.093345076
0.34091493 0.05185546 0.093339078
0.34062132 0.051478472 0.09333308
0.34032771 0.051101487 0.093327075
0.34053487 0.049878448 0.092912555
0.3402406 0.049500603 0.092906535
0.3399463 0.049122758 0.092900522
0.33965203 0.048744928 0.092894509
0.33935773 0.048367083 0.092888497
0.33906347 0.047989253 0.092882477
0.33876917 0.047611408 0.092876464
0.3384749 0.047233578 0.092870452
0.3381806 0.046855733 0.092864439
0.3378863 0.046477903 0.092858419
0.33808616 0.045245502 0.092443757
0.33779123 0.044866815 0.092437729
0.33749628 0.044488125 0.092431702
0.33720133 0.044109434 0.092425674
0.33690637 0.043730747 0.092419647
0.33661145 0.043352056 0.092413619
0.33680665 0.042113714 0.09199886
0.33651105 0.041734178 0.091992818
0.33670431 0.040493257 0.091578014
0.33640802 0.040112864 0.091571957
0.33611175 0.039732471 0.0915659
0.33630234 0.038488172 0.091151051
0.33600542 0.038106933 0.091144979
0.33570847 0.037725683 0.091138914
0.33589643 0.036477972 0.090723991
0.33559883 0.036095887 0.090717912
0.33530122 0.035713792 0.090711825
0.33500364 0.035331693 0.090705745
0.33470604 0.034949597 0.090699665
0.33440843 0.034567513 0.090693578
0.33411083 0.034185417 0.090687498
0.33381325 0.033803321 0.090681419
0.33303607 0.034294508 0.091084294
0.33273911 0.033913258 0.091078222
0.33244219 0.03353202 0.091072157
0.33214524 0.033150781 0.091066085
0.33089447 0.034522902 0.091878027
0.33059886 0.034143366 0.091871984
0.32982767 0.034642212 0.092274971
0.33000764 0.033384286 0.091859907
0.32923779 0.033884834 0.092262916
0.32846922 0.034387074 0.092665955
0.32817495 0.034009229 0.092659943
0.32788065 0.033631399 0.09265393
0.32758638 0.033253554 0.09264791
0.32729208 0.032875724 0.092641897
0.32699782 0.032497879 0.092635885
0.39946112 0.084149644 0.081921533
0.39914826 0.083747976 0.08191514
0.39883542 0.083346307 0.081908748
0.39792866 0.08367046 0.082309969
0.39761645 0.083269641 0.082303591
0.39671168 0.083596326 0.082704842
0.39640018 0.083196364 0.082698472
0.39518651 0.0831265 0.083093427
0.39487565 0.082727395 0.083087072
0.39397553 0.083060034 0.08348842
0.39366534 0.08266177 0.083482079
0.39335513 0.082263507 0.083475739
0.39245763 0.082599573 0.083877154
0.39214811 0.082202159 0.083870821
0.39183858 0.081804752 0.083864495
0.39152905 0.081407331 0.08385817
0.39063489 0.081747636 0.084259644
0.39032602 0.081351079 0.084253326
0.39001715 0.080954522 0.084247015
0.38912565 0.081298217 0.084648542
0.38823542 0.081643641 0.085050099
0.38792789 0.081248783 0.085043818
0.38762033 0.080853924 0.085037529
0.38673279 0.081202731 0.085439131
0.38642591 0.080808729 0.085432857
0.36685434 0.082470827 0.092588335
0.36711749 0.081320383 0.092173971
0.36682189 0.080940843 0.092167929
0.36567453 0.080956064 0.092564218
0.3653796 0.080577381 0.09255819
0.36508465 0.08019869 0.092552163
0.36478969 0.07982 0.092546135
0.36449474 0.079441309 0.092540108
0.36419982 0.079062618 0.09253408
0.36390486 0.078683935 0.092528053
0.36360991 0.078305244 0.092522025
0.36331496 0.077926554 0.092515998
0.36302 0.077547863 0.09250997
0.36272508 0.077169172 0.092503943
0.36243013 0.076790482 0.092497915
0.36213517 0.076411799 0.092491888
0.36184022 0.076033108 0.09248586
0.36154529 0.075654417 0.092479825
0.36125034 0.075275727 0.092473798
0.36095539 0.074897036 0.09246777
0.36066043 0.074518345 0.092461742
0.36036551 0.074139662 0.092455715
0.36007056 0.073760971 0.092449687
0.35923272 0.074173607 0.092852309
0.35893843 0.073795766 0.092846297
0.35864416 0.073417932 0.092840277
0.35834986 0.073040091 0.092834264
0.35805559 0.072662249 0.092828251
0.35776129 0.072284415 0.092822239
0.35746703 0.071906574 0.092816219
0.35717273 0.07152874 0.092810206
0.35634086 0.071949042 0.093212962
0.35604721 0.071572058 0.093206957
0.3557536 0.071195073 0.093200959
0.35545999 0.070818089 0.093194954
0.35516638 0.070441104 0.093188956
0.35487273 0.070064113 0.093182959
0.35457912 0.069687121 0.093176953
0.35428551 0.069310129 0.093170956
0.35399187 0.068933144 0.093164951
0.35316664 0.069361955 0.093567826
0.35287368 0.068985812 0.093561843
0.35258073 0.068609685 0.093555853
0.35228777 0.068233542 0.09354987
0.35199481 0.0678574 0.09354388
0.35170186 0.067481272 0.093537889
0.35140887 0.067105122 0.093531907
0.35111594 0.066728994 0.093525916
0.35082296 0.066352852 0.093519926
0.35053 0.065976717 0.093513943
0.35023704 0.065600589 0.093507953
0.34994408 0.065224446 0.09350197
0.34965113 0.064848304 0.09349598
0.34935817 0.064472169 0.09348999
0.34906521 0.064096041 0.093484007
0.34877226 0.063719898 0.093478017
0.3484793 0.063343756 0.093472034
0.34818634 0.062967628 0.093466043
0.34789339 0.062591493 0.093460053
0.34760043 0.062215351 0.09345407
0.34730747 0.061839223 0.09344808
0.34701452 0.06146308 0.09344209
0.34672156 0.061086942 0.093436107
0.3464286 0.060710814 0.093430117
0.34613565 0.060334671 0.093424134
0.34584269 0.059958532 0.093418144
0.34554973 0.059582405 0.093412153
0.34525678 0.059206266 0.093406171
0.34496379 0.058830123 0.09340018
0.34467086 0.058453996 0.09339419
0.34437788 0.058077857 0.093388207
0.34408492 0.057701714 0.093382217
0.34379196 0.057325576 0.093376234
0.343499 0.056949448 0.093370244
0.34320605 0.056573309 0.093364254
0.34291309 0.056197166 0.093358271
0.34262013 0.055821039 0.093352281
0.34232718 0.0554449 0.093346298
0.34203422 0.055068757 0.093340307
0.34174126 0.05469263 0.093334317
0.3419534 0.053476665 0.09291891
0.34165978 0.053099681 0.092912912
0.34136617 0.052722681 0.092906907
0.34107253 0.052345697 0.092900909
0.34077892 0.051968709 0.092894912
0.3404853 0.051591724 0.092888907
0.34019169 0.051214736 0.092882909
0.34039855 0.049991954 0.092467383
0.34010425 0.049614109 0.092461362
0.33980998 0.049236264 0.09245535
0.33951569 0.048858434 0.092449337
0.33922142 0.048480589 0.092443325
0.33892712 0.048102759 0.092437305
0.33863285 0.047724914 0.092431292
0.33833855 0.047347084 0.092425279
0.33853942 0.046116643 0.092009641
0.3382445 0.045737956 0.092003614
0.33794954 0.045359265 0.091997586
0.33765459 0.044980574 0.091991559
0.33735964 0.044601887 0.091985524
0.33706468 0.044223197 0.091979496
0.33726093 0.042986814 0.091563769
0.33696532 0.042607266 0.091557726
0.3371596 0.041368317 0.091141939
0.33686334 0.040987924 0.091135889
0.33656704 0.040607531 0.091129832
0.33627078 0.040227138 0.091123775
0.33597451 0.039846744 0.091117717
0.33616477 0.038602702 0.090701863
0.33586785 0.038221464 0.090695798
0.3355709 0.03784021 0.090689726
0.33575857 0.036592755 0.090273805
0.33546096 0.036210671 0.090267725
0.33516338 0.035828575 0.090261646
0.33486578 0.03544648 0.090255558
0.33456817 0.035064381 0.090249479
0.33427057 0.034682296 0.090243399
0.33397299 0.034300201 0.090237312
0.33367538 0.033918105 0.090231232
0.3328985 0.034409039 0.090635106
0.33260155 0.034027789 0.090629041
0.33230463 0.03364655 0.090622969
0.33200771 0.033265311 0.090616904
0.33123416 0.033760481 0.091020837
0.33093789 0.033380102 0.09101478
0.33016631 0.03387785 0.091418765
0.3298707 0.033498302 0.091412723
0.32910115 0.033998594 0.091816738
0.32880619 0.033619907 0.091810711
0.3280386 0.034122735 0.092214771
0.32774433 0.033744905 0.092208758
0.32745004 0.03336706 0.092202738
0.3266851 0.033873316 0.092606865
0.32686147 0.032611385 0.092190713
0.3265672 0.032233544 0.0921847
0.39903274 0.085394129 0.081863247
0.39931619 0.084270306 0.081448287
0.39900336 0.083868645 0.081441894
0.39869049 0.083466969 0.081435502
0.39778402 0.083790869 0.081837721
0.39747185 0.08339005 0.081831343
0.39656737 0.083716482 0.0822336
0.39625585 0.08331652 0.08222723
0.39504251 0.083246395 0.082623184
0.39473167 0.08284729 0.082616836
0.39383182 0.083179675 0.083019182
0.39352164 0.082781412 0.083012842
0.39321145 0.082383148 0.083006501
0.39231426 0.082718953 0.083408915
0.39200473 0.082321547 0.083402589
0.3916952 0.081924133 0.083396263
0.39138567 0.081526719 0.083389938
0.39107615 0.081129313 0.083383612
0.39018294 0.081470206 0.0837861
0.38987407 0.081073649 0.083779782
0.38898286 0.081417099 0.084182315
0.38809296 0.081762262 0.084584877
0.3877854 0.081367403 0.084578589
0.38747787 0.080972545 0.0845723
0.38659063 0.081321098 0.084974907
0.38628376 0.080927096 0.084968641
0.3667177 0.08258459 0.092142157
0.36698055 0.081434399 0.091726795
0.36612779 0.081827208 0.092130102
0.36583287 0.081448518 0.092124075
0.36553791 0.081069827 0.092118047
0.36524296 0.080691136 0.09211202
0.36465305 0.079933763 0.092099965
0.36380494 0.080332525 0.092503369
0.36406317 0.079176381 0.09208791
0.36376822 0.078797691 0.092081882
0.36347327 0.078419 0.092075855
0.36317834 0.078040317 0.09206982
0.36288339 0.077661626 0.092063792
0.36258844 0.077282935 0.092057765
0.36229348 0.076904245 0.092051737
0.36199856 0.076525554 0.092045709
0.3617036 0.076146871 0.092039682
0.36140865 0.07576818 0.092033654
0.3611137 0.07538949 0.092027627
0.36081874 0.075010799 0.092021599
0.36052382 0.074632108 0.092015572
0.36022887 0.074253418 0.092009544
0.35993391 0.073874734 0.092003517
0.35909641 0.074287117 0.092407137
0.35880211 0.073909275 0.092401125
0.35850784 0.073531441 0.092395104
0.35821354 0.0731536 0.092389092
0.35791925 0.072775751 0.092383079
0.35762498 0.072397925 0.092377067
0.35733068 0.072020076 0.092371047
0.35703641 0.07164225 0.092365034
0.35674211 0.071264401 0.092359021
0.35644785 0.070886567 0.092353009
0.35561758 0.071308322 0.092756785
0.35532397 0.070931338 0.092750788
0.35503036 0.070554353 0.092744783
0.35473672 0.070177369 0.092738785
0.3544431 0.069800369 0.092732787
0.35414949 0.069423385 0.092726782
0.35385585 0.069046393 0.092720784
0.35303092 0.069474943 0.093124665
0.35273796 0.069098808 0.093118675
0.35244501 0.06872268 0.093112685
0.35215205 0.068346538 0.093106702
0.35185909 0.067970395 0.093100712
0.35156614 0.067594267 0.093094721
0.35127318 0.067218117 0.093088739
0.35098022 0.06684199 0.093082748
0.35068727 0.066465847 0.093076766
0.35039431 0.066089712 0.093070775
0.35010135 0.065713584 0.093064785
0.34980839 0.065337442 0.093058802
0.34951541 0.064961299 0.093052812
0.34922245 0.064585164 0.093046822
0.34892952 0.064209037 0.093040839
0.34863654 0.063832894 0.093034849
0.34834358 0.063456751 0.093028866
0.34805062 0.063080624 0.093022875
0.34775767 0.062704481 0.093016885
0.34746471 0.062328346 0.093010902
0.34717175 0.061952215 0.093004912
0.3468788 0.061576076 0.092998929
0.34658584 0.061199937 0.092992939
0.34629288 0.060823809 0.092986949
0.34599993 0.060447667 0.092980966
0.34570697 0.060071528 0.092974976
0.34541401 0.0596954 0.092968985
0.34512106 0.059319258 0.092963003
0.3448281 0.058943119 0.092957012
0.34453514 0.058566991 0.09295103
0.34424219 0.058190852 0.092945039
0.34394923 0.05781471 0.092939049
0.34365624 0.057438571 0.092933066
0.34336331 0.057062443 0.092927076
0.34307033 0.056686301 0.092921086
0.34277737 0.056310162 0.092915103
0.34248441 0.055934034 0.092909113
0.34219146 0.055557895 0.09290313
0.3418985 0.055181753 0.092897139
0.34160554 0.054805625 0.092891149
0.34181738 0.053589914 0.092474744
0.34152377 0.05321293 0.092468739
0.34123015 0.052835934 0.092462741
0.34093651 0.052458946 0.092456736
0.3406429 0.052081961 0.092450738
0.34034929 0.051704973 0.09244474
0.3405565 0.05048329 0.092028223
0.34026223 0.05010546 0.09202221
0.33996794 0.049727615 0.09201619
0.33967364 0.049349774 0.092010178
0.33937937 0.04897194 0.092004165
0.33958259 0.047745164 0.091587581
0.33928764 0.047366474 0.091581553
0.33899269 0.046987783 0.091575518
0.33869773 0.046609096 0.091569491
0.33840281 0.046230406 0.091563463
0.33810785 0.045851715 0.091557436
0.33830643 0.044618994 0.091140755
0.33801082 0.044239447 0.091134712
0.33771521 0.043859914 0.09112867
0.3374196 0.043480366 0.091122627
0.33712399 0.04310083 0.091116592
0.33731863 0.041862983 0.090699814
0.33702236 0.04148259 0.090693757
0.33672607 0.041102197 0.090687707
0.3364298 0.040721804 0.09068165
0.33662111 0.039479706 0.09026482
0.33632416 0.039098468 0.090258747
0.33602723 0.038717229 0.090252683
0.33573028 0.03833599 0.09024661
0.33543336 0.03795474 0.090240546
0.3356207 0.036707539 0.089823619
0.33532313 0.036325455 0.089817539
0.33502552 0.035943359 0.089811459
0.33472791 0.035561264 0.089805372
0.33443031 0.035179168 0.089799292
0.33413273 0.034797084 0.089793213
0.33383512 0.034414984 0.089787126
0.33353752 0.034032889 0.089781046
0.33276096 0.034523569 0.090185925
0.33246401 0.034142319 0.090179853
0.33216706 0.03376108 0.090173788
0.33187014 0.033379842 0.090167716
0.33109692 0.033874754 0.090572655
0.33080065 0.033494376 0.090566605
0.33050436 0.033113983 0.090560548
0.33020809 0.032733589 0.090554491
0.3289645 0.034112357 0.091370568
0.32866958 0.033733666 0.09136454
0.32837462 0.033354979 0.091358513
0.32807967 0.032976288 0.091352485
0.32731372 0.033480566 0.091757566
0.32748976 0.032218911 0.09134043
0.32672516 0.032724891 0.09174554
0.32643086 0.03234705 0.091739528
0.32660493 0.031082842 0.09132234
0.39976656 0.083668239 0.080565467
0.39885843 0.083989307 0.080968648
0.39854556 0.083587639 0.080962256
0.39763942 0.083911277 0.081365481
0.39732724 0.083510458 0.081359103
0.39642307 0.083836637 0.081762359
0.39611155 0.083436668 0.081755988
0.3948985 0.083366297 0.082152948
0.39458767 0.082967184 0.082146592
0.39368814 0.083299316 0.082549945
0.39337796 0.082901053 0.082543604
0.39306775 0.08250279 0.082537264
0.39275756 0.082104526 0.082530923
0.39244738 0.081706263 0.082524583
0.39155179 0.082043521 0.082928032
0.39124227 0.081646107 0.082921706
0.39093274 0.081248693 0.082915381
0.39003986 0.081589341 0.083318867
0.38973099 0.081192777 0.083312556
0.38884008 0.081535973 0.083716087
0.38795048 0.081880882 0.084119648
0.38764295 0.081486017 0.084113367
0.36654803 0.081168875 0.091273576
0.36625239 0.080789335 0.091267534
0.36510631 0.080804899 0.091665842
0.36425719 0.081201702 0.092070222
0.36451644 0.080047525 0.091653787
0.36422148 0.079668835 0.091647759
0.36392653 0.079290144 0.091641732
0.36363161 0.078911453 0.091635704
0.36333665 0.078532763 0.091629677
0.3630417 0.07815408 0.091623649
0.36274675 0.077775389 0.091617614
0.36245179 0.077396698 0.091611587
0.36215687 0.077018008 0.091605559
0.36186191 0.076639317 0.091599531
0.36156696 0.076260626 0.091593504
0.36127201 0.075881943 0.091587476
0.36097708 0.075503252 0.091581449
0.36068213 0.075124562 0.091575421
0.36038718 0.074745871 0.091569394
0.36009222 0.07436718 0.091563366
0.35979727 0.07398849 0.091557339
0.35950235 0.073609807 0.091551311
0.35920739 0.073231116 0.091545284
0.35891244 0.072852425 0.091539256
0.35861748 0.072473735 0.091533221
0.35778293 0.072889261 0.091937907
0.35748866 0.072511427 0.091931887
0.35719436 0.072133586 0.091925874
0.3569001 0.071755752 0.091919862
0.3566058 0.071377911 0.091913849
0.35631153 0.071000077 0.091907829
0.35548156 0.071421571 0.092312619
0.35518795 0.071044587 0.092306621
0.35489434 0.070667602 0.092300616
0.3546007 0.070290618 0.092294618
0.35430709 0.069913618 0.092288613
0.35401347 0.069536634 0.092282616
0.35371983 0.069159649 0.09227661
0.35342622 0.068782657 0.092270613
0.35313261 0.068405673 0.092264615
0.35283899 0.068028688 0.09225861
0.35254535 0.067651704 0.092252612
0.35225174 0.067274719 0.092246607
0.3519581 0.06689772 0.092240609
0.35166448 0.066520736 0.092234604
0.35137087 0.066143751 0.092228606
0.35107726 0.065766759 0.092222601
0.35078362 0.065389767 0.092216603
0.35049 0.065012775 0.092210606
0.35019639 0.064635791 0.092204601
0.34990275 0.064258806 0.092198603
0.34908676 0.064698152 0.092603661
0.34931552 0.063504837 0.0921866
0.34902191 0.063127846 0.092180595
0.34872827 0.062750861 0.092174597
0.34843466 0.062373865 0.092168592
0.34814104 0.061996881 0.092162594
0.3478474 0.061619893 0.092156596
0.34755379 0.061242908 0.092150591
0.34726018 0.06086592 0.092144594
0.34645012 0.061312933 0.092549771
0.34615716 0.060936801 0.092543788
0.34586421 0.060560662 0.092537798
0.34557125 0.060184523 0.092531808
0.34527829 0.059808396 0.092525825
0.34498534 0.059432253 0.092519835
0.34469238 0.059056114 0.092513852
0.34439942 0.058679987 0.092507862
0.34410647 0.058303844 0.092501871
0.34381351 0.057927705 0.092495888
0.34352055 0.057551567 0.092489898
0.3432276 0.057175439 0.092483908
0.34293464 0.056799296 0.092477925
0.34264168 0.056423157 0.092471935
0.34234872 0.05604703 0.092465952
0.34205577 0.055670887 0.092459962
0.34176278 0.055294748 0.092453972
0.341975 0.054080151 0.092036575
0.34168136 0.053703167 0.09203057
0.34138775 0.053326178 0.092024572
0.34109414 0.052949183 0.092018574
0.34130302 0.051730316 0.091601089
0.34100875 0.051352471 0.091595076
0.34071445 0.050974641 0.091589063
0.34042019 0.050596796 0.091583051
0.34012589 0.050218966 0.091577031
0.33983162 0.049841121 0.091571018
0.33953732 0.04946328 0.091565005
0.3397409 0.048237614 0.09114743
0.33944595 0.047858927 0.091141403
0.339151 0.047480237 0.091135375
0.33885607 0.047101546 0.091129348
0.33905631 0.04587163 0.090711705
0.3387607 0.045492083 0.090705663
0.33846509 0.045112547 0.090699621
0.33816952 0.044733014 0.090693578
0.33787388 0.044353466 0.090687536
0.33757827 0.04397393 0.090681493
0.33728266 0.043594383 0.090675451
0.33698705 0.043214846 0.090669408
0.33718139 0.041977257 0.090251632
0.33688512 0.041596863 0.090245582
0.33658883 0.04121647 0.090239525
0.33678049 0.039975487 0.089821704
0.33648354 0.039594237 0.089815639
0.33618662 0.039212998 0.089809567
0.33588967 0.038831759 0.089803502
0.33559275 0.03845052 0.08979743
0.3352958 0.038069271 0.089791365
0.33499888 0.037688032 0.089785293
0.33518526 0.036440238 0.089367352
0.334405 0.036925539 0.089773156
0.33459005 0.035676047 0.089355193
0.33429244 0.035293952 0.089349106
0.33351418 0.035781812 0.089754947
0.33369726 0.034529768 0.089336947
0.33292031 0.035019334 0.08974281
0.33310205 0.033765577 0.08932478
0.33232644 0.034256846 0.089730673
0.33202952 0.033875607 0.089724608
0.3317326 0.033494368 0.089718536
0.33143565 0.033113118 0.089712471
0.33066338 0.033608649 0.090118423
0.33036712 0.033228256 0.090112366
0.33007085 0.032847863 0.090106308
0.32930121 0.033346802 0.090512328
0.32947829 0.032087076 0.090094201
0.32823798 0.033468742 0.090912335
0.32794303 0.033090051 0.090906307
0.32811877 0.031828638 0.090488166
0.32735315 0.032332674 0.090894252
0.32658884 0.0328384 0.091300368
0.32629454 0.032460555 0.091294348
0.32646829 0.031196605 0.090876162
0.32617337 0.030817915 0.090870135
0.39659026 0.084356748 0.081297487
0.39627877 0.083956786 0.081291117
0.39596725 0.083556823 0.081284754
0.3947545 0.083486192 0.081682712
0.39444366 0.083087087 0.081676356
0.39413279 0.082687974 0.081670001
0.39323425 0.083020702 0.082074367
0.39292404 0.082622431 0.082068026
0.39261386 0.082224168 0.082061693
0.39230368 0.081825905 0.082055353
0.39140841 0.082162909 0.0824598
0.39109889 0.081765495 0.082453474
0.39078936 0.081368081 0.082447149
0.38989678 0.081708468 0.082851633
0.38958791 0.081311911 0.082845323
0.36611548 0.080903351 0.090820357
0.36581987 0.080523819 0.090814315
0.36412084 0.081315212 0.09162505
0.36437979 0.080161288 0.091207616
0.36408484 0.079782598 0.091201581
0.36378992 0.079403907 0.091195554
0.36349496 0.079025216 0.091189526
0.36320001 0.078646526 0.091183499
0.36290506 0.078267835 0.091177471
0.36261013 0.077889152 0.091171443
0.36231518 0.077510461 0.091165416
0.36202022 0.077131771 0.091159388
0.36172527 0.07675308 0.091153361
0.36143035 0.076374389 0.091147333
0.36113539 0.075995699 0.091141306
0.36084044 0.075617015 0.091135278
0.36054549 0.075238325 0.091129251
0.36025053 0.074859634 0.091123216
0.35995561 0.074480943 0.091117188
0.35966066 0.074102253 0.091111161
0.3593657 0.073723562 0.091105133
0.35907075 0.073344879 0.091099106
0.35877582 0.072966188 0.091093078
0.35848087 0.072587498 0.091087051
0.35818592 0.072208807 0.091081023
0.35789096 0.071830116 0.091074996
0.35759601 0.071451433 0.091068968
0.35676375 0.071869262 0.09147469
0.35646948 0.071491413 0.091468677
0.35617518 0.071113586 0.091462657
0.35534555 0.071534827 0.091868445
0.35505193 0.071157835 0.091862448
0.35475832 0.070780851 0.09185645
0.35446468 0.070403866 0.091850445
0.35417107 0.070026867 0.091844447
0.35387745 0.069649883 0.091838442
0.35358381 0.069272898 0.091832444
0.3532902 0.068895914 0.091826439
0.35299659 0.068518929 0.091820441
0.35270298 0.068141937 0.091814443
0.35240933 0.067764953 0.091808438
0.35211572 0.067387968 0.091802441
0.35182208 0.067010969 0.091796435
0.35152847 0.066633984 0.091790438
0.35123485 0.066257 0.091784433
0.35094124 0.065880015 0.091778435
0.3506476 0.065503016 0.09177243
0.35035399 0.065126032 0.091766432
0.35006037 0.064749047 0.091760434
0.34976673 0.064372055 0.091754429
0.34947312 0.063995071 0.091748431
0.34917951 0.063618086 0.091742426
0.34888589 0.063241102 0.091736428
0.34859225 0.062864117 0.091730423
0.34829864 0.062487118 0.091724426
0.34800503 0.06211013 0.09171842
0.34771138 0.061733145 0.091712423
0.34741777 0.061356157 0.091706425
0.34712416 0.060979173 0.09170042
0.34683055 0.060602188 0.091694422
0.3465369 0.0602252 0.091688417
0.34624329 0.059848215 0.091682419
0.34594968 0.059471227 0.091676414
0.34565604 0.059094232 0.091670416
0.34536242 0.058717247 0.091664419
0.34506881 0.058340259 0.091658413
0.34477517 0.057963274 0.091652416
0.34448156 0.057586286 0.091646411
0.34418795 0.057209302 0.091640413
0.34389433 0.056832317 0.091634408
0.34360069 0.056455329 0.09162841
0.34330708 0.056078333 0.091622405
0.34301347 0.055701345 0.091616407
0.34271982 0.055324361 0.091610409
0.34242621 0.054947376 0.091604404
0.3421326 0.054570388 0.091598406
0.34183899 0.054193404 0.091592401
0.34154534 0.053816415 0.091586404
0.34125173 0.053439431 0.091580398
0.34095812 0.053062432 0.091574401
0.3411667 0.051843822 0.091155916
0.34087241 0.051465981 0.091149904
0.34057814 0.051088147 0.091143891
0.34028384 0.050710306 0.091137879
0.33998957 0.050332472 0.091131859
0.33969527 0.049954627 0.091125846
0.33989921 0.048730068 0.09070728
0.33960426 0.048351377 0.090701252
0.33980623 0.047124267 0.090282649
0.33951062 0.04674473 0.090276606
0.33921498 0.046365183 0.090270564
0.3389194 0.045985647 0.090264529
0.33862376 0.045606099 0.090258487
0.33832818 0.045226566 0.090252444
0.33803257 0.04484703 0.090246402
0.33822921 0.043613087 0.089827672
0.33793294 0.043232694 0.089821622
0.33763668 0.042852301 0.089815564
0.33734041 0.042471908 0.089809507
0.33704415 0.04209153 0.089803457
0.33674785 0.041711137 0.0897974
0.33645159 0.041330744 0.089791343
0.33664292 0.040090017 0.089372523
0.336346 0.039708763 0.089366451
0.33556277 0.040189564 0.089773178
0.3352665 0.039809171 0.089767121
0.33497024 0.039428789 0.089761071
0.33467397 0.039048396 0.089755014
0.33486131 0.037802558 0.089336112
0.33408141 0.03828761 0.089742906
0.33378515 0.037907217 0.089736849
0.33348885 0.037526827 0.089730792
0.33367357 0.036277592 0.089311838
0.333857 0.035026651 0.08889284
0.33355939 0.034644555 0.08888676
0.33326179 0.034262456 0.088880673
0.33248585 0.034752626 0.089287557
0.3321889 0.034371376 0.089281492
0.33189195 0.033990137 0.08927542
0.33159503 0.033608899 0.089269355
0.33129808 0.033227649 0.089263283
0.33052614 0.033722922 0.089670241
0.33022988 0.033342529 0.089664184
0.32993358 0.032962136 0.089658134
0.32916427 0.033460818 0.090065151
0.32886866 0.033081274 0.090059109
0.32904479 0.031820957 0.089639962
0.32780641 0.033203814 0.090460129
0.32798183 0.031942654 0.090040989
0.32721651 0.032446433 0.090448074
0.32645249 0.032951906 0.090855196
0.39763004 0.083025634 0.080002971
0.39582294 0.083676979 0.080813512
0.39461049 0.083606094 0.081212468
0.39429966 0.083206981 0.081206121
0.39340076 0.083538599 0.081611469
0.39309055 0.083140343 0.081605136
0.39278036 0.082742073 0.081598796
0.39247018 0.082343809 0.081592456
0.39215997 0.081945546 0.081586115
0.39126503 0.082282297 0.081991568
0.39095551 0.081884876 0.081985243
0.39064598 0.081487469 0.08197891
0.3897537 0.081827596 0.082384408
0.38944483 0.081431039 0.082378097
0.36597854 0.081017375 0.090373173
0.36568293 0.080637835 0.090367138
0.36398453 0.081428722 0.091179878
0.36424318 0.080275044 0.090761438
0.36394823 0.079896361 0.09075541
0.36365327 0.07951767 0.090749383
0.36335832 0.079138979 0.090743355
0.3630634 0.078760289 0.090737328
0.36276844 0.078381598 0.090731293
0.36247349 0.078002907 0.090725265
0.36217853 0.077624224 0.090719238
0.36188358 0.077245533 0.09071321
0.36158866 0.076866843 0.090707183
0.3612937 0.076488152 0.090701155
0.36099875 0.076109461 0.090695128
0.3607038 0.075730778 0.0906891
0.36040887 0.075352088 0.090683073
0.36011392 0.074973397 0.090677045
0.35981897 0.074594706 0.090671018
0.35952401 0.074216016 0.09066499
0.35922906 0.073837325 0.090658963
0.35893413 0.073458642 0.090652935
0.35863918 0.073079951 0.0906469
0.35834423 0.07270126 0.090640873
0.35804927 0.07232257 0.090634845
0.35775435 0.071943879 0.090628818
0.3574594 0.071565188 0.09062279
0.35662743 0.071982764 0.091029517
0.35633314 0.071604922 0.091023505
0.35603887 0.071227089 0.091017485
0.35574457 0.070849247 0.091011472
0.35491592 0.071271092 0.091418281
0.3546223 0.070894107 0.091412276
0.35432866 0.070517115 0.091406278
0.35403505 0.070140123 0.091400273
0.35374144 0.069763131 0.091394275
0.35344779 0.069386147 0.09138827
0.35315418 0.069009162 0.091382273
0.35286057 0.068632178 0.091376275
0.35256696 0.068255194 0.09137027
0.35227332 0.067878202 0.091364272
0.3519797 0.067501217 0.091358267
0.35168606 0.067124218 0.091352269
0.35139245 0.066747233 0.091346264
0.35109884 0.066370249 0.091340266
0.35080522 0.065993264 0.091334268
0.35051158 0.065616265 0.091328263
0.35021797 0.06523928 0.091322266
0.34992436 0.064862296 0.09131626
0.34963071 0.064485312 0.091310263
0.3493371 0.06410832 0.091304258
0.34904349 0.063731335 0.09129826
0.34874988 0.063354351 0.091292255
0.34845623 0.062977366 0.091286257
0.34816262 0.062600367 0.091280259
0.34786901 0.062223382 0.091274254
0.34757537 0.061846394 0.091268256
0.34728175 0.06146941 0.091262251
0.34698814 0.061092421 0.091256253
0.34669453 0.060715437 0.091250248
0.34640089 0.060338452 0.091244251
0.34610727 0.059961464 0.091238253
0.34581366 0.05958448 0.091232248
0.34552002 0.05920748 0.09122625
0.34522641 0.058830496 0.091220245
0.34493279 0.058453511 0.091214247
0.34463915 0.058076523 0.091208242
0.34434554 0.057699539 0.091202244
0.34405193 0.057322551 0.091196239
0.34375831 0.056945566 0.091190241
0.34346467 0.056568582 0.091184244
0.34317106 0.056191582 0.091178238
0.34287745 0.055814598 0.091172241
0.34258381 0.05543761 0.091166236
0.34229019 0.055060625 0.091160238
0.34199658 0.054683641 0.091154233
0.34170297 0.054306652 0.091148235
0.34140933 0.053929668 0.091142237
0.34111571 0.05355268 0.091136232
0.3408221 0.053175684 0.091130234
0.34103039 0.051957328 0.090710744
0.34073609 0.051579487 0.090704732
0.34044182 0.051201653 0.090698719
0.34014753 0.050823811 0.090692706
0.33985326 0.050445978 0.090686686
0.33955896 0.050068136 0.090680674
0.33976257 0.048843827 0.090261109
0.33946764 0.04846514 0.090255082
0.33966929 0.047238283 0.089835472
0.33937368 0.046858747 0.08982943
0.33907807 0.046479199 0.089823388
0.33878246 0.046099667 0.089817345
0.33848682 0.045720119 0.08981131
0.33819124 0.045340583 0.089805268
0.33789563 0.044961046 0.089799225
0.33809197 0.043727361 0.089379497
0.3377957 0.043346968 0.08937344
0.33749944 0.042966574 0.089367382
0.33720315 0.042586181 0.089361332
0.33690688 0.042205803 0.089355275
0.33661062 0.04182541 0.089349218
0.3368023 0.040585782 0.088929407
0.33650538 0.040204544 0.088923343
0.33620843 0.039823294 0.08891727
0.33591151 0.039442055 0.088911206
0.33561456 0.039060816 0.088905133
0.33580232 0.037816085 0.088485226
0.33550471 0.037433989 0.088479146
0.33520713 0.037051894 0.088473067
0.33490953 0.036669809 0.08846698
0.33461192 0.036287714 0.0884609
0.33431432 0.035905614 0.08845482
0.3349781 0.033786323 0.087620914
0.33371913 0.035141435 0.088442653
0.33438027 0.033018734 0.087608695
0.33408132 0.032634933 0.087602586
0.3337824 0.032251146 0.087596476
0.33252874 0.033613063 0.088418327
0.33223113 0.033230964 0.08841224
0.33145747 0.033723425 0.088820174
0.33116055 0.033342175 0.088814102
0.3308636 0.032960936 0.088808037
0.33009264 0.033456802 0.089216009
0.32979634 0.033076409 0.089209951
0.32950008 0.032696016 0.089203894
0.32920381 0.032315623 0.089197837
0.32890752 0.03193523 0.089191787
0.3281405 0.032436207 0.089599848
0.32784489 0.032056674 0.089593805
0.32754928 0.031677138 0.08958777
0.32678494 0.032181505 0.089995876
0.32648998 0.031802818 0.089989841
0.40655521 0.078455381 0.075043075
0.40444598 0.080202609 0.076274157
0.40353212 0.080514401 0.076680206
0.40020481 0.082182832 0.078311123
0.39988998 0.081778616 0.078304693
0.39898276 0.082098909 0.078710876
0.39866859 0.081695542 0.078704454
0.39776334 0.082018413 0.079110689
0.39744985 0.081615895 0.079104282
0.39595684 0.082669243 0.079923227
0.39505559 0.082997195 0.080329537
0.39474407 0.082597241 0.080323167
0.39443257 0.082197271 0.080316804
0.39412105 0.081797309 0.080310434
0.39380953 0.08139734 0.080304071
0.39291224 0.081730425 0.080710471
0.39260137 0.081331313 0.080704115
0.3913959 0.081268668 0.081104204
0.39108571 0.080870405 0.081097864
0.38988352 0.080812037 0.081498027
0.36469644 0.081146188 0.090327315
0.36410654 0.080388807 0.09031526
0.36381158 0.080010124 0.090309232
0.36351663 0.079631433 0.090303205
0.3632217 0.079252742 0.090297177
0.36347672 0.078095064 0.089877665
0.36318111 0.077715531 0.089871623
0.3628855 0.077335984 0.08986558
0.3625899 0.076956451 0.089859538
0.36229429 0.076576911 0.089853495
0.36199868 0.076197363 0.08984746
0.36170307 0.075817831 0.089841418
0.36140746 0.075438283 0.089835376
0.36056718 0.075844534 0.090242922
0.36027223 0.075465851 0.090236895
0.35997728 0.07508716 0.090230867
0.35968232 0.074708469 0.09022484
0.3593874 0.074329779 0.090218812
0.35909244 0.073951088 0.090212785
0.35879749 0.073572397 0.090206757
0.35850254 0.073193714 0.09020073
0.35820761 0.072815023 0.090194702
0.35791266 0.072436333 0.090188675
0.35761771 0.072057642 0.090182647
0.35732275 0.071678951 0.090176612
0.35649112 0.072096273 0.090584345
0.35619682 0.071718425 0.090578333
0.35590255 0.071340598 0.090572312
0.35560825 0.070962749 0.0905663
0.35531399 0.070584923 0.090560287
0.35448629 0.071007356 0.09096811
0.35419264 0.070630372 0.090962104
0.35389903 0.070253372 0.090956107
0.35360542 0.069876388 0.090950102
0.35331178 0.069499396 0.090944104
0.35301816 0.069122411 0.090938099
0.35272455 0.068745427 0.090932101
0.35243091 0.068368442 0.090926103
0.3521373 0.067991458 0.090920098
0.35184368 0.067614466 0.0909141
0.35155004 0.067237474 0.090908095
0.35125643 0.06686049 0.090902098
0.35096282 0.066483498 0.090896092
0.35066921 0.066106513 0.090890095
0.35037556 0.065729514 0.090884097
0.35008195 0.065352529 0.090878092
0.34978834 0.064975545 0.090872094
0.3494947 0.06459856 0.090866089
0.34920108 0.064221576 0.090860091
0.34890747 0.063844584 0.090854086
0.34861386 0.063467599 0.090848088
0.34832022 0.063090615 0.090842083
0.3480266 0.062713616 0.090836085
0.34773299 0.062336631 0.090830088
0.34743935 0.061959647 0.090824082
0.34714574 0.061582658 0.090818085
0.34685212 0.061205674 0.09081208
0.34655851 0.060828689 0.090806082
0.34626487 0.060451701 0.090800077
0.34597126 0.060074717 0.090794079
0.34567764 0.059697729 0.090788081
0.345384 0.059320733 0.090782076
0.34509039 0.058943748 0.090776078
0.34479678 0.05856676 0.090770073
0.34450313 0.058189776 0.090764076
0.34420952 0.057812788 0.09075807
0.34391591 0.057435803 0.090752073
0.3436223 0.057058819 0.090746067
0.34332865 0.05668183 0.09074007
0.34303504 0.056304835 0.090734072
0.34274143 0.055927847 0.090728067
0.34244779 0.055550862 0.090722069
0.34215418 0.055173878 0.090716064
0.34186056 0.054796889 0.090710066
0.34156695 0.054419905 0.090704061
0.34127331 0.054042917 0.090698063
0.3409797 0.053665932 0.090692066
0.34068608 0.053288933 0.09068606
0.34089404 0.052070834 0.090265572
0.34059978 0.051692992 0.090259559
0.34030548 0.051315159 0.090253547
0.34001121 0.050937317 0.090247534
0.33971691 0.050559483 0.090241514
0.33942264 0.050181642 0.090235502
0.33962595 0.04895759 0.089814931
0.339331 0.048578899 0.089808904
0.33953235 0.047352299 0.089388296
0.33923674 0.046972767 0.089382254
0.33894113 0.046593219 0.089376211
0.33864552 0.046213683 0.089370169
0.33834991 0.045834135 0.089364126
0.3380543 0.045454599 0.089358084
0.33775869 0.045075066 0.089352041
0.33795473 0.043841634 0.088931315
0.33765846 0.043461241 0.088925257
0.33736217 0.043080848 0.088919207
0.33706591 0.042700455 0.08891315
0.33676964 0.042320076 0.088907093
0.33696169 0.041081551 0.088486291
0.33666477 0.040700313 0.088480227
0.33636782 0.040319074 0.088474154
0.3360709 0.039937824 0.08846809
0.33577394 0.039556585 0.088462017
0.33547702 0.039175346 0.088455953
0.33566445 0.037930872 0.088035047
0.33536687 0.037548773 0.08802896
0.33506927 0.037166677 0.08802288
0.33477166 0.036784593 0.088016801
0.33543748 0.034669206 0.087180942
0.33513856 0.034285419 0.087174833
0.33483964 0.033901617 0.087168723
0.33454072 0.03351783 0.087162614
0.33424178 0.033134028 0.087156504
0.33394286 0.03275023 0.087150395
0.33364394 0.032366443 0.087144285
0.33239087 0.033727847 0.087968141
0.33304611 0.031598855 0.087132066
0.33179569 0.032963652 0.087955974
0.33149809 0.032581557 0.087949894
0.33072606 0.033075467 0.088358849
0.33042911 0.032694228 0.088352785
0.33013219 0.032312978 0.088346712
0.32936284 0.032810289 0.088755712
0.32953832 0.031550501 0.088334575
0.32829916 0.032929774 0.089158714
0.32800356 0.032550227 0.089152671
0.32770795 0.032170691 0.089146629
0.32741234 0.031791154 0.089140587
0.32664829 0.032295268 0.089549698
0.32635334 0.031916581 0.08954367
0.40612966 0.079707347 0.074978851
0.40461674 0.080733791 0.075799391
0.40489468 0.079606146 0.075379334
0.40398043 0.079916842 0.075786389
0.40425706 0.078787506 0.075366303
0.39974412 0.081900045 0.077828437
0.39824513 0.082944371 0.078649253
0.39911446 0.081091605 0.07781557
0.39820889 0.081413351 0.078222781
0.39789471 0.081009984 0.078216359
0.39581224 0.082789652 0.079450987
0.39550003 0.082388833 0.079444602
0.39459977 0.082717389 0.079851925
0.39428824 0.082317427 0.079845563
0.39397675 0.081917457 0.079839192
0.3930791 0.08224944 0.080246583
0.39187258 0.082184829 0.080647647
0.39125222 0.08138831 0.080634966
0.38974014 0.080931418 0.081029795
0.36511344 0.080486327 0.089466736
0.36396989 0.08050257 0.089869089
0.36367497 0.080123879 0.089863062
0.363931 0.078968167 0.089442573
0.36363539 0.078588635 0.089436531
0.36333978 0.078209087 0.089430489
0.36304417 0.077829547 0.089424446
0.36274856 0.07745 0.089418404
0.36245295 0.077070467 0.089412361
0.36215734 0.076690935 0.089406319
0.36186174 0.076311387 0.089400277
0.36156613 0.075931847 0.089394242
0.36127052 0.0755523 0.089388199
0.36043054 0.075958297 0.089796752
0.36013559 0.075579606 0.089790724
0.35984066 0.075200923 0.089784697
0.35954571 0.074822232 0.089778669
0.35925075 0.074443541 0.089772642
0.3589558 0.074064851 0.089766607
0.35866085 0.07368616 0.089760579
0.35836592 0.073307469 0.089754552
0.35807097 0.072928786 0.089748524
0.35777602 0.072550096 0.089742497
0.35748106 0.072171405 0.089736469
0.35718614 0.071792714 0.089730442
0.35635477 0.072209775 0.090139173
0.3560605 0.071831934 0.09013316
0.35576621 0.0714541 0.09012714
0.35547194 0.071076259 0.090121128
0.35517764 0.070698425 0.090115115
0.35488337 0.070320584 0.090109102
0.35405663 0.07074362 0.090517938
0.35376301 0.070366621 0.090511933
0.3534694 0.069989637 0.090505935
0.35317576 0.069612652 0.090499938
0.35288215 0.06923566 0.090493932
0.35258853 0.068858676 0.090487935
0.35229489 0.068481691 0.090481929
0.35200128 0.068104707 0.090475932
0.35170767 0.067727722 0.090469927
0.35141402 0.067350723 0.090463929
0.35112041 0.066973738 0.090457924
0.3508268 0.066596754 0.090451926
0.35053319 0.066219762 0.090445928
0.35023955 0.06584277 0.090439923
0.34994593 0.065465778 0.090433925
0.34965232 0.065088794 0.09042792
0.34935868 0.064711809 0.090421923
0.34906507 0.064334825 0.090415917
0.34877145 0.06395784 0.09040992
0.34847784 0.063580848 0.090403922
0.3481842 0.063203864 0.090397917
0.34789059 0.062826864 0.090391919
0.34759697 0.062449884 0.090385914
0.34730333 0.062072895 0.090379916
0.34700972 0.061695911 0.090373911
0.34671611 0.061318923 0.090367913
0.34642246 0.060941938 0.090361908
0.34612885 0.060564954 0.09035591
0.34583524 0.060187966 0.090349913
0.34554163 0.059810981 0.090343907
0.34524798 0.059433982 0.09033791
0.34495437 0.059056997 0.090331905
0.34466076 0.058680013 0.090325907
0.34436712 0.058303025 0.090319902
0.3440735 0.05792604 0.090313904
0.34377989 0.057549052 0.090307906
0.34348628 0.057172067 0.090301901
0.34319264 0.056795083 0.090295903
0.34289902 0.056418084 0.090289898
0.34260541 0.056041099 0.0902839
0.34231177 0.055664111 0.090277895
0.34201816 0.055287126 0.090271898
0.34172454 0.054910142 0.0902659
0.34143093 0.054533154 0.090259895
0.34113729 0.054156169 0.090253897
0.34084368 0.053779181 0.090247892
0.34055007 0.053402185 0.090241894
0.34075773 0.05218434 0.0898204
0.34046343 0.051806498 0.089814387
0.34016916 0.051428664 0.089808375
0.33987486 0.051050823 0.089802362
0.3395806 0.050672989 0.089796342
0.3392863 0.050295148 0.089790329
0.33948931 0.049071353 0.089368761
0.33919436 0.048692662 0.089362733
0.3393954 0.047466319 0.08894112
0.33909979 0.047086783 0.088935077
0.33880419 0.046707235 0.088929035
0.33850858 0.046327699 0.088922992
0.33821297 0.045948151 0.08891695
0.33791736 0.045568619 0.088910908
0.33762175 0.045189083 0.088904865
0.33781749 0.043955907 0.088483132
0.3375212 0.043575514 0.088477083
0.33722493 0.043195121 0.088471025
0.33692867 0.042814728 0.088464968
0.3366324 0.04243435 0.088458911
0.33682415 0.041196078 0.088037111
0.3365272 0.040814839 0.088031046
0.33623028 0.040433601 0.088024974
0.33593333 0.040052351 0.088018902
0.33563641 0.039671112 0.088012837
0.33533946 0.039289873 0.088006765
0.33552662 0.038045656 0.087584861
0.33619577 0.03593589 0.08674708
0.3349314 0.037281461 0.087572694
0.3346338 0.036899377 0.087566614
0.33529902 0.0347845 0.086728752
0.3350001 0.034400713 0.086722642
0.33470115 0.034016915 0.086716533
0.3334434 0.035371006 0.087542281
0.33410332 0.033249326 0.086704314
0.33284822 0.034606811 0.087530121
0.33350548 0.032481737 0.086692095
0.33320653 0.032097936 0.086685985
0.33195543 0.033460535 0.087511875
0.33165783 0.03307844 0.087505788
0.33136022 0.03269634 0.087499708
0.33011439 0.034065738 0.088325702
0.33076504 0.03193216 0.087487541
0.32999462 0.032427505 0.087897532
0.33016983 0.03116798 0.087475374
0.32987225 0.030785883 0.087469295
0.32816222 0.033043791 0.088711537
0.32786661 0.032664243 0.088705495
0.327571 0.032284707 0.088699453
0.3272754 0.031905174 0.08869341
0.32697979 0.031525627 0.088687368
0.32668418 0.03114609 0.088681325
0.40478751 0.08126498 0.075324625
0.40446937 0.080856502 0.07531812
0.40474698 0.079729117 0.074897066
0.40442818 0.07931979 0.074890554
0.40351492 0.079631083 0.075298615
0.4014155 0.081386991 0.076535873
0.40109932 0.080981068 0.076529413
0.3995983 0.082021475 0.077352181
0.39928344 0.081617251 0.077345744
0.39896864 0.081213035 0.077339314
0.39865381 0.080808818 0.077332877
0.39833897 0.080404602 0.077326439
0.39684588 0.081455216 0.078149378
0.39535543 0.082509242 0.078972362
0.39445546 0.082837544 0.079380684
0.39414394 0.082437582 0.079374321
0.39383242 0.082037613 0.079367951
0.3929351 0.082369335 0.079776347
0.39172891 0.08230447 0.08017841
0.39200252 0.081171997 0.079757281
0.39079833 0.081109688 0.080159388
0.3652721 0.080979891 0.089025602
0.3649765 0.080600351 0.089019559
0.36383328 0.080616333 0.089422911
0.36353832 0.080237642 0.089416884
0.36379406 0.079082184 0.088995397
0.36349845 0.078702651 0.088989355
0.36320284 0.078323103 0.088983312
0.36290723 0.077943563 0.08897727
0.36261162 0.077564016 0.088971227
0.36231601 0.077184483 0.088965185
0.3620204 0.076804951 0.088959143
0.36172479 0.076425403 0.0889531
0.36142918 0.076045863 0.088947058
0.36113358 0.075666323 0.088941023
0.36029392 0.07607206 0.089350574
0.35999897 0.075693369 0.089344546
0.35970402 0.075314678 0.089338519
0.35940906 0.074935995 0.089332491
0.35911411 0.074557304 0.089326464
0.35881919 0.074178614 0.089320436
0.35852423 0.073799923 0.089314409
0.35822928 0.073421232 0.089308381
0.35793433 0.073042542 0.089302354
0.3576394 0.072663859 0.089296326
0.35734445 0.072285168 0.089290291
0.35704949 0.071906477 0.089284264
0.35621846 0.072323285 0.089694001
0.35592416 0.071945444 0.089687988
0.35562989 0.07156761 0.089681968
0.35533559 0.071189769 0.089675955
0.35504133 0.070811935 0.089669943
0.35474703 0.070434086 0.08966393
0.35392061 0.070856869 0.090073764
0.353627 0.07047987 0.090067767
0.35333335 0.070102885 0.090061761
0.35303974 0.069725901 0.090055764
0.35274613 0.069348916 0.090049766
0.35245252 0.068971932 0.090043761
0.35215887 0.06859494 0.090037763
0.35186526 0.068217956 0.090031758
0.35157165 0.067840971 0.09002576
0.35127801 0.067463972 0.090019755
0.35098439 0.067086987 0.090013757
0.35069078 0.066710003 0.090007752
0.35039717 0.066333018 0.090001754
0.35010353 0.065956019 0.089995757
0.34980991 0.065579034 0.089989752
0.3495163 0.065202042 0.089983754
0.34922266 0.064825058 0.089977749
0.34892905 0.064448074 0.089971751
0.34863544 0.064071089 0.089965746
0.34834182 0.063694105 0.089959748
0.34804818 0.06331712 0.08995375
0.34775457 0.062940121 0.089947745
0.34746093 0.062563136 0.089941747
0.34716731 0.062186148 0.089935742
0.3468737 0.06180916 0.089929745
0.34658009 0.061432175 0.089923739
0.34628645 0.061055191 0.089917742
0.34599283 0.060678203 0.089911737
0.34569922 0.060301218 0.089905739
0.34540561 0.05992423 0.089899741
0.34511197 0.059547234 0.089893736
0.34481835 0.059170246 0.089887738
0.34452474 0.058793262 0.089881733
0.3442311 0.058416277 0.089875735
0.34393749 0.058039289 0.08986973
0.34364387 0.057662304 0.089863732
0.34335026 0.05728532 0.089857735
0.34305662 0.056908332 0.08985173
0.34276301 0.056531336 0.089845732
0.34246939 0.056154348 0.089839727
0.34217575 0.055777363 0.089833729
