# .PCD v0.7 - Point Cloud Data file format
VERSION 0.7
FIELDS x y z
SIZE 4 4 4
TYPE F F F
COUNT 1 1 1
WIDTH 1420
HEIGHT 1
VIEWPOINT 0 0 0 1 0 0 0
POINTS 1420
DATA ascii
0.5103963 -0.17796703 0.27419657
0.50970304 -0.17683612 0.27406177
0.50997961 -0.17593758 0.27407622
0.51025617 -0.17503904 0.27409068
0.5105328 -0.1741405 0.27410513
0.51080936 -0.17324196 0.27411959
0.51108593 -0.17234342 0.27413404
0.51136249 -0.17144488 0.27414846
0.51163906 -0.17054634 0.27416292
0.5109486 -0.1694061 0.27402827
0.51122546 -0.16850653 0.27404276
0.51053602 -0.16736321 0.2739082
0.50984722 -0.16621785 0.27377364
0.50915903 -0.1650704 0.27363911
0.50847149 -0.16392088 0.27350464
0.50778449 -0.16276927 0.27337018
0.50709826 -0.16161563 0.27323577
0.50641263 -0.16045991 0.27310142
0.50572759 -0.15930212 0.27296707
0.50504321 -0.15814224 0.27283272
0.50339597 -0.15672728 0.27254957
0.5027132 -0.15556227 0.27241534
0.50106817 -0.15414004 0.27213228
0.49942446 -0.1527137 0.27184927
0.49778196 -0.1512832 0.27156633
0.49614078 -0.1498486 0.27128348
0.49450091 -0.14840984 0.27100068
0.49286222 -0.14696695 0.27071795
0.49122488 -0.14551993 0.2704353
0.49054945 -0.14433111 0.27030146
0.48891425 -0.14287685 0.27001891
0.48728043 -0.14141846 0.26973644
0.4856478 -0.13995591 0.269454
0.48497584 -0.13875572 0.26932034
0.48334548 -0.13728596 0.26903808
0.48267508 -0.13608059 0.26890448
0.48008856 -0.134334 0.26847365
0.47942007 -0.13312243 0.26834017
0.47971001 -0.13218045 0.26835531
0.51257795 -0.18520617 0.27378511
0.51285291 -0.18431281 0.27379948
0.51312792 -0.18341944 0.27381384
0.51340288 -0.18252607 0.27382821
0.51076621 -0.1809451 0.27339157
0.51007193 -0.17981839 0.27325568
0.51034814 -0.17892088 0.27327013
0.51062441 -0.17802337 0.27328455
0.51090068 -0.17712587 0.27329898
0.51020795 -0.17599399 0.27316317
0.51048458 -0.17509545 0.27317762
0.51076114 -0.17419691 0.27319208
0.51103771 -0.17329837 0.27320653
0.51131427 -0.17239983 0.27322099
0.51159084 -0.17150129 0.27323544
0.5118674 -0.17060275 0.27324986
0.51117718 -0.16946259 0.27311417
0.51145411 -0.16856301 0.27312866
0.5107649 -0.16741976 0.27299303
0.51007634 -0.16627446 0.27285743
0.50938845 -0.16512707 0.27272186
0.50870115 -0.16397762 0.27258635
0.50801444 -0.16282608 0.27245083
0.50732845 -0.1616725 0.27231538
0.50664306 -0.16051684 0.27217996
0.50595832 -0.15935911 0.27204457
0.50527418 -0.15819931 0.27190918
0.50362748 -0.15678447 0.27162391
0.50294495 -0.15561952 0.27148864
0.50130045 -0.15419742 0.27120346
0.49965727 -0.15277122 0.27091837
0.49801531 -0.15134086 0.27063334
0.49637467 -0.14990637 0.27034837
0.4947353 -0.14846775 0.27006349
0.49309716 -0.14702499 0.26977864
0.49146032 -0.14557809 0.26949388
0.48982474 -0.14412706 0.26920918
0.48819047 -0.14267188 0.26892456
0.48655739 -0.14121258 0.26863998
0.48492569 -0.13974914 0.26835549
0.4842543 -0.13854799 0.26822081
0.48262474 -0.1370773 0.26793641
0.48195496 -0.13587098 0.26780179
0.4803277 -0.13439307 0.26751754
0.47965947 -0.13318157 0.26738301
0.47994938 -0.1322396 0.26739815
0.47736782 -0.13047975 0.26696441
0.51280499 -0.18526226 0.27287731
0.51502246 -0.18482095 0.27319452
0.51529676 -0.18392965 0.27320886
0.51460052 -0.18281025 0.2730718
0.51099402 -0.18100138 0.27248064
0.51029998 -0.17987473 0.2723437
0.51057625 -0.17897724 0.27235812
0.51085252 -0.17807972 0.27237254
0.51112878 -0.17718221 0.272387
0.51043636 -0.17605041 0.27225012
0.51071292 -0.17515187 0.27226457
0.51098949 -0.17425333 0.27227902
0.51126605 -0.17335479 0.27229348
0.51154262 -0.17245623 0.27230793
0.51181918 -0.17155769 0.27232239
0.51209575 -0.17065917 0.27233684
0.51140583 -0.16951907 0.27220008
0.51168275 -0.1686195 0.27221456
0.51099378 -0.16747631 0.27207789
0.51030552 -0.16633107 0.27194124
0.50961787 -0.16518374 0.27180463
0.5089308 -0.16403435 0.27166805
0.5082444 -0.16288288 0.27153149
0.50755864 -0.16172937 0.27139497
0.50687349 -0.16057378 0.2712585
0.50618905 -0.15941611 0.27112204
0.50550514 -0.15825637 0.27098563
0.50385898 -0.15684167 0.27069825
0.50221407 -0.15542282 0.27041095
0.50057042 -0.15399984 0.27012369
0.4989281 -0.15257272 0.26983652
0.49728698 -0.15114145 0.26954937
0.49564716 -0.14970607 0.26926234
0.4940086 -0.14826652 0.26897538
0.49237135 -0.14682287 0.26868844
0.49073538 -0.14537507 0.26840162
0.48910061 -0.14392313 0.26811481
0.4874672 -0.14246707 0.26782811
0.48583499 -0.14100684 0.26754147
0.48420408 -0.13954251 0.26725486
0.48353329 -0.13834038 0.26711914
0.48094609 -0.1366014 0.26668191
0.48123538 -0.1356615 0.26669702
0.47865105 -0.13391322 0.26625994
0.47894129 -0.13297021 0.26627511
0.47827432 -0.13175569 0.26613957
0.477608 -0.13053909 0.26600409
0.51621991 -0.18510288 0.27244133
0.51649392 -0.18421261 0.27245563
0.51482731 -0.18286628 0.27216506
0.51122183 -0.18105766 0.2715697
0.51052809 -0.17993109 0.27143168
0.51080436 -0.17903358 0.27144614
0.51108062 -0.17813607 0.27146056
0.51135683 -0.17723857 0.27147499
0.5106647 -0.17610683 0.27133709
0.51094127 -0.17520829 0.27135152
0.51121783 -0.17430975 0.27136597
0.5114944 -0.17341121 0.27138042
0.51177096 -0.17251265 0.27139488
0.51204753 -0.17161411 0.27140933
0.51232415 -0.17071557 0.27142379
0.51163447 -0.16957554 0.27128598
0.51191133 -0.16867597 0.27130046
0.51122266 -0.16753285 0.27116272
0.51053464 -0.16638768 0.27102503
0.50984722 -0.16524042 0.27088737
0.50916046 -0.1640911 0.27074975
0.50847429 -0.1629397 0.27061212
0.50778884 -0.16178623 0.27047455
0.50710398 -0.1606307 0.27033705
0.50641978 -0.15947312 0.27019954
0.50573611 -0.15831344 0.27006206
0.50409049 -0.15689886 0.26977259
0.50244612 -0.15548015 0.26948318
0.50080299 -0.15405728 0.26919383
0.49916118 -0.1526303 0.26890457
0.49752057 -0.15119916 0.26861534
0.49588132 -0.14976391 0.26832619
0.49424326 -0.1483245 0.26803711
0.49260652 -0.14688097 0.26774809
0.49097109 -0.14543331 0.26745915
0.48933685 -0.14398149 0.26717025
0.48770395 -0.14252555 0.26688144
0.48607227 -0.14106546 0.26659268
0.4825241 -0.13907073 0.2660003
0.4818542 -0.1378666 0.26586354
0.48022673 -0.1363931 0.26557502
0.47955835 -0.13518378 0.26543835
0.47889069 -0.13397242 0.2653017
0.47918096 -0.13302942 0.26531687
0.47851425 -0.13181496 0.26518029
0.47784817 -0.13059843 0.26504374
0.47718275 -0.12937982 0.26490724
0.51644617 -0.18515877 0.27153668
0.51672018 -0.1842685 0.27155098
0.51311386 -0.18246634 0.2709513
0.51144969 -0.18111394 0.27065873
0.51075619 -0.17998743 0.2705197
0.51103246 -0.17908993 0.27053413
0.51130867 -0.17819242 0.27054855
0.51158494 -0.17729491 0.27056301
0.51089305 -0.17616324 0.27042404
0.51116961 -0.1752647 0.27043849
0.51144618 -0.17436615 0.27045292
0.51172274 -0.17346761 0.27046737
0.51199931 -0.17256907 0.27048182
0.51227593 -0.17167053 0.27049628
0.5125525 -0.17077199 0.27051073
0.51186305 -0.16963202 0.27037188
0.51213998 -0.16873245 0.27038634
0.51145154 -0.1675894 0.27024758
0.51076376 -0.16644429 0.27010885
0.51007664 -0.16529709 0.26997012
0.50939018 -0.16414784 0.26983145
0.50870425 -0.1629965 0.26969278
0.50801903 -0.16184311 0.26955417
0.50733441 -0.16068764 0.26941559
0.50665051 -0.15953012 0.26927704
0.50596714 -0.15837049 0.26913851
0.50432199 -0.15695606 0.26884693
0.50267816 -0.15553747 0.26855543
0.50103557 -0.15411474 0.26826397
0.49939427 -0.15268788 0.26797259
0.49775419 -0.15125687 0.26768127
0.49611545 -0.14982174 0.26739001
0.49447793 -0.14838247 0.26709881
0.49284172 -0.14693907 0.26680771
0.49120679 -0.14549154 0.26651669
0.48957309 -0.14403985 0.26622567
0.4879407 -0.14258404 0.26593477
0.48630956 -0.14112408 0.26564392
0.48276243 -0.13912961 0.26504731
0.4820928 -0.13792555 0.26490951
0.48046583 -0.13645217 0.2646189
0.47884008 -0.13497463 0.2643283
0.47817302 -0.1337623 0.26419064
0.47846359 -0.13281827 0.26420584
0.47875416 -0.13187423 0.26422101
0.47808835 -0.13065776 0.26408342
0.47742319 -0.12943923 0.26394585
0.51473153 -0.184763 0.27032286
0.51500618 -0.18387066 0.27033722
0.51237136 -0.18229461 0.26988792
0.5116775 -0.18117023 0.26974779
0.5109843 -0.18004379 0.26960769
0.51126051 -0.17914627 0.26962212
0.51153678 -0.17824878 0.26963657
0.51181304 -0.17735127 0.269651
0.51112139 -0.17621966 0.26951098
0.51139796 -0.17532112 0.26952544
0.51167452 -0.17442256 0.26953989
0.51195109 -0.17352402 0.26955432
0.51222771 -0.17262548 0.26956877
0.51250428 -0.17172694 0.26958323
0.51278085 -0.1708284 0.26959768
0.5120917 -0.16968851 0.26945779
0.51236856 -0.16878892 0.26947224
0.51168042 -0.16764595 0.26933244
0.51099294 -0.1665009 0.26919264
0.51030606 -0.16535376 0.26905286
0.50961983 -0.16420457 0.26891315
0.5089342 -0.1630533 0.26877344
0.50824922 -0.16189997 0.26863375
0.5075649 -0.16074458 0.26849413
0.50688118 -0.15958712 0.26835454
0.50523561 -0.15817589 0.2680608
0.5045535 -0.15701325 0.26792127
0.5029102 -0.1555948 0.26762766
0.50126809 -0.1541722 0.2673341
0.49962735 -0.15274547 0.26704064
0.49798781 -0.15131459 0.26674721
0.49634957 -0.14987959 0.26645386
0.49471259 -0.14844045 0.26616058
0.49307692 -0.14699717 0.26586735
0.4914425 -0.14554977 0.26557422
0.48980933 -0.14409821 0.26528111
0.48817748 -0.14264254 0.26498809
0.48654684 -0.14118271 0.26469514
0.48300079 -0.1391885 0.26409435
0.48233142 -0.1379845 0.2639555
0.48070496 -0.13651125 0.26366276
0.47907975 -0.13503383 0.2633701
0.47841293 -0.13382158 0.26323137
0.47774675 -0.13260724 0.2630927
0.47708121 -0.13139084 0.26295406
0.47737241 -0.13044474 0.26296926
0.47766364 -0.12949863 0.26298448
0.51080161 -0.18481241 0.26877919
0.51107752 -0.18391593 0.26879358
0.51232332 -0.18324625 0.26896361
0.51259893 -0.18235081 0.26897803
0.51190531 -0.18122652 0.26883686
0.51121235 -0.18010013 0.26869571
0.51148862 -0.17920263 0.26871014
0.51176488 -0.17830512 0.26872456
0.51204115 -0.17740761 0.26873901
0.51134974 -0.17627606 0.26859793
0.5116263 -0.17537752 0.26861238
0.51190287 -0.17447898 0.26862684
0.51217949 -0.17358044 0.26864129
0.51245606 -0.1726819 0.26865575
0.51273263 -0.17178336 0.2686702
0.51300919 -0.17088482 0.26868463
0.51232028 -0.16974498 0.26854369
0.5125972 -0.16884542 0.26855814
0.51190931 -0.16770248 0.26841727
0.51122206 -0.16655751 0.26827642
0.51053548 -0.16541044 0.26813561
0.50984949 -0.16426131 0.26799485
0.50916409 -0.16311011 0.26785406
0.50847942 -0.16195685 0.26771337
0.50779533 -0.16080151 0.2675727
0.50614935 -0.1593935 0.26727679
0.50546688 -0.15823302 0.26713619
0.5038231 -0.15681779 0.26684043
0.50314224 -0.15565212 0.26669991
0.50150067 -0.15422964 0.26640424
0.49986044 -0.15280305 0.26610866
0.4982214 -0.1513723 0.26581314
0.49658373 -0.14993744 0.26551771
0.49494725 -0.14849842 0.26522231
0.49331209 -0.14705528 0.264927
0.49167821 -0.14560801 0.26463175
0.49004558 -0.14415658 0.26433653
0.48841423 -0.14270103 0.26404142
0.48678413 -0.14124133 0.26374635
0.48323911 -0.13924737 0.26314136
0.48257002 -0.13804345 0.26300147
0.4809441 -0.13657032 0.26270664
0.47931939 -0.13509305 0.26241186
0.47865283 -0.13388084 0.26227209
0.47798693 -0.13266657 0.26213238
0.47732165 -0.13145024 0.26199266
0.47761285 -0.13050413 0.26200786
0.47790408 -0.12955803 0.26202309
0.51102942 -0.18486869 0.26786822
0.51130533 -0.18397221 0.26788265
0.51255089 -0.18330248 0.26805371
0.5128265 -0.18240704 0.26806813
0.51213318 -0.1812828 0.26792589
0.51144046 -0.18015648 0.2677837
0.51171672 -0.17925897 0.26779813
0.51199299 -0.17836148 0.26781255
0.5122692 -0.17746396 0.267827
0.51157808 -0.17633247 0.26768488
0.51185471 -0.17543393 0.26769933
0.51213127 -0.17453539 0.26771379
0.51240784 -0.17363685 0.26772824
0.5126844 -0.17273831 0.26774269
0.51296097 -0.17183977 0.26775715
0.51323754 -0.17094123 0.2677716
0.51254892 -0.16980146 0.26762959
0.51186097 -0.16865964 0.26748765
0.51117367 -0.16751575 0.26734573
0.51048702 -0.1663698 0.26720384
0.50980097 -0.16522177 0.26706201
0.50911558 -0.16407165 0.26692018
0.50843078 -0.16291949 0.26677838
0.5077467 -0.16176526 0.26663664
0.50706321 -0.16060896 0.26649493
0.50638032 -0.15945058 0.26635322
0.50473613 -0.15803859 0.26605532
0.5040549 -0.15687504 0.26591372
0.50337428 -0.15570945 0.26577216
0.50173324 -0.1542871 0.26547438
0.50009352 -0.15286063 0.26517671
0.49845502 -0.15143001 0.26487908
0.49681786 -0.14999528 0.26458153
0.49518189 -0.14855638 0.26428404
0.49354729 -0.14711338 0.26398662
0.49191394 -0.14566624 0.26368928
0.49028182 -0.14421494 0.26339197
0.48865101 -0.14275952 0.26309475
0.48510513 -0.14077203 0.26248544
0.48347747 -0.13930626 0.2621884
0.48280862 -0.1381024 0.26204744
0.48118323 -0.1366294 0.26175052
0.48051593 -0.13542035 0.26160964
0.47889277 -0.13394012 0.26131281
0.47822711 -0.13272591 0.26117203
0.4775621 -0.13150965 0.26103127
0.4778533 -0.13056354 0.2610465
0.47814453 -0.12961744 0.2610617
0.51125723 -0.18492498 0.26695728
0.5115332 -0.18402849 0.26697171
0.51277846 -0.1833587 0.26714382
0.51305407 -0.18246326 0.26715824
0.51236099 -0.18133909 0.26701495
0.51166856 -0.18021283 0.26687169
0.51194483 -0.17931533 0.26688614
0.51222104 -0.17841782 0.26690057
0.51249731 -0.1775203 0.26691499
0.51180649 -0.17638889 0.26677182
0.51208305 -0.17549035 0.26678628
0.51235962 -0.17459181 0.26680073
0.51263618 -0.17369327 0.26681519
0.51291275 -0.17279473 0.26682964
0.51318932 -0.17189619 0.26684409
0.51346588 -0.17099765 0.26685855
0.51277751 -0.16985793 0.2667155
0.51208985 -0.16871618 0.26657251
0.51140285 -0.16757236 0.26642954
0.51071644 -0.16642646 0.26628658
0.51003069 -0.16527849 0.26614371
0.50934547 -0.16412845 0.26600084
0.50866097 -0.16297635 0.26585799
0.50797713 -0.16182218 0.26571518
0.50729394 -0.16066596 0.26557243
0.50564927 -0.15925719 0.26527235
0.50496763 -0.15809578 0.26512966
0.50428665 -0.15693231 0.26498702
0.50264519 -0.1555132 0.26468709
0.50100505 -0.15408996 0.26438728
0.4993661 -0.15266258 0.2640875
0.49772853 -0.15123107 0.26378778
0.4960922 -0.14979543 0.26348814
0.4944571 -0.14835563 0.26318857
0.49282333 -0.14691173 0.26288906
0.49119076 -0.14546366 0.26258963
0.488601 -0.14374964 0.26213309
0.48888776 -0.14281802 0.26214808
0.48534295 -0.14083079 0.2615346
0.4837158 -0.13936514 0.26123542
0.48304722 -0.13816133 0.26109344
0.48142236 -0.13668847 0.2607944
0.48075533 -0.13547949 0.26065245
0.48008898 -0.13426845 0.26051056
0.47846729 -0.13278525 0.26021171
0.47780254 -0.13156904 0.26006991
0.51342452 -0.18543033 0.26636392
0.51369983 -0.18453594 0.26637831
0.51300603 -0.18341492 0.26623392
0.51328164 -0.18251948 0.26624835
0.5125888 -0.18139537 0.26610401
0.51189667 -0.18026918 0.26595971
0.51217288 -0.17937167 0.26597413
0.51244915 -0.17847417 0.26598856
0.51175827 -0.17734385 0.26584435
0.51203483 -0.17644531 0.2658588
0.5123114 -0.17554677 0.26587325
0.51258796 -0.17464823 0.26588768
0.51286453 -0.17374969 0.26590213
0.5131411 -0.17285115 0.26591659
0.51341766 -0.17195261 0.26593104
0.51272929 -0.17081399 0.26578692
0.51204151 -0.16967334 0.26564285
0.51135445 -0.16853061 0.26549885
0.51066798 -0.16738582 0.26535481
0.50998217 -0.16623895 0.26521087
0.50929695 -0.16509001 0.26506692
0.50861239 -0.163939 0.26492301
0.50792849 -0.16278593 0.26477915
0.50724518 -0.16163081 0.26463532
0.50656253 -0.16047359 0.2644915
0.50588053 -0.1593143 0.26434773
0.50423771 -0.15790156 0.26404563
0.50355732 -0.1567371 0.26390195
0.50287747 -0.15557058 0.2637583
0.50123787 -0.15414748 0.26345634
0.49959946 -0.15272021 0.26315448
0.49796239 -0.15128885 0.26285267
0.4963266 -0.14985333 0.26255095
0.49469203 -0.14841367 0.26224926
0.49305877 -0.14696988 0.26194766
0.49142674 -0.14552195 0.26164609
0.48883778 -0.14380813 0.26118642
0.48912454 -0.14287651 0.26120141
0.48558077 -0.14088953 0.26058373
0.4849115 -0.13968889 0.26044062
0.48328581 -0.13822028 0.26013941
0.48261815 -0.13701448 0.25999638
0.48195112 -0.13580662 0.25985339
0.48128465 -0.13459666 0.25971043
0.51365179 -0.1854865 0.2654551
0.5139271 -0.18459208 0.26546946
0.5132336 -0.18347114 0.26532403
0.51350921 -0.1825757 0.26533845
0.51281667 -0.18145165 0.26519305
0.51212472 -0.18032554 0.2650477
0.51240098 -0.17942803 0.26506215
0.51267725 -0.17853051 0.26507658
0.51198661 -0.17740026 0.26493129
0.51226318 -0.17650172 0.26494575
0.51253974 -0.17560318 0.2649602
0.51281631 -0.17470464 0.26497465
0.51309288 -0.1738061 0.26498908
0.51336944 -0.17290756 0.26500353
0.51364607 -0.17200902 0.26501799
0.51295787 -0.17087047 0.26487282
0.51227039 -0.16972987 0.26472771
0.51158357 -0.16858722 0.26458263
0.5108974 -0.16744249 0.26443759
0.51021183 -0.16629569 0.26429257
0.50952685 -0.16514681 0.26414758
0.50884259 -0.16399588 0.26400262
0.50815892 -0.16284287 0.26385769
0.50747591 -0.16168781 0.26371282
0.5067935 -0.16053064 0.26356795
0.50515026 -0.15912111 0.2632637
0.50446951 -0.15795881 0.26311892
0.50378937 -0.15679443 0.2629742
0.50214922 -0.15537454 0.2626701
0.50051045 -0.15395053 0.26236609
0.49983281 -0.15277787 0.26222146
0.49819627 -0.15134662 0.26191756
0.49656099 -0.14991124 0.26161373
0.49492693 -0.14847171 0.26130995
0.49329421 -0.14702806 0.26100624
0.49166271 -0.14558025 0.26070258
0.4881165 -0.1436049 0.26008049
0.48744589 -0.14240952 0.25993627
0.48581859 -0.14094828 0.25963283
0.48514956 -0.13974772 0.2594887
0.48448116 -0.13854507 0.25934455
0.48381341 -0.13734037 0.25920048
0.48314631 -0.1361336 0.25905642
0.48343563 -0.13519369 0.25907153
0.48372492 -0.13425379 0.25908667
0.5206635 -0.18711355 0.26567256
0.52093661 -0.18622638 0.26568684
0.51733541 -0.1844333 0.26505762
0.514705 -0.18285944 0.2645894
0.51304448 -0.18150793 0.26428211
0.51235282 -0.18038188 0.26413572
0.51166183 -0.17925376 0.26398933
0.51193839 -0.17835522 0.26400378
0.51221496 -0.17745668 0.26401824
0.51249152 -0.17655814 0.26403269
0.51276809 -0.1756596 0.26404715
0.51304466 -0.17476106 0.2640616
0.51332122 -0.17386252 0.26407605
0.51263273 -0.17272611 0.26392978
0.51290959 -0.17182653 0.26394427
0.51318651 -0.17092696 0.26395872
0.51249927 -0.16978642 0.26381257
0.51181275 -0.16864383 0.26366642
0.51112682 -0.16749915 0.26352033
0.51044148 -0.16635242 0.26337427
0.5097568 -0.16520362 0.26322821
0.50907278 -0.16405274 0.26308221
0.50838941 -0.16289981 0.26293623
0.50674474 -0.16149659 0.26262978
0.50606292 -0.16033848 0.26248389
0.50538176 -0.1591783 0.26233804
0.50470126 -0.15801607 0.26219222
0.5030607 -0.1565994 0.26188597
0.50142151 -0.15517864 0.26157981
0.50074357 -0.15400812 0.26143411
0.49910653 -0.15258008 0.26112804
0.49747083 -0.15114793 0.26082206
0.49583635 -0.14971164 0.26051614
0.49420318 -0.14827122 0.26021028
0.49352968 -0.14708622 0.26006481
0.49189869 -0.14563854 0.25975907
0.48835352 -0.14366347 0.25913277
0.48768318 -0.14246814 0.25898749
0.48701349 -0.14127074 0.25884223
0.48634443 -0.14007127 0.25869703
0.48567599 -0.13886973 0.25855184
0.48596436 -0.13793294 0.25856692
0.48529682 -0.13672829 0.25842175
0.48462999 -0.13552158 0.25827664
0.48491898 -0.13458271 0.25829175
0.52088898 -0.18716925 0.26477107
0.52116203 -0.18628208 0.26478535
0.51756191 -0.18448925 0.26415193
0.51590031 -0.18314305 0.26384246
0.51230466 -0.18133573 0.26320928
0.51258093 -0.18043824 0.26322371
0.51189017 -0.17931017 0.26307631
0.51216674 -0.17841163 0.26309076
0.5124433 -0.17751309 0.26310518
0.51271987 -0.17661455 0.26311964
0.51203066 -0.1754813 0.2629723
0.51230752 -0.17458174 0.26298675
0.51258445 -0.17368215 0.26300123
0.51286131 -0.17278259 0.26301569
0.51217377 -0.17164418 0.26286843
0.51245099 -0.17074357 0.26288295
0.51176435 -0.16960208 0.26273572
0.51107836 -0.16845851 0.26258856
0.51039302 -0.16731288 0.26244143
0.50970823 -0.16616516 0.26229432
0.50902414 -0.16501538 0.26214725
0.50834072 -0.16386355 0.2620002
0.50765795 -0.16270964 0.26185322
0.50697571 -0.16155365 0.26170623
0.50629419 -0.16039561 0.26155928
0.50561327 -0.15923549 0.26141238
0.50397241 -0.15782209 0.26110399
0.50329304 -0.15665679 0.26095715
0.50165433 -0.15523615 0.26064888
0.50001687 -0.15381135 0.26034066
0.49838075 -0.15238243 0.26003253
0.49674591 -0.15094937 0.25972447
0.49319479 -0.14899731 0.25909361
0.49252152 -0.14781238 0.2589471
0.49089074 -0.14636587 0.25863922
0.49021909 -0.14517577 0.2584928
0.48859054 -0.14372203 0.25818506
0.48792046 -0.14252676 0.25803873
0.48725104 -0.14132942 0.2578924
0.48658225 -0.14013001 0.25774613
0.48591408 -0.13892855 0.25759992
0.48620242 -0.13799176 0.25761497
0.48553517 -0.13678716 0.25746879
0.48582384 -0.13584933 0.25748387
0.48611251 -0.13491149 0.25749895
0.51212049 -0.18610287 0.26238814
0.51723975 -0.18632782 0.26321757
0.51751411 -0.18543652 0.2632319
0.51778847 -0.18454522 0.26324624
0.51612741 -0.18319914 0.26293468
0.51253277 -0.18139209 0.26229727
0.51280904 -0.18049458 0.26231173
0.51211852 -0.17936659 0.26216325
0.51239508 -0.17846805 0.26217771
0.51170552 -0.17733693 0.26202926
0.51198238 -0.17643736 0.26204371
0.5122593 -0.17553779 0.2620582
0.51253617 -0.17463821 0.26207265
0.51281303 -0.17373864 0.26208714
0.51308995 -0.17283906 0.26210159
0.51240265 -0.17170073 0.26195329
0.51171595 -0.17056033 0.26180503
0.51199347 -0.16965869 0.26181954
0.51130778 -0.16851519 0.2616713
0.51062268 -0.16736962 0.26152313
0.50993818 -0.16622196 0.26137495
0.50925434 -0.16507226 0.26122683
0.50857121 -0.16392049 0.26107875
0.50788867 -0.16276665 0.26093069
0.50624537 -0.16136266 0.26062006
0.50556439 -0.16020364 0.26047209
0.50488406 -0.15904257 0.26032415
0.50420439 -0.15787941 0.26017624
0.50256526 -0.15646198 0.25986579
0.50188714 -0.15529367 0.25971797
0.50025022 -0.153869 0.25940767
0.49861464 -0.15244022 0.25909743
0.49698031 -0.15100728 0.25878724
0.49343023 -0.14905548 0.25815219
0.49275723 -0.14787062 0.25800464
0.49112698 -0.14642423 0.25769466
0.48949808 -0.14497373 0.25738478
0.48882759 -0.14378057 0.25723734
0.48815775 -0.14258538 0.25708994
0.4874886 -0.1413881 0.2569426
0.48682004 -0.14018877 0.25679526
0.48615214 -0.13898736 0.256648
0.48644051 -0.13805057 0.25666305
0.48672885 -0.13711376 0.25667813
0.48701721 -0.13617697 0.25669318
0.48730555 -0.13524017 0.25670826
0.5152545 -0.18682872 0.26196942
0.51746625 -0.18638378 0.26231188
0.51774061 -0.18549247 0.26232621
0.51704723 -0.18437488 0.26217651
0.5144195 -0.18280058 0.26169884
0.51276088 -0.18144843 0.26138529
0.5120703 -0.18032154 0.26123574
0.51234686 -0.179423 0.2612502
0.51165724 -0.17829299 0.26110068
0.5119341 -0.17739342 0.26111516
0.51221102 -0.17649384 0.26112962
0.51248789 -0.17559427 0.2611441
0.51179987 -0.1744591 0.2609947
0.51207709 -0.17355849 0.26100919
0.51235431 -0.17265788 0.26102367
0.51166755 -0.17151858 0.26087433
0.5109815 -0.17037721 0.26072502
0.51029605 -0.16923377 0.26057577
0.50961113 -0.16808826 0.26042649
0.50892693 -0.16694067 0.2602773
0.50824338 -0.16579105 0.26012814
0.50852251 -0.16488422 0.26014271
0.50783992 -0.16373149 0.25999358
0.50715792 -0.16257666 0.25984448
0.50647658 -0.16141978 0.25969544
0.5057959 -0.16026084 0.25954643
0.50511587 -0.15909982 0.25939742
0.50347626 -0.15768562 0.25908485
0.50279784 -0.15651944 0.25893593
0.5011605 -0.15509802 0.25862348
0.49952441 -0.15367244 0.25831109
0.49597189 -0.15173227 0.25767162
0.49433905 -0.15029638 0.25735942
0.4936657 -0.14911364 0.25721076
0.492035 -0.14767049 0.25689864
0.49136323 -0.14648259 0.25675008
0.48973483 -0.14503221 0.25643811
0.4890646 -0.14383914 0.2562896
0.48839507 -0.142644 0.25614119
0.48772615 -0.1414468 0.25599277
0.48705786 -0.14024752 0.25584441
0.48639023 -0.13904618 0.25569606
0.48667857 -0.13810939 0.25571114
0.48696694 -0.13717258 0.25572619
0.48725528 -0.13623579 0.25574127
0.48754364 -0.13529898 0.25575632
0.51548153 -0.18688481 0.26106161
0.5176928 -0.18643974 0.26140618
0.5179671 -0.18554844 0.26142052
0.51727396 -0.18443091 0.26126978
0.51464707 -0.1828568 0.26078895
0.51202208 -0.1812765 0.26030824
0.51229864 -0.18037796 0.26032269
0.51160896 -0.17924905 0.26017213
0.51188582 -0.17834947 0.26018658
0.51216274 -0.1774499 0.26020107
0.51243961 -0.17655031 0.26021552
0.51175153 -0.17541625 0.26006508
0.51202875 -0.17451565 0.26007956
0.51230597 -0.17361504 0.26009405
0.5125832 -0.17271443 0.26010853
0.51189673 -0.17157519 0.25995812
0.51121086 -0.17043389 0.25980777
0.5105257 -0.16929051 0.25965747
0.50984108 -0.16814506 0.25950715
0.50915718 -0.16699755 0.25935689
0.50847387 -0.16584797 0.25920668
0.508753 -0.16494116 0.25922126
0.50807065 -0.16378848 0.25907108
0.50738889 -0.16263372 0.25892094
0.50574702 -0.16122897 0.25860611
0.50506693 -0.16006906 0.25845605
0.50438744 -0.15890709 0.25830603
0.50274873 -0.15749198 0.25799137
0.50207084 -0.15632482 0.25784144
0.49947509 -0.15464938 0.25736225
0.49975803 -0.15373015 0.25737703
0.49620655 -0.15179023 0.25673336
0.49457425 -0.15035447 0.25641903
0.4929432 -0.14891458 0.2561048
0.49227098 -0.14772879 0.25595513
0.49159947 -0.14654095 0.25580552
0.48997161 -0.14509071 0.25549144
0.48930162 -0.1438977 0.25534189
0.48863235 -0.14270262 0.2551924
0.48796371 -0.14150548 0.25504294
0.48729569 -0.14030628 0.25489351
0.48662832 -0.13910499 0.25474414
0.48691666 -0.1381682 0.25475922
0.487205 -0.13723139 0.25477427
0.48749337 -0.1362946 0.25478935
0.4877817 -0.1353578 0.2548044
0.51474035 -0.18671782 0.25998762
0.51695144 -0.18627161 0.26033434
0.5172261 -0.18537927 0.26034868
0.51653349 -0.18426079 0.26019692
0.51487464 -0.18291302 0.25987905
0.51225042 -0.18133292 0.25939521
0.51156068 -0.18020511 0.25924355
0.51183754 -0.17930552 0.25925803
0.51211447 -0.17840596 0.25927249
0.51239133 -0.17750637 0.25928697
0.51266825 -0.1766068 0.25930142
0.51198041 -0.1754728 0.25914991
0.51225764 -0.17457218 0.25916439
0.51253486 -0.17367157 0.25917888
0.51281208 -0.17277096 0.25919336
0.51212585 -0.1716318 0.25904194
0.51144028 -0.17049056 0.25889051
0.50979251 -0.16910662 0.25857323
0.50910854 -0.1679602 0.25842193
0.50842518 -0.16681172 0.25827065
0.50774252 -0.16566117 0.25811937
0.50706035 -0.16450855 0.25796816
0.50637895 -0.16335388 0.25781697
0.50569814 -0.16219711 0.25766581
0.505018 -0.16103831 0.25751469
0.50529867 -0.16012633 0.25752935
0.50173968 -0.15821458 0.25688106
0.5010621 -0.15704748 0.25673008
0.49942577 -0.15562631 0.2564134
0.49874973 -0.15445405 0.25626248
0.4971157 -0.15302566 0.25594595
0.49548289 -0.1515931 0.25562945
0.49480942 -0.15041257 0.25547868
0.4931789 -0.14897281 0.25516233
0.49250695 -0.14778708 0.25501162
0.49183571 -0.14659932 0.25486097
0.49020836 -0.1451492 0.25454476
0.48953864 -0.14395624 0.25439417
0.48886964 -0.14276125 0.25424364
0.48820126 -0.14156416 0.25409314
0.48753351 -0.14036502 0.25394264
0.48686638 -0.13916381 0.25379223
0.48715475 -0.13822702 0.25380728
0.48744309 -0.13729022 0.25382236
0.48773143 -0.13635342 0.25383741
0.48801979 -0.13541663 0.25385249
0.51330769 -0.18543154 0.25875875
0.51551825 -0.18498516 0.25910756
0.51579356 -0.18409076 0.25912192
0.51510221 -0.18296923 0.25896916
0.51247877 -0.18138933 0.25848216
0.51178926 -0.18026158 0.25832945
0.51206619 -0.179362 0.25834394
0.51234305 -0.17846243 0.25835839
0.51261997 -0.17756285 0.25837287
0.51289684 -0.17666328 0.25838733
0.5122093 -0.17552935 0.25823477
0.51248652 -0.17462873 0.25824925
0.51276374 -0.17372812 0.25826374
0.51304096 -0.17282751 0.25827822
0.51235503 -0.17168841 0.25812572
0.5116697 -0.17054723 0.25797325
0.51002246 -0.16916342 0.25765389
0.50933874 -0.16801707 0.25750151
0.50865567 -0.16686866 0.25734919
0.50797319 -0.16571818 0.25719687
0.50729138 -0.16456561 0.25704458
0.50564927 -0.16316526 0.25672549
0.50496906 -0.16200754 0.25657332
0.50428945 -0.16084775 0.25642115
0.5026505 -0.15943706 0.2561022
0.5019725 -0.1582721 0.25595015
0.50129515 -0.15710507 0.2557981
0.49965936 -0.15568402 0.25547931
0.49898362 -0.15451184 0.25532737
0.4973501 -0.15308356 0.25500873
0.49571782 -0.15165114 0.25469014
0.49504462 -0.15047067 0.2545383
0.49341461 -0.14903103 0.25421986
0.49274293 -0.14784539 0.25406808
0.49207196 -0.14665768 0.25391638
0.49044514 -0.14520769 0.25359809
0.48977569 -0.14401481 0.25344646
0.48910692 -0.14281987 0.25329486
0.48843881 -0.14162286 0.25314331
0.4877713 -0.14042377 0.2529918
0.48710448 -0.13922264 0.25284028
0.48739281 -0.13828583 0.25285536
0.48768115 -0.13734904 0.25287041
0.48796952 -0.13641223 0.25288549
0.48825786 -0.13547544 0.25290057
0.51215398 -0.18324283 0.2575402
0.51243055 -0.18234427 0.25755465
0.51270717 -0.18144575 0.2575691
0.51201791 -0.18031806 0.25741535
0.51229483 -0.17941849 0.25742984
0.51257169 -0.17851891 0.25744429
0.51284856 -0.17761934 0.25745878
0.51312548 -0.17671975 0.25747323
0.51243818 -0.17558588 0.25731963
0.5127154 -0.17468527 0.25733411
0.51299262 -0.17378467 0.2573486
0.51326984 -0.17288406 0.25736308
0.51258415 -0.17174502 0.25720954
0.51189911 -0.17060392 0.25705603
0.51025236 -0.16922022 0.25673455
0.50956893 -0.16807394 0.25658113
0.5088861 -0.16692559 0.25642774
0.50820392 -0.16577518 0.25627437
0.50752234 -0.16462268 0.25612104
0.50588077 -0.16322245 0.25579986
0.5052008 -0.16206481 0.25564662
0.50452149 -0.16090508 0.2554934
0.50288308 -0.1594945 0.25517234
0.50124592 -0.1580798 0.2548514
0.50056911 -0.15691181 0.25469831
0.49893424 -0.15548986 0.25437745
0.49825904 -0.15431671 0.25422448
0.49662635 -0.15288751 0.25390372
0.49595276 -0.15170918 0.2537508
0.49432233 -0.15027277 0.25343019
0.49365032 -0.14908926 0.25327739
0.4929789 -0.14790368 0.25312456
0.4923082 -0.14671604 0.2529718
0.49068189 -0.14526619 0.25265142
0.49001271 -0.14407337 0.25249872
0.48934421 -0.14287849 0.2523461
0.48867634 -0.14168154 0.25219348
0.48800912 -0.14048253 0.25204089
0.48734254 -0.13928145 0.25188836
0.4876309 -0.13834465 0.25190344
0.48791924 -0.13740785 0.25191849
0.48820758 -0.13647105 0.25193357
0.48849595 -0.13553426 0.25194862
0.51141584 -0.18307327 0.25645787
0.51169276 -0.18217368 0.25647232
0.51196963 -0.18127412 0.2564868
0.51224655 -0.18037453 0.25650126
0.51252341 -0.17947496 0.25651574
0.51280034 -0.1785754 0.2565302
0.5130772 -0.17767581 0.25654465
0.51335412 -0.17677623 0.25655913
0.51266706 -0.17564243 0.25640446
0.51294428 -0.17474182 0.25641894
0.5132215 -0.17384121 0.25643343
0.51349872 -0.1729406 0.25644791
0.51281327 -0.17180163 0.25629333
0.51212853 -0.17066059 0.25613877
0.51048231 -0.16927703 0.25581521
0.50979912 -0.1681308 0.25566071
0.50911659 -0.16698253 0.25550628
0.50843465 -0.16583218 0.25535187
0.5067926 -0.16443516 0.25502852
0.50611228 -0.16327965 0.2548742
0.50447249 -0.16187543 0.25455096
0.50379372 -0.16071472 0.25439671
0.5021562 -0.15930325 0.25407359
0.50051987 -0.15788764 0.25375053
0.49984366 -0.15671867 0.25359643
0.49820963 -0.15529583 0.25327349
0.49753502 -0.1541217 0.25311947
0.49590313 -0.1526916 0.25279665
0.49523014 -0.15151231 0.25264269
0.49455777 -0.15033093 0.25248879
0.49388602 -0.1491475 0.25233492
0.49321488 -0.14796197 0.25218105
0.49254441 -0.1467744 0.25202724
0.49091867 -0.14532468 0.25170475
0.49024972 -0.14413191 0.251551
0.4895815 -0.14293711 0.25139731
0.48891389 -0.14174023 0.25124365
0.48824695 -0.14054129 0.25109002
0.48758063 -0.13934027 0.25093645
0.48786896 -0.13840346 0.2509515
0.48815733 -0.13746667 0.25096658
0.48844567 -0.13652986 0.25098163
0.48873401 -0.13559307 0.25099671
0.51136756 -0.18402931 0.25552928
0.51164448 -0.18312974 0.25554377
0.51192135 -0.18223016 0.25555822
0.51219827 -0.18133059 0.25557271
0.51247513 -0.18043102 0.25558716
0.51275206 -0.17953144 0.25560164
0.51302892 -0.17863187 0.2556161
0.51330584 -0.17773229 0.25563055
0.51358271 -0.17683272 0.25564504
0.51289594 -0.17569897 0.25548932
0.51317316 -0.17479837 0.2555038
0.51345038 -0.17389776 0.25551829
0.51372761 -0.17299715 0.25553277
0.51304245 -0.17185824 0.25537711
0.51235789 -0.17071725 0.25522152
0.51071227 -0.16933383 0.25489584
0.51002932 -0.16818768 0.25474033
0.50934702 -0.16703945 0.25458482
0.50866538 -0.16588917 0.25442937
0.50702387 -0.16449229 0.2541039
0.50538367 -0.1630913 0.25377852
0.50374466 -0.16168615 0.2534532
0.50306648 -0.1605245 0.25329792
0.5014298 -0.15911213 0.25297272
0.49979433 -0.15769561 0.25264758
0.49911872 -0.15652567 0.25249243
0.49748552 -0.15510193 0.2521674
0.49681145 -0.15392682 0.25201234
0.49518049 -0.15249583 0.25168744
0.49450806 -0.15131555 0.25153247
0.49383625 -0.15013322 0.25137752
0.49316505 -0.1489488 0.25122261
0.49249455 -0.14776233 0.25106773
0.49182466 -0.14657378 0.2509129
0.49115542 -0.14538316 0.25075808
0.49048677 -0.14419048 0.25060329
0.48981878 -0.14299573 0.25044855
0.48915145 -0.14179891 0.25029385
0.48848477 -0.14060003 0.25013915
0.48781869 -0.13939908 0.24998452
0.48810706 -0.13846228 0.24999958
0.48839539 -0.13752548 0.25001466
0.48868376 -0.13658868 0.25002971
0.4889721 -0.13565189 0.25004479
0.5115962 -0.1840858 0.25461519
0.51187307 -0.18318622 0.25462967
0.51214999 -0.18228665 0.25464413
0.51242685 -0.18138707 0.25465861
0.51270378 -0.1804875 0.25467306
0.51298064 -0.17958792 0.25468752
0.51325756 -0.17868835 0.254702
0.51353443 -0.17778876 0.25471646
0.51381135 -0.1768892 0.25473094
0.51312482 -0.17575552 0.25457418
0.51340204 -0.1748549 0.25458866
0.51367927 -0.17395429 0.25460315
0.51395649 -0.1730537 0.25461763
0.51327157 -0.17191485 0.25446093
0.51258731 -0.17077394 0.25430426
0.51094216 -0.16939063 0.25397649
0.51025951 -0.16824454 0.25381991
0.50957751 -0.16709639 0.25366336
0.50793552 -0.16570275 0.25333574
0.50725508 -0.16454943 0.25317931
0.50561541 -0.16314857 0.25285181
0.50301743 -0.16149703 0.25235334
0.50233984 -0.16033441 0.25219703
0.50070393 -0.15892112 0.25186974
0.49906933 -0.15750371 0.25154254
0.49839431 -0.15633281 0.25138634
0.49676189 -0.15490814 0.25105923
0.49608847 -0.15373208 0.25090313
0.49541566 -0.15255393 0.25074708
0.4947435 -0.15137373 0.25059104
0.49407199 -0.15019146 0.25043505
0.49340102 -0.1490071 0.2502791
0.4927308 -0.14782068 0.25012314
0.49206117 -0.14663221 0.24996728
0.4913922 -0.14544167 0.24981141
0.49072379 -0.14424904 0.24965556
0.48910129 -0.14279233 0.24932899
0.48843455 -0.14159454 0.24917324
0.48872256 -0.14065878 0.24918829
0.48805678 -0.1394579 0.2490326
0.48834512 -0.13852109 0.24904767
0.48863348 -0.1375843 0.24906273
0.48892182 -0.13664749 0.2490778
0.48921016 -0.1357107 0.24909286
0.51320434 -0.18638676 0.25401714
0.51348054 -0.18548925 0.25403157
0.50989288 -0.18369281 0.25335622
0.51210171 -0.18324269 0.25371557
0.51237857 -0.18234313 0.25373003
0.5126555 -0.18144356 0.25374451
0.51293236 -0.18054397 0.25375897
0.51320928 -0.17964441 0.25377342
0.51348615 -0.17874482 0.2537879
0.51376307 -0.17784525 0.25380236
0.51403993 -0.17694567 0.25381684
0.51335371 -0.17581207 0.25365901
0.51363093 -0.17491145 0.25367349
0.51390815 -0.17401084 0.25368798
0.51418537 -0.17311023 0.25370246
0.51350075 -0.17197146 0.25354472
0.51281673 -0.17083061 0.253387
0.51117212 -0.16944744 0.25305712
0.5104897 -0.16830142 0.2528995
0.50884736 -0.16691102 0.25256976
0.50816649 -0.1657598 0.2524122
0.50652641 -0.16436218 0.25208256
0.50488758 -0.16296041 0.251753
0.50229067 -0.16130804 0.2512514
0.50161368 -0.16014445 0.25109404
0.4999786 -0.15873025 0.25076467
0.49834487 -0.15731193 0.25043535
0.49767041 -0.15614007 0.25027815
0.49603885 -0.15471449 0.24994896
0.49536601 -0.15353747 0.24979183
0.49469379 -0.15235835 0.24963473
0.49402222 -0.15117718 0.24947767
0.49335119 -0.14999393 0.24932063
0.49268091 -0.14880861 0.24916364
0.49201122 -0.14762123 0.24900669
0.49134219 -0.14643179 0.24884975
0.49067375 -0.14524025 0.24869284
0.49096081 -0.14430758 0.24870785
0.48933885 -0.14285101 0.24837916
0.48867235 -0.1416533 0.24822237
0.4880065 -0.14045352 0.24806561
0.48829487 -0.13951671 0.24808069
0.48858321 -0.13857992 0.24809575
0.48887154 -0.13764311 0.24811082
0.48915991 -0.13670632 0.24812588
0.48944825 -0.13576952 0.24814095
0.51343238 -0.18644312 0.25310513
0.51370865 -0.18554561 0.25311956
0.51108772 -0.18397409 0.25261351
0.51329577 -0.18352489 0.25297496
0.51357234 -0.18262635 0.25298941
0.51288408 -0.18150003 0.25283042
0.513161 -0.18060045 0.25284487
0.51343787 -0.17970088 0.25285932
0.51371479 -0.17880131 0.25287381
0.51399165 -0.17790173 0.25288826
0.51426858 -0.17700215 0.25290275
0.51454544 -0.17610258 0.2529172
0.51482236 -0.17520301 0.25293168
0.51509923 -0.17430343 0.25294614
0.51441425 -0.17316678 0.25278732
0.51372987 -0.17202806 0.25262854
0.51304615 -0.17088728 0.25246978
0.51140207 -0.16950424 0.25213778
0.50975931 -0.16811708 0.25180587
0.50907809 -0.16696802 0.25164726
0.50743753 -0.1655736 0.25131544
0.50579822 -0.16417506 0.25098374
0.50416023 -0.16277237 0.25065207
0.50156444 -0.16111918 0.25014734
0.50088799 -0.15995459 0.24998894
0.49925384 -0.15853952 0.2496575
0.49762094 -0.1571203 0.24932611
0.49598926 -0.15569693 0.24899477
0.49531636 -0.15452099 0.24883658
0.49464408 -0.15334298 0.24867842
0.49397242 -0.15216291 0.2485203
0.49330139 -0.15098074 0.24836218
0.49263102 -0.14979653 0.24820413
0.4919613 -0.14861025 0.2480461
0.49129221 -0.14742191 0.2478881
0.49062368 -0.14623147 0.24773012
0.49091077 -0.14529881 0.24774513
0.49024326 -0.14410529 0.24758722
0.4895764 -0.14290971 0.24742934
0.48891017 -0.14171205 0.24727149
0.48824459 -0.14051233 0.24711369
0.48853293 -0.13957553 0.24712875
0.48882127 -0.13863873 0.24714382
0.48910964 -0.13770193 0.24715889
0.48939797 -0.13676514 0.24717395
0.48968634 -0.13582833 0.24718902
0.51449019 -0.19052629 0.25248468
0.5147658 -0.18963085 0.25249907
0.51407474 -0.18851495 0.25233889
0.51241785 -0.18717547 0.25200412
0.51269442 -0.18627693 0.25201857
0.51103938 -0.18493123 0.25168386
0.51228207 -0.18425523 0.2518729
0.51352412 -0.18358131 0.2520619
0.51380068 -0.18268277 0.25207636
0.51311272 -0.18155651 0.25191632
0.51435387 -0.18088569 0.25210527
0.51463044 -0.17998715 0.25211972
0.514907 -0.17908861 0.25213417
0.51518357 -0.17819007 0.25214863
0.51546013 -0.17729153 0.25216308
0.5157367 -0.17639299 0.25217751
0.51601326 -0.17549443 0.25219196
0.51532787 -0.1743599 0.25203204
0.51560473 -0.17346033 0.25204653
0.51395899 -0.17208467 0.25171232
0.51327556 -0.17094396 0.25155252
0.51163197 -0.16956104 0.25121844
0.50998974 -0.16817401 0.25088441
0.5083487 -0.16678281 0.25055048
0.50670904 -0.16538751 0.2502166
0.50507063 -0.16398807 0.2498828
0.50343341 -0.16258448 0.24954905
0.5008387 -0.16093044 0.24904117
0.49920446 -0.15951756 0.24870758
0.49757144 -0.15810053 0.24837406
0.49593964 -0.15667936 0.24804059
0.49526668 -0.15550451 0.24788132
0.49459437 -0.1543276 0.2477221
0.49392265 -0.15314862 0.24756292
0.49325156 -0.15196757 0.24740373
0.49258113 -0.15078445 0.24724461
0.49191135 -0.14959927 0.24708551
0.4912422 -0.14841202 0.24692644
0.49057364 -0.14722268 0.2467674
0.48990577 -0.14603131 0.24660841
0.49019316 -0.1450976 0.24662343
0.49048054 -0.14416391 0.24663845
0.48981395 -0.14296839 0.24647951
0.48914799 -0.14177079 0.24632062
0.48848265 -0.14057115 0.24616176
0.48781791 -0.1393694 0.24600291
0.48810658 -0.13843156 0.24601801
0.48839524 -0.13749373 0.24603309
0.48868391 -0.13655591 0.24604817
0.48897257 -0.13561808 0.24606325
0.51471776 -0.1905825 0.25157478
0.51499337 -0.18968707 0.25158918
0.51430255 -0.18857123 0.25142792
0.5126462 -0.18723188 0.25109106
0.51292276 -0.18633334 0.25110552
0.51126826 -0.18498778 0.25076872
0.51347589 -0.18453626 0.25113443
0.51375246 -0.18363772 0.25114885
0.51402909 -0.18273918 0.2511633
0.51430565 -0.18184064 0.25117776
0.51458222 -0.1809421 0.25119221
0.51582235 -0.18027326 0.25138217
0.51609862 -0.17937575 0.25139663
0.51637489 -0.17847826 0.25141105
0.51665115 -0.17758074 0.25142547
0.51692742 -0.17668323 0.25143993
0.51624167 -0.17555085 0.25127891
0.51555645 -0.17441639 0.25111794
0.51583338 -0.17351681 0.2511324
0.51418817 -0.17214128 0.25079611
0.51350492 -0.17100063 0.25063527
0.51186192 -0.16961785 0.25029907
0.51022017 -0.16823094 0.24996297
0.50857973 -0.16683988 0.24962692
0.50694054 -0.1654447 0.24929094
0.50434345 -0.16380119 0.24877974
0.50270712 -0.16239671 0.24844393
0.50107205 -0.16098808 0.24810816
0.49943832 -0.15957533 0.24777247
0.49780583 -0.15815844 0.24743685
0.49617457 -0.15673739 0.24710128
0.49454463 -0.15531223 0.24676579
0.49387288 -0.15413435 0.24660553
0.49320173 -0.15295438 0.24644528
0.49253124 -0.15177238 0.24628508
0.4918614 -0.1505883 0.24612492
0.49119222 -0.14940214 0.2459648
0.49052358 -0.14821391 0.24580468
0.48985568 -0.14702362 0.24564461
0.49014306 -0.14608993 0.24565963
0.49043044 -0.14515622 0.24567465
0.4897638 -0.1439618 0.24551466
0.48909777 -0.14276531 0.2453547
0.48938581 -0.14182955 0.24536975
0.48872074 -0.14062996 0.24520983
0.48805627 -0.13942829 0.24504994
0.48834494 -0.13849045 0.24506502
0.4886336 -0.13755262 0.2450801
0.48892227 -0.13661478 0.24509519
0.48921093 -0.13567695 0.24511027
0.51494533 -0.19063872 0.25066489
0.51522094 -0.18974328 0.25067928
0.51453036 -0.18862751 0.25051698
0.51384044 -0.18750967 0.25035471
0.5141167 -0.18661216 0.25036913
0.51439291 -0.18571465 0.25038359
0.51466918 -0.18481715 0.25039801
0.51494545 -0.18391964 0.25041243
0.51522171 -0.18302213 0.25042689
0.51549798 -0.18212463 0.25044131
0.51577419 -0.18122712 0.25045574
0.51605046 -0.18032962 0.25047019
0.51632673 -0.17943211 0.25048462
0.51660299 -0.1785346 0.25049904
0.5168792 -0.1776371 0.25051349
0.51715547 -0.17673959 0.25052792
0.51743174 -0.17584208 0.25054234
0.51674658 -0.17470872 0.25038031
0.51606196 -0.17357329 0.2502183
0.51441729 -0.17219789 0.24987993
0.51373434 -0.1710573 0.24971801
0.51209182 -0.16967465 0.24937972
0.50949085 -0.16804686 0.24886514
0.50785118 -0.1666549 0.24852701
0.50621283 -0.16525882 0.24818894
0.50361687 -0.16361447 0.24767461
0.50198144 -0.16220908 0.2473367
0.5003472 -0.16079955 0.24699885
0.49871427 -0.15938589 0.24666108
0.49708256 -0.15796807 0.24632336
0.4954522 -0.15654615 0.24598572
0.49478009 -0.1553704 0.24582437
0.49410862 -0.15419258 0.24566306
0.49343771 -0.15301269 0.24550176
0.49276748 -0.15183073 0.24534053
0.49209791 -0.15064673 0.2451793
0.49142897 -0.14946063 0.24501812
0.49076062 -0.14827247 0.24485697
0.49009296 -0.14708224 0.24469586
0.48942593 -0.14588995 0.24453478
0.48971364 -0.14495522 0.24454981
0.48904756 -0.14375983 0.24438877
0.48838213 -0.14256237 0.24422778
0.48867047 -0.14162557 0.24424285
0.48800594 -0.140425 0.24408188
0.4882946 -0.13948716 0.24409696
0.48858327 -0.13854933 0.24411204
0.48887193 -0.13761149 0.24412714
0.4891606 -0.13667366 0.24414222
0.48944926 -0.13573584 0.2441573
0.51586419 -0.19180755 0.2499184
0.51613945 -0.19091314 0.2499328
0.51544851 -0.1897995 0.2497694
0.51379228 -0.18846352 0.24942827
0.51503414 -0.18778732 0.24962045
0.51531005 -0.18689086 0.24963488
0.51558602 -0.18599439 0.24964929
0.51586193 -0.1850979 0.24966371
0.51710224 -0.18442687 0.2498558
0.51737785 -0.18353143 0.2498702
0.51668978 -0.18240848 0.24970697
0.51696569 -0.18151201 0.24972138
0.51724166 -0.18061554 0.2497358
0.51751757 -0.17971906 0.24975021
0.51779348 -0.17882259 0.24976464
0.51710731 -0.17769344 0.24960148
0.51738358 -0.17679593 0.24961592
0.51765984 -0.17589843 0.24963035
0.51697493 -0.17476514 0.24946727
0.51629061 -0.17362978 0.24930422
0.51464641 -0.1722545 0.24896373
0.51396376 -0.17111398 0.24880075
0.5113619 -0.16949153 0.24828292
0.50876194 -0.16786289 0.2477652
0.50712317 -0.16647004 0.24742499
0.50548571 -0.16507305 0.24708484
0.50289083 -0.16342787 0.24656737
0.50125617 -0.16202156 0.24622737
0.49962279 -0.16061114 0.24588744
0.49799073 -0.15919657 0.24554759
0.49635988 -0.15777786 0.24520777
0.49473038 -0.15635502 0.24486805
0.49405882 -0.15517831 0.24470568
0.49338788 -0.15399951 0.24454331
0.49271759 -0.15281866 0.244381
0.49204797 -0.15163574 0.24421872
0.49137899 -0.15045075 0.24405648
0.49071056 -0.14926368 0.24389425
0.49004284 -0.14807457 0.24373206
0.49033025 -0.14714086 0.24374709
0.48966348 -0.14594863 0.24358495
0.48995119 -0.14501391 0.24359998
0.48928538 -0.14381859 0.2434379
0.48862019 -0.14262119 0.24327587
0.4879556 -0.14142171 0.24311383
0.48824427 -0.14048389 0.24312891
0.48853293 -0.13954605 0.24314399
0.4888216 -0.13860822 0.24315907
0.48911026 -0.13767038 0.24317415
0.48939893 -0.13673255 0.24318925
0.48968762 -0.13579471 0.24320433
0.51609147 -0.1918637 0.24900956
0.51636678 -0.1909693 0.24902394
0.51567608 -0.18985572 0.24885949
0.51402038 -0.18851988 0.24851628
0.51526195 -0.18784361 0.24870951
0.51553792 -0.18694714 0.24872392
0.51774329 -0.18649727 0.24909587
0.5180186 -0.18560287 0.24911025
0.51732981 -0.1844831 0.24894591
0.51760542 -0.18358766 0.2489603
0.51691759 -0.18246478 0.24879602
0.5171935 -0.18156829 0.24881043
0.51746947 -0.18067183 0.24882485
0.51774538 -0.17977536 0.24883926
0.51802135 -0.17887887 0.24885368
0.51829726 -0.1779824 0.24886809
0.51857322 -0.17708594 0.24888252
0.51788795 -0.17595477 0.24871835
0.51720327 -0.17482156 0.24855423
0.51651919 -0.17368625 0.24839011
0.51487559 -0.17231111 0.24804752
0.51419318 -0.17117065 0.24788351
0.51159209 -0.16954841 0.24736252
0.50899291 -0.16791995 0.24684164
0.50735468 -0.16652724 0.24649933
0.50475901 -0.16488741 0.24597862
0.50216526 -0.1632414 0.24545804
0.50053144 -0.1618342 0.24511595
0.49889895 -0.16042286 0.24477394
0.49726769 -0.15900737 0.24443197
0.49563774 -0.15758778 0.2440901
0.49400905 -0.15616404 0.24374829
0.49333805 -0.15498634 0.24358486
0.49362385 -0.15405782 0.24359979
0.49295384 -0.15287702 0.24343643
0.49228448 -0.15169416 0.24327309
0.49161574 -0.15050925 0.24310981
0.4909476 -0.14932224 0.24294654
0.49028012 -0.14813319 0.24278329
0.48961332 -0.14694206 0.2426201
0.48990104 -0.14600733 0.24263513
0.48923516 -0.14481311 0.24247198
0.4895232 -0.14387734 0.24248703
0.48885828 -0.14268 0.24232394
0.48819396 -0.14148059 0.24216086
0.48848262 -0.14054276 0.24217594
0.48877129 -0.13960493 0.24219102
0.48905995 -0.13866709 0.2422061
0.48934862 -0.13772926 0.24222119
0.48963729 -0.13679142 0.24223627
0.48992595 -0.1358536 0.24225135
0.48926422 -0.13464592 0.24208842
0.5163188 -0.19191986 0.24810071
0.51659411 -0.19102545 0.24811509
0.51590365 -0.18991195 0.2479496
0.51617926 -0.18901651 0.24796401
0.51548982 -0.1878999 0.24779856
0.51576573 -0.18700342 0.24781297
0.51893508 -0.1867767 0.24836685
0.5192101 -0.18588331 0.24838121
0.51852119 -0.18476462 0.24821579
0.51783299 -0.18364386 0.24805041
0.51810861 -0.18274844 0.24806482
0.51838422 -0.181853 0.24807921
0.51769727 -0.18072811 0.2479139
0.51797324 -0.17983164 0.24792832
0.51824915 -0.17893516 0.24794273
0.51852512 -0.17803869 0.24795716
0.51880103 -0.17714222 0.24797156
0.518116 -0.17601113 0.24780636
0.51743162 -0.17487797 0.24764118
0.51674783 -0.17374273 0.24747601
0.51510471 -0.17236772 0.24713132
0.5144226 -0.17122732 0.24696626
0.51182228 -0.16960527 0.24644212
0.50922388 -0.16797702 0.2459181
0.50662744 -0.16634257 0.24539416
0.50499129 -0.1649448 0.24504982
0.50144023 -0.16305505 0.24434657
0.4998073 -0.16164695 0.24400242
0.49817565 -0.1602347 0.24365832
0.49654523 -0.15881832 0.24331428
0.49491611 -0.15739782 0.24297032
0.49424478 -0.15622227 0.24280582
0.49357402 -0.15504463 0.24264134
0.49290395 -0.15386495 0.24247691
0.49223453 -0.1526832 0.24231251
0.49156576 -0.15149936 0.24214815
0.49089754 -0.15031345 0.2419838
0.49023002 -0.1491255 0.2418195
0.48956317 -0.14793548 0.24165525
0.48985088 -0.14700074 0.24167028
0.49013859 -0.14606601 0.2416853
0.48947299 -0.14487185 0.24152112
0.48976099 -0.14393608 0.24153616
0.48909634 -0.14273882 0.241372
0.48843229 -0.14153947 0.24120788
0.48872095 -0.14060163 0.24122296
0.48900962 -0.13966382 0.24123804
0.48929828 -0.13872598 0.24125314
0.48958695 -0.13778815 0.24126822
0.48987561 -0.13685031 0.2412833
0.49016428 -0.13591248 0.24129838
0.49045295 -0.13497464 0.24131346
0.51585561 -0.19086359 0.2470253
0.51613122 -0.18996817 0.24703971
0.51640683 -0.18907273 0.2470541
0.51668245 -0.18817729 0.24706851
0.51695806 -0.18728185 0.2470829
0.52012634 -0.18705596 0.24763992
0.520401 -0.18616362 0.24765427
0.51971209 -0.18504603 0.24748778
0.51902378 -0.18392637 0.24732132
0.51929909 -0.18303196 0.24733572
0.5195744 -0.18213756 0.2473501
0.5188874 -0.18101378 0.24718371
0.51916301 -0.18011834 0.24719812
0.51943862 -0.1792229 0.24721251
0.51971424 -0.17832746 0.24722691
0.51902884 -0.1771985 0.24706063
0.5183441 -0.17606747 0.24689436
0.51765996 -0.17493439 0.24672814
0.51697648 -0.1737992 0.24656191
0.51533389 -0.17242433 0.24621512
0.51465195 -0.17128399 0.24604902
0.51205248 -0.16966215 0.24552172
0.50945485 -0.16803408 0.24499454
0.50590074 -0.16615804 0.24428689
0.50426543 -0.16475937 0.24394046
