# .PCD v0.7 - Point Cloud Data file format
VERSION 0.7
FIELDS x y z
SIZE 4 4 4
TYPE F F F
COUNT 1 1 1
WIDTH 1421
HEIGHT 1
VIEWPOINT 0 0 0 1 0 0 0
POINTS 1421
DATA ascii
0.59268188 0.08116594 0.18862087
0.59296453 0.082084127 0.18863563
0.59324712 0.083002321 0.18865038
0.59267539 0.084442563 0.18842298
0.59295833 0.085361779 0.18843776
0.59324127 0.086281009 0.18845254
0.59352422 0.087200224 0.18846732
0.5938071 0.08811944 0.18848211
0.59323728 0.089565881 0.18825479
0.59266806 0.091014385 0.1880275
0.5929516 0.091935672 0.18804233
0.59238338 0.093387283 0.18781509
0.59266728 0.094309606 0.18782991
0.59209991 0.095764339 0.18760271
0.59153318 0.097221106 0.18737556
0.59181774 0.0981455 0.18739043
0.59125203 0.099605389 0.18716332
0.57525086 0.046798076 0.18537463
0.57553571 0.047723487 0.18538952
0.57495308 0.049127467 0.18516046
0.57523823 0.050053917 0.18517536
0.57552344 0.050980385 0.18519026
0.57407546 0.05287018 0.18471737
0.57464707 0.054727234 0.18474725
0.57493287 0.055655766 0.18476218
0.57521868 0.056584287 0.18477711
0.5746395 0.057999633 0.18454824
0.57579029 0.058441337 0.18480697
0.57607609 0.05936987 0.1848219
0.57636189 0.060298391 0.18483683
0.57751143 0.060735933 0.18509552
0.57779688 0.061663426 0.18511043
0.5789454 0.062097892 0.18536906
0.57923055 0.06302435 0.18538396
0.58037817 0.063455723 0.18564253
0.58152509 0.063885003 0.18590106
0.58180958 0.064809389 0.18591593
0.5829556 0.0652356 0.18617441
0.58410096 0.065659687 0.18643287
0.58438486 0.066582009 0.18644771
0.58552927 0.067003034 0.18670611
0.58667296 0.067421995 0.18696448
0.58695626 0.068342254 0.18697928
0.588099 0.068758085 0.18723759
0.58838195 0.069677316 0.18725237
0.58952379 0.070090055 0.18751065
0.58980644 0.07100825 0.18752542
0.59008902 0.071926422 0.18754017
0.59037167 0.072844617 0.18755494
0.59065431 0.073762804 0.18756971
0.5909369 0.074680991 0.18758447
0.59121954 0.075599186 0.18759924
0.59150213 0.076517358 0.18761401
0.59178478 0.077435546 0.18762878
0.59121138 0.078869529 0.18740021
0.59149432 0.079788744 0.18741499
0.59177721 0.08070796 0.18742979
0.59206015 0.08162719 0.18744457
0.59234309 0.082546405 0.18745935
0.59262604 0.083465621 0.18747413
0.59290898 0.084384851 0.18748891
0.59319192 0.085304067 0.1875037
0.59347486 0.086223297 0.18751848
0.59290463 0.087667607 0.18729007
0.59318787 0.088587865 0.18730487
0.59261858 0.090035252 0.18707652
0.59204996 0.091484733 0.18684821
0.59233385 0.092407055 0.18686303
0.59176612 0.093859658 0.18663475
0.59205031 0.094783008 0.18664961
0.59148359 0.096238688 0.18642138
0.59176815 0.097163074 0.18643625
0.59205264 0.09808746 0.18645112
0.59148723 0.099547282 0.18622297
0.57461822 0.047216378 0.18418925
0.57490337 0.048142832 0.18420415
0.57518852 0.0490693 0.18421905
0.57460678 0.050475292 0.18398897
0.57489228 0.051402785 0.18400389
0.57344514 0.053293463 0.18352893
0.57199937 0.055188283 0.18305404
0.57401741 0.055152595 0.18355882
0.57430351 0.056082152 0.18357377
0.57458967 0.057011712 0.18358873
0.57487577 0.057941269 0.18360367
0.57516187 0.05887083 0.18361862
0.57631207 0.059311572 0.18387839
0.57659787 0.060240094 0.18389332
0.57774711 0.0606777 0.18415305
0.57803261 0.061605193 0.18416797
0.57831806 0.062532686 0.18418288
0.57946604 0.062966175 0.18444254
0.58061332 0.063397624 0.18470216
0.58175999 0.063826971 0.18496174
0.58204454 0.064751357 0.18497661
0.58319026 0.065177627 0.18523614
0.58433539 0.065601781 0.18549566
0.58461928 0.066524103 0.1855105
0.58576339 0.066945188 0.18576995
0.58690685 0.067364223 0.18602936
0.58719009 0.068284474 0.18604417
0.58833265 0.068700373 0.18630354
0.5886156 0.069619603 0.18631832
0.58975714 0.07003241 0.18657763
0.59003979 0.070950598 0.1865924
0.59032238 0.071868777 0.18660717
0.59060502 0.072786964 0.18662193
0.59088761 0.073705159 0.1866367
0.59117025 0.074623346 0.18665147
0.5914529 0.075541534 0.18666624
0.59173548 0.076459713 0.186681
0.59201813 0.0773779 0.18669577
0.59144497 0.078811817 0.18646616
0.59172791 0.079731032 0.18648094
0.59201086 0.080650248 0.18649572
0.5922938 0.081569478 0.1865105
0.59257674 0.082488693 0.18652529
0.59285969 0.083407909 0.18654007
0.59314257 0.084327139 0.18655485
0.59257197 0.085769318 0.18632537
0.59285527 0.086689577 0.18634017
0.59228557 0.088134833 0.18611072
0.59256917 0.089056127 0.18612555
0.59200048 0.090504505 0.18589616
0.59143239 0.091954961 0.18566678
0.59171659 0.092878327 0.18568164
0.59200078 0.093801685 0.18569648
0.591434 0.095256247 0.1854672
0.59086788 0.096712902 0.18523794
0.59115273 0.097638331 0.18525283
0.59143758 0.098563753 0.18526772
0.59172243 0.099489182 0.1852826
0.59200728 0.10041461 0.18529747
0.57572126 0.04668187 0.1834939
0.57600611 0.047607284 0.18350878
0.57542396 0.04901113 0.18327762
0.57484251 0.050417058 0.1830465
0.57512802 0.051344551 0.18306142
0.57368141 0.053235099 0.18258436
0.57223612 0.055129789 0.18210737
0.57338828 0.055577822 0.18236831
0.57367468 0.056508422 0.18238327
0.57396114 0.057439022 0.18239823
0.57511199 0.057882909 0.1826591
0.57539815 0.058812466 0.18267405
0.57654804 0.059253275 0.18293487
0.57683384 0.060181797 0.18294981
0.57711965 0.061110329 0.18296474
0.57740545 0.062038861 0.18297967
0.5785538 0.062474456 0.18324041
0.57970148 0.062908009 0.18350112
0.58084852 0.063339517 0.18376179
0.58113337 0.064264931 0.18377668
0.58227944 0.064693317 0.1840373
0.58342493 0.065119654 0.18429787
0.58456975 0.065543875 0.18455845
0.58485365 0.066466197 0.18457328
0.58599752 0.066887349 0.18483378
0.58714074 0.067306444 0.18509425
0.58742398 0.068226703 0.18510905
0.58856624 0.068642661 0.18536948
0.58884919 0.069561891 0.18538426
0.5899905 0.069974765 0.18564463
0.59027314 0.070892952 0.18565939
0.59055573 0.071811125 0.18567416
0.59083837 0.072729319 0.18568893
0.59112096 0.073647507 0.18570369
0.5914036 0.074565701 0.18571846
0.59168625 0.075483888 0.18573323
0.59196883 0.076402061 0.185748
0.59225148 0.077320255 0.18576276
0.59167856 0.078754105 0.18553209
0.5919615 0.07967332 0.18554688
0.59224445 0.080592535 0.18556166
0.59252739 0.081511766 0.18557644
0.59195608 0.082950771 0.18534586
0.59223938 0.083871029 0.18536066
0.59252262 0.084791288 0.18537545
0.59280586 0.085711539 0.18539025
0.59223616 0.087155707 0.18515974
0.59251976 0.088076986 0.18517457
0.59195101 0.089524277 0.18494411
0.5913828 0.090973645 0.18471368
0.59081537 0.092425048 0.18448329
0.59109986 0.093349434 0.18449816
0.59138441 0.094273821 0.18451302
0.59081823 0.095729388 0.18428271
0.59110302 0.096654795 0.18429758
0.59053779 0.09811344 0.18406731
0.59082294 0.099039905 0.18408221
0.59195757 0.099431083 0.18434224
0.59224242 0.1003565 0.18435712
0.57595646 0.04662377 0.18255353
0.57624131 0.047549181 0.18256842
0.57565945 0.048952963 0.18233621
0.57507819 0.050358828 0.18210404
0.57449758 0.051766757 0.18187189
0.57132035 0.054621153 0.18089867
0.57247287 0.055071298 0.1811607
0.57275969 0.056002937 0.18117568
0.57304639 0.056934562 0.18119067
0.57333314 0.057866186 0.18120565
0.57448411 0.058311179 0.18146758
0.57563436 0.058754105 0.18172948
0.57592046 0.059683666 0.18174443
0.57620662 0.060613222 0.18175939
0.57735562 0.061052032 0.18202122
0.57764143 0.061980564 0.18203615
0.57878953 0.062416222 0.18229796
0.57993692 0.062849842 0.1825597
0.58022207 0.063776299 0.1825746
0.58136857 0.064206831 0.18283631
0.58251435 0.064635277 0.18309797
0.58365959 0.065061681 0.18335961
0.58480418 0.065485969 0.18362123
0.58508807 0.066408291 0.18363607
0.58623165 0.066829503 0.18389761
0.58737463 0.067248665 0.18415914
0.58765787 0.068168923 0.18417394
0.58879983 0.068584949 0.18443541
0.58908278 0.069504179 0.18445019
0.59022385 0.069917113 0.18471162
0.59050649 0.070835307 0.18472639
0.59078908 0.07175348 0.18474114
0.59107172 0.072671667 0.18475591
0.59135431 0.073589861 0.18477067
0.59163696 0.074508049 0.18478544
0.5919196 0.075426243 0.18480021
0.59220219 0.076344416 0.18481497
0.59248483 0.077262603 0.18482974
0.59191221 0.078696392 0.18459803
0.59219515 0.079615608 0.18461281
0.59247804 0.080534823 0.18462759
0.59276098 0.081454054 0.18464237
0.59218997 0.082892999 0.18441074
0.59247321 0.08381325 0.18442553
0.59275651 0.084733509 0.18444034
0.59218675 0.086176567 0.18420877
0.59247029 0.087097861 0.18422358
0.59190148 0.088544048 0.18399206
0.59218538 0.089466371 0.1840069
0.59161747 0.090915672 0.18377541
0.59105027 0.092367008 0.18354397
0.59133482 0.093291394 0.18355884
0.59076852 0.09474586 0.18332745
0.59105337 0.095671281 0.18334234
0.59048808 0.097128823 0.183111
0.59077322 0.098055273 0.1831259
0.59020889 0.099515945 0.1828946
0.59134358 0.099908195 0.1831557
0.59162873 0.10083466 0.18317059
0.56953871 0.054590657 0.17943974
0.57155734 0.054562595 0.17995094
0.57184446 0.055495247 0.17996594
0.57213151 0.056427911 0.17998095
0.57241857 0.057360575 0.17999594
0.57356995 0.057807695 0.18025897
0.57385671 0.058739334 0.18027397
0.57500702 0.059183352 0.18053693
0.57529348 0.060113952 0.1805519
0.57644284 0.060554862 0.18081482
0.57672894 0.061484434 0.18082976
0.5778774 0.061922267 0.18109263
0.57902521 0.062357988 0.18135549
0.57931072 0.063285485 0.18137041
0.58045757 0.063718133 0.18163319
0.58074272 0.064644597 0.18164809
0.58188862 0.065074153 0.18191083
0.5830338 0.06550163 0.18217354
0.58417845 0.065927058 0.1824362
0.58532244 0.066350386 0.18269885
0.58646578 0.066771664 0.18296145
0.58760846 0.067190886 0.18322402
0.58789176 0.068111144 0.18323883
0.58903348 0.068527237 0.18350135
0.58931643 0.069446467 0.18351613
0.5904572 0.069859467 0.1837786
0.59073985 0.070777655 0.18379337
0.59102243 0.071695834 0.18380813
0.59130508 0.072614022 0.1838229
0.59158766 0.073532209 0.18383767
0.59187031 0.074450403 0.18385243
0.59215289 0.075368591 0.1838672
0.59243554 0.07628677 0.18388197
0.59271818 0.077204958 0.18389674
0.5921458 0.07863868 0.18366396
0.59242874 0.079557896 0.18367875
0.59271169 0.080477111 0.18369353
0.59299463 0.081396341 0.18370831
0.59242386 0.08283522 0.18347563
0.5927071 0.083755471 0.18349043
0.59213728 0.085197441 0.18325779
0.59242088 0.086118728 0.1832726
0.59185201 0.08756382 0.18304002
0.59213591 0.088486135 0.18305485
0.5924198 0.089408457 0.18306968
0.59185213 0.0908577 0.18283714
0.59128517 0.092308976 0.18260466
0.59071887 0.093762323 0.1823722
0.59100372 0.094687752 0.18238708
0.59043837 0.096144199 0.18215469
0.59072351 0.097070649 0.18216957
0.59100866 0.097997107 0.18218447
0.59044462 0.099457711 0.18195213
0.59157902 0.099850029 0.18221428
0.59186417 0.10077649 0.18222918
0.56977624 0.054531969 0.17848991
0.57092917 0.05498537 0.17875409
0.57121658 0.055919062 0.1787691
0.57150394 0.056852765 0.17878412
0.57265562 0.05730202 0.17904823
0.57294267 0.058234684 0.17906322
0.57409346 0.058680844 0.17932729
0.57438022 0.059612468 0.17934227
0.57552999 0.060055524 0.17960627
0.57581639 0.060986109 0.17962123
0.57696521 0.061426073 0.17988519
0.57725132 0.06235563 0.17990014
0.57839918 0.062792487 0.18016405
0.57954645 0.063227251 0.18042794
0.5798319 0.064154744 0.18044285
0.58097816 0.064586431 0.18070666
0.58212376 0.065016054 0.18097046
0.58326876 0.06544359 0.18123421
0.58441311 0.065869085 0.18149793
0.58555686 0.066292472 0.18176164
0.5866999 0.066713817 0.1820253
0.58784235 0.067133114 0.18228891
0.58812559 0.068053365 0.18230371
0.58926708 0.068469524 0.18256728
0.58955002 0.069388755 0.18258207
0.59069055 0.069801822 0.18284559
0.59097314 0.07072001 0.18286036
0.59125578 0.071638182 0.18287513
0.59153843 0.072556376 0.18288989
0.59182101 0.073474564 0.18290466
0.59210366 0.074392751 0.18291943
0.59238625 0.075310946 0.18293419
0.59266889 0.076229118 0.18294896
0.59209645 0.077661738 0.18271512
0.59237939 0.078580968 0.1827299
0.59266233 0.079500183 0.18274468
0.59294528 0.080419399 0.18275946
0.59322822 0.081338629 0.18277425
0.59265774 0.082777441 0.18254051
0.59294099 0.083697699 0.18255532
0.5923714 0.085139602 0.18232162
0.59180248 0.086583585 0.18208797
0.59208637 0.087505907 0.1821028
0.59237027 0.088428229 0.18211764
0.5918026 0.089876369 0.18188404
0.59123558 0.091326535 0.18165047
0.59066921 0.092778794 0.18141696
0.59095407 0.093704224 0.18143183
0.59038866 0.095159568 0.18119836
0.5906738 0.096086033 0.18121326
0.59095895 0.097012483 0.18122816
0.59039485 0.098471984 0.18099475
0.5906803 0.099399477 0.18100967
0.59096581 0.10032697 0.18102458
0.59125131 0.10125446 0.1810395
0.57001376 0.054473285 0.17754009
0.57116646 0.054926749 0.17780532
0.57145387 0.055860437 0.17782032
0.57174122 0.056794144 0.17783535
0.57202864 0.057727836 0.17785037
0.57317972 0.058176126 0.1781155
0.57346678 0.05910879 0.17813049
0.57461697 0.059553977 0.1783956
0.57576644 0.059997097 0.17866066
0.5760529 0.060927682 0.17867562
0.57633936 0.061858281 0.17869058
0.57748759 0.06229727 0.17895557
0.57863516 0.062734194 0.17922053
0.57892096 0.063662723 0.17923546
0.58006763 0.06409651 0.17950039
0.58035308 0.065024003 0.1795153
0.5814988 0.065454714 0.17978016
0.58264381 0.065883376 0.18004498
0.58378822 0.066309959 0.18030977
0.58579123 0.066234566 0.18082443
0.58607513 0.067156889 0.18083926
0.58721763 0.067577273 0.18110394
0.58835948 0.067995586 0.1813686
0.58950067 0.068411812 0.18163322
0.58978361 0.069331042 0.181648
0.59092391 0.06974417 0.18191259
0.59120649 0.070662364 0.18192735
0.59148914 0.071580537 0.18194212
0.59177178 0.072498724 0.18195687
0.59205437 0.073416919 0.18197164
0.59233701 0.074335106 0.18198641
0.5926196 0.075253293 0.18200117
0.59290224 0.076171473 0.18201594
0.5923301 0.077604026 0.18178105
0.59261304 0.078523256 0.18179584
0.59204185 0.079958893 0.18156101
0.59232509 0.080879152 0.1815758
0.59260833 0.08179941 0.1815906
0.59289157 0.082719661 0.1816054
0.59232199 0.084160462 0.18137065
0.59175301 0.085603341 0.18113592
0.5920369 0.086525679 0.18115075
0.5923208 0.087448001 0.18116559
0.59175307 0.08889503 0.18093091
0.59118599 0.090344109 0.18069629
0.59061956 0.091795266 0.1804617
0.59090441 0.092720695 0.18047659
0.59033895 0.094174944 0.18024205
0.59062409 0.095101401 0.18025695
0.59090924 0.096027866 0.18027185
0.59034508 0.097486265 0.18003736
0.59063053 0.098413758 0.1800523
0.59091604 0.099341251 0.18006721
0.59120154 0.10026874 0.18008213
0.59148699 0.10119624 0.18009704
0.5693863 0.05489476 0.17633902
0.57053906 0.055349328 0.1766053
0.57082677 0.056284059 0.17662033
0.57197851 0.056735523 0.17688657
0.57226592 0.057669211 0.17690159
0.57341677 0.058117572 0.17716777
0.57370383 0.059050236 0.17718278
0.57399088 0.0599829 0.17719777
0.57514048 0.060427107 0.17746392
0.57628942 0.060869254 0.17773001
0.57657588 0.061799854 0.17774497
0.57686228 0.062730454 0.17775993
0.5780099 0.063168466 0.17802596
0.57829607 0.064098023 0.17804091
0.57944274 0.064532951 0.17830688
0.58058882 0.06496577 0.17857283
0.58173424 0.065396547 0.17883874
0.58287901 0.065825276 0.17910461
0.58316386 0.066750705 0.1791195
0.58516663 0.066676497 0.17963625
0.58630955 0.067098983 0.17990205
0.58745176 0.067519426 0.18016778
0.58859336 0.067937814 0.18043348
0.58973432 0.0683541 0.18069915
0.59001726 0.06927333 0.18071395
0.5903002 0.070192546 0.18072873
0.59143984 0.070604712 0.18099433
0.59172249 0.071522892 0.1810091
0.59200507 0.072441079 0.18102387
0.59228772 0.073359266 0.18103863
0.59257036 0.074277461 0.1810534
0.59285295 0.075195648 0.18106817
0.5931356 0.076113828 0.18108293
0.59256369 0.077546313 0.18084699
0.59284663 0.078465544 0.18086177
0.59227568 0.079901122 0.18062589
0.59255898 0.080821373 0.18064068
0.59284222 0.081741631 0.18065549
0.59227252 0.083181329 0.18041967
0.59255612 0.084102623 0.18043448
0.59198743 0.085545436 0.18019871
0.59227133 0.086467773 0.18021354
0.59170347 0.087913714 0.1799778
0.59198773 0.088837057 0.17999265
0.59142089 0.090286076 0.17975698
0.59085476 0.091737166 0.17952134
0.59113961 0.092662595 0.17953622
0.59057438 0.094116777 0.17930064
0.59085953 0.095043235 0.17931552
0.59029531 0.096500538 0.17907999
0.59058076 0.097428031 0.17909491
0.59086627 0.098355524 0.17910983
0.59115177 0.099283017 0.17912474
0.59143722 0.10021051 0.17913966
0.59172273 0.101138 0.17915457
0.56933612 0.053900253 0.17537309
0.56962413 0.054836009 0.17538814
0.5699122 0.055771779 0.17540319
0.5702002 0.056707535 0.17541824
0.57135201 0.057160102 0.17568554
0.57250321 0.05761059 0.17595282
0.57279062 0.058544297 0.17596783
0.57394087 0.058991678 0.17623505
0.57422793 0.059924342 0.17625006
0.57537729 0.060368616 0.17651725
0.57566404 0.061300255 0.17653222
0.57681233 0.061741427 0.17679934
0.57709879 0.062672026 0.17681432
0.57824618 0.063110106 0.17708139
0.57853228 0.064039662 0.17709634
0.57881838 0.064969219 0.17711128
0.57996452 0.065403186 0.1773783
0.58111 0.065835036 0.17764528
0.58225483 0.066264853 0.17791222
0.58339906 0.066692598 0.17817913
0.58454257 0.067118272 0.17844599
0.58568549 0.06754189 0.17871284
0.58682781 0.067963406 0.17897967
0.58796948 0.068382867 0.17924644
0.58911049 0.068800285 0.17951317
0.58939373 0.069720544 0.17952798
0.59053379 0.070134833 0.17979467
0.59081674 0.071054064 0.17980945
0.59195584 0.071465239 0.18007609
0.59223843 0.072383434 0.18009086
0.59252107 0.073301621 0.18010563
0.59194851 0.07473094 0.17986858
0.59223145 0.075650156 0.17988336
0.59251434 0.076569386 0.17989814
0.59279728 0.077488601 0.17991294
0.59308022 0.078407831 0.17992772
0.59250957 0.079843342 0.17969078
0.59279281 0.080763601 0.17970558
0.59307611 0.081683852 0.17972037
0.59250665 0.083123483 0.1794835
0.59279025 0.084044777 0.17949831
0.5922218 0.08548753 0.17926149
0.59165394 0.086932376 0.17902468
0.59193814 0.087855741 0.17903954
0.5913713 0.08930365 0.17880279
0.59165585 0.090228036 0.17881766
0.5910899 0.091679066 0.17858097
0.59137475 0.092604488 0.17859586
0.59080982 0.09405861 0.17835921
0.59109497 0.094985068 0.17837411
0.59053099 0.096442305 0.17813753
0.5908165 0.097369798 0.17815244
0.591102 0.098297291 0.17816736
0.59138745 0.099224783 0.17818227
0.59167296 0.10015228 0.17819719
0.5919584 0.10107977 0.17821211
0.59224391 0.10200726 0.17822702
0.56957394 0.053841501 0.17442222
0.56986195 0.054777257 0.17443727
0.57014996 0.055713028 0.17445232
0.57043803 0.056648783 0.17446737
0.57158959 0.057101417 0.17473572
0.5727405 0.057551969 0.17500405
0.57302791 0.058485676 0.17501906
0.57417786 0.05893312 0.17528734
0.57446498 0.059865788 0.17530234
0.57475203 0.060798451 0.17531733
0.57590079 0.061241765 0.17558555
0.57618755 0.062173389 0.17560054
0.5773353 0.062613599 0.17586869
0.57762176 0.063544199 0.17588367
0.57790816 0.064474784 0.17589863
0.57905465 0.064910859 0.17616671
0.57934076 0.065840416 0.17618167
0.5804863 0.066273406 0.1764497
0.58163118 0.066704296 0.17671773
0.58277547 0.067133136 0.17698571
0.58477753 0.067060232 0.17750669
0.58592016 0.067483917 0.17777458
0.58706224 0.067905501 0.17804244
0.58734614 0.068827823 0.17805728
0.58848721 0.069246322 0.17832509
0.58962762 0.069662765 0.17859286
0.58991086 0.070583008 0.17860766
0.59105033 0.070996352 0.17887539
0.59133327 0.071915567 0.17889017
0.59161621 0.072834782 0.17890495
0.59189916 0.073754013 0.17891973
0.5921821 0.074673228 0.17893451
0.59246504 0.075592443 0.1789493
0.59274799 0.076511674 0.17896409
0.59303093 0.077430889 0.17897888
0.59246016 0.078865312 0.17874086
0.59274346 0.079785563 0.17875566
0.5930267 0.080705822 0.17877047
0.59330994 0.081626073 0.17878526
0.59274083 0.083065644 0.17854734
0.59302437 0.083986938 0.17856215
0.59245622 0.085429624 0.17832428
0.59188861 0.086874403 0.17808641
0.5921728 0.087797768 0.17810127
0.5916062 0.08924561 0.17786348
0.59189075 0.090169996 0.17787835
0.5921753 0.091094382 0.17789321
0.59160995 0.092546389 0.17765549
0.59104526 0.094000444 0.1774178
0.59133047 0.094926894 0.1774327
0.59076673 0.096384071 0.17719506
0.59105217 0.097311564 0.17720997
0.59133768 0.098239057 0.17722489
0.59162319 0.09916655 0.17723981
0.59190863 0.10009404 0.17725472
0.59219414 0.10102154 0.17726964
0.5975616 0.098727554 0.17879921
0.59784514 0.099648848 0.17881404
0.56779391 0.053802811 0.17294741
0.56981176 0.05378275 0.17347135
0.57009977 0.054718506 0.1734864
0.57038778 0.055654276 0.17350145
0.57067585 0.056590032 0.1735165
0.57182711 0.057042729 0.1737859
0.57211483 0.05797746 0.17380093
0.57326519 0.058427054 0.17407028
0.57441491 0.058874566 0.17433961
0.57470196 0.05980723 0.17435461
0.57498908 0.060739893 0.17436962
0.57613754 0.061183274 0.17463888
0.5764243 0.062114898 0.17465387
0.57671106 0.063046522 0.17466885
0.57785821 0.063485771 0.17493804
0.57814467 0.064416356 0.17495301
0.57929087 0.064852498 0.17522214
0.57957697 0.065782055 0.1752371
0.58072227 0.066215105 0.17550619
0.58186692 0.066646062 0.17577526
0.58301091 0.067074969 0.17604429
0.58415425 0.067501821 0.17631328
0.58529699 0.067926586 0.17658223
0.58729666 0.067847595 0.17710523
0.5875805 0.068769917 0.17712007
0.58872133 0.069188476 0.17738892
0.58986151 0.069604993 0.17765775
0.59014475 0.070525229 0.17767255
0.59128398 0.070938639 0.17794132
0.59156692 0.071857855 0.1779561
0.5918498 0.07277707 0.17797089
0.59213275 0.073696293 0.17798567
0.59241569 0.074615516 0.17800047
0.59269863 0.075534731 0.17801525
0.59298158 0.076453954 0.17803003
0.59326452 0.077373169 0.17804481
0.59269404 0.078807533 0.17780575
0.59297729 0.079727784 0.17782055
0.59326059 0.080648042 0.17783535
0.59354383 0.081568301 0.17785016
0.59297496 0.083007798 0.17761117
0.5932585 0.083929092 0.17762598
0.59269059 0.085371718 0.17738706
0.59297448 0.086294048 0.1774019
0.59240746 0.087739795 0.177163
0.59184116 0.089187577 0.17692417
0.59212565 0.090111963 0.17693903
0.59241021 0.09103635 0.1769539
0.59184515 0.092488289 0.17671512
0.59213001 0.093413711 0.17673001
0.59156591 0.094868727 0.17649128
0.59185106 0.095795199 0.17650618
0.59128791 0.09725333 0.1762675
0.59157342 0.098180823 0.17628242
0.59185886 0.099108316 0.17629734
0.59214437 0.10003581 0.17631225
0.59242988 0.1009633 0.17632717
0.59779572 0.098669708 0.17786306
0.59807932 0.099591002 0.17787787
0.56976151 0.052788228 0.17250542
0.57004958 0.053723998 0.17252047
0.57033759 0.054659754 0.17253552
0.5706256 0.055595525 0.17255057
0.57091367 0.05653128 0.17256562
0.5720647 0.056984045 0.17283608
0.57235241 0.057918776 0.17285112
0.57350248 0.058368433 0.17312153
0.57465196 0.058816008 0.17339189
0.57493901 0.059748672 0.1734069
0.57522607 0.060681339 0.17342189
0.57637429 0.061124779 0.17369221
0.57666105 0.062056404 0.1737072
0.57694781 0.062988028 0.17372218
0.57809472 0.063427344 0.17399243
0.57838118 0.064357929 0.17400739
0.57866758 0.065288529 0.17402236
0.57981324 0.065723695 0.17429253
0.58009934 0.066653252 0.17430748
0.58124405 0.067085348 0.17457761
0.5823881 0.067515321 0.17484771
0.58438945 0.067443721 0.17537291
0.58553189 0.067868546 0.17564292
0.58667368 0.068291321 0.1759129
0.58781493 0.068712011 0.17618285
0.58895546 0.069130637 0.17645276
0.59009534 0.069547214 0.17672263
0.59037864 0.07046745 0.17673744
0.59066188 0.071387708 0.17675224
0.59180051 0.071800135 0.17702204
0.59208345 0.072719358 0.17703684
0.5923664 0.073638581 0.17705162
0.59264934 0.074557796 0.1770664
0.59293228 0.075477012 0.17708118
0.59321517 0.076396242 0.17709596
0.59264469 0.077829495 0.17685583
0.59292793 0.078749754 0.17687064
0.59321117 0.079670012 0.17688544
0.59349442 0.080590263 0.17690024
0.59377772 0.081510521 0.17691503
0.59406096 0.082430772 0.17692983
0.5943442 0.083351031 0.17694464
0.59377623 0.084792547 0.17670465
0.59320891 0.086236142 0.17646469
0.59349281 0.087158464 0.17647952
0.59292632 0.088605173 0.17623959
0.59321058 0.089528531 0.17625444
0.59264511 0.09097831 0.17601459
0.59292966 0.09190271 0.17602944
0.59236521 0.093355611 0.17578964
0.59180135 0.09481056 0.17554986
0.59208649 0.095737033 0.17556477
0.59152365 0.097195104 0.17532504
0.59180909 0.098122597 0.17533995
0.5920946 0.09905009 0.17535487
0.59238011 0.099977583 0.17536978
0.59351236 0.10036933 0.17563926
0.5937975 0.10129578 0.17565416
0.59408265 0.10222223 0.17566906
0.56999934 0.052729476 0.17155455
0.57028735 0.053665247 0.1715696
0.57057542 0.054601002 0.17158465
0.57086343 0.055536773 0.1715997
0.57115144 0.056472529 0.17161475
0.57230222 0.056925356 0.17188625
0.57258993 0.057860088 0.17190129
0.57373977 0.058309808 0.17217274
0.57488894 0.05875745 0.17244418
0.57517606 0.059690118 0.17245917
0.57546312 0.060622782 0.17247418
0.57575017 0.06155543 0.17248917
0.57689786 0.061997913 0.17276053
0.57718462 0.062929541 0.17277551
0.57833123 0.063368917 0.1730468
0.57861769 0.064299501 0.17306177
0.57890409 0.065230101 0.17307673
0.58004946 0.065665334 0.17334796
0.58033562 0.066594891 0.17336291
0.58062172 0.067524448 0.17337786
0.58176583 0.067955568 0.17364901
0.583767 0.067885086 0.17417635
0.5849095 0.068311043 0.17444743
0.58605134 0.068734899 0.17471847
0.5871926 0.069156706 0.17498948
0.58833325 0.06957642 0.17526047
0.58947319 0.069994077 0.17553142
0.58975673 0.070915371 0.17554623
0.59089577 0.071329929 0.17581713
0.5920341 0.071742423 0.17608799
0.59231704 0.072661638 0.17610277
0.59259999 0.073580869 0.17611755
0.59288293 0.074500084 0.17613234
0.59316587 0.075419299 0.17614712
0.59344882 0.07633853 0.1761619
0.59287852 0.077771723 0.17592072
0.59316182 0.078691974 0.17593552
0.59344506 0.079612233 0.17595032
0.5937283 0.080532484 0.17596513
0.59401155 0.081452742 0.17597993
0.59429485 0.082373001 0.17599472
0.59457809 0.083293252 0.17600952
0.59401035 0.084734708 0.17576848
0.59429395 0.085655987 0.17578329
0.59372717 0.087100558 0.17554231
0.59401107 0.08802288 0.17555714
0.59344524 0.089470558 0.17531618
0.59288007 0.090920277 0.17507526
0.59316456 0.091844678 0.17509013
0.59260035 0.093297511 0.17484927
0.59203678 0.094752394 0.17460844
0.59232193 0.095678866 0.17462334
0.59260714 0.096605316 0.17463824
0.59289229 0.097531766 0.17465314
0.59317744 0.098458238 0.17466804
0.59346265 0.099384688 0.17468295
0.59374779 0.10031116 0.17469785
0.59826398 0.098554023 0.17599073
0.59854758 0.099475324 0.17600554
0.5687964 0.051274836 0.17031595
0.56908476 0.05221165 0.17033102
0.57023716 0.052670725 0.17060368
0.57052517 0.053606495 0.17061873
0.57081324 0.054542251 0.17063378
0.57110125 0.055478022 0.17064883
0.57138926 0.056413777 0.17066388
0.57253981 0.056866672 0.17093644
0.57282752 0.057801403 0.17095147
0.57397705 0.058251187 0.17122398
0.57512599 0.058698896 0.17149645
0.57541305 0.05963156 0.17151146
0.57570016 0.060564224 0.17152645
0.57598722 0.061496876 0.17154145
0.57713461 0.061939422 0.17181386
0.57742137 0.062871046 0.17182884
0.57770813 0.063802674 0.17184383
0.57885414 0.064241074 0.17211615
0.5791406 0.065171674 0.17213112
0.57942706 0.066102274 0.17214608
0.58057183 0.066536531 0.17241834
0.58085793 0.067466088 0.17243329
0.58200181 0.067897268 0.1727055
0.58400244 0.067826919 0.17323494
0.58514464 0.068252943 0.17350706
0.58628625 0.068676859 0.17377916
0.58742726 0.069098733 0.17405121
0.58856761 0.069518514 0.17432326
0.58970731 0.069936231 0.17459525
0.58999091 0.070857525 0.17461006
0.5911296 0.071272157 0.17488201
0.59226775 0.071684711 0.17515393
0.59255064 0.072603926 0.17516871
0.59283358 0.073523156 0.17518349
0.59311652 0.074442372 0.17519827
0.59339947 0.075361587 0.17521305
0.59368241 0.076280817 0.17522784
0.59396535 0.077200033 0.17524262
0.59339565 0.078634195 0.17500041
0.59367895 0.079554453 0.17501521
0.59396219 0.080474712 0.17503001
0.59424543 0.081394963 0.1750448
0.59452873 0.082315221 0.17505962
0.59481198 0.083235472 0.17507441
0.59424448 0.084676862 0.17483231
0.59452808 0.085598141 0.17484714
0.59481168 0.086519442 0.17486195
0.59424549 0.087964974 0.17461993
0.5936799 0.089412585 0.17437792
0.59311497 0.090862237 0.17413595
0.59339952 0.091786638 0.17415082
0.59283555 0.093239404 0.1739089
0.59227222 0.094694227 0.17366703
0.59255743 0.095620699 0.17368193
0.59284258 0.096547149 0.17369683
0.59312773 0.097473599 0.17371173
0.59341294 0.098400071 0.17372663
0.59369808 0.099326521 0.17374152
0.59398323 0.10025299 0.17375642
0.59849811 0.098496184 0.17505457
0.5987817 0.099417478 0.17506938
0.56903446 0.051216021 0.16936404
0.57105106 0.0511996 0.16989641
0.57133877 0.052134331 0.16991144
0.57162648 0.053069063 0.16992648
0.5719142 0.054003794 0.16994151
0.57220191 0.054938525 0.16995655
0.57248962 0.055873252 0.16997159
0.57363957 0.056325171 0.17024517
0.57392699 0.057258863 0.17026019
0.57421434 0.058192566 0.17027521
0.57536304 0.058640338 0.17054874
0.5756501 0.059573002 0.17056373
0.57593715 0.06050567 0.17057873
0.57622421 0.061438318 0.17059372
0.57737136 0.061880931 0.17086719
0.57765812 0.062812552 0.17088217
0.57794487 0.06374418 0.17089716
0.57909065 0.064182647 0.17117053
0.57937711 0.065113246 0.17118549
0.57966357 0.066043846 0.17120047
0.58080804 0.06647817 0.17147377
0.58109421 0.067407727 0.17148872
0.58223778 0.067838974 0.17176199
0.58423787 0.067768753 0.17229351
0.58537984 0.068194844 0.1725667
0.58652121 0.068618819 0.17283984
0.58766192 0.06904076 0.17311296
0.58880204 0.069460608 0.17338605
0.58994144 0.069878392 0.17365909
0.59022504 0.070799686 0.17367391
0.59136349 0.071214378 0.1739469
0.59250134 0.071626998 0.17421986
0.59278429 0.072546214 0.17423464
0.59306723 0.073465444 0.17424943
0.59335017 0.07438466 0.17426421
0.59363312 0.075303875 0.17427899
0.593916 0.076223105 0.17429377
0.59419894 0.077142321 0.17430857
0.59448189 0.078061551 0.17432335
0.59476483 0.078980766 0.17433813
0.59504777 0.079899982 0.17435291
0.59533072 0.080819212 0.1743677
0.59476256 0.082257442 0.17412449
0.59504586 0.083177701 0.17413931
0.59532911 0.084097952 0.1741541
0.59561235 0.08501821 0.1741689
0.5950458 0.086461596 0.17392579
0.59447986 0.087907061 0.1736827
0.59391457 0.089354612 0.17343965
0.59419876 0.090277977 0.17345449
0.59363443 0.091728598 0.1732115
0.59307075 0.093181305 0.17296854
0.5933556 0.094106734 0.17298342
0.59364045 0.095032163 0.17299831
0.5939253 0.09595757 0.1730132
0.59421015 0.096882999 0.17302807
0.594495 0.097808428 0.17304295
0.59477985 0.098733857 0.17305784
0.5950647 0.099659279 0.17307273
0.59534955 0.10058471 0.17308761
0.5956344 0.10151012 0.17310248
0.57128865 0.051140916 0.16894659
0.57157636 0.052075647 0.16896163
0.57186407 0.053010374 0.16897666
0.57301468 0.053465463 0.16925135
0.57330209 0.054399155 0.16926637
0.57358944 0.055332847 0.16928138
0.57387686 0.05626655 0.1692964
0.57416427 0.057200242 0.16931142
0.57531297 0.057649117 0.16958602
0.57560003 0.058581781 0.16960101
0.57588708 0.059514448 0.16961601
0.5761742 0.060447112 0.169631
0.57646126 0.061379761 0.16964601
0.57760811 0.06182244 0.16992052
0.57789487 0.062754065 0.16993549
0.57904071 0.063193634 0.17020994
0.57932717 0.064124219 0.17022491
0.57961363 0.065054819 0.17023988
0.58075821 0.065490246 0.17051426
0.58104432 0.06641981 0.1705292
0.58133042 0.067349367 0.17054415
0.58247375 0.067780674 0.17081846
0.58447331 0.067710586 0.1713521
0.58561504 0.068136737 0.17162633
0.58675611 0.068560787 0.17190053
0.58789659 0.068982787 0.17217469
0.58903641 0.069402702 0.17244883
0.59017557 0.069820546 0.17272292
0.59045917 0.07074184 0.17273775
0.59159738 0.071156599 0.17301178
0.59273493 0.071569286 0.1732858
0.59301788 0.072488502 0.17330058
0.59330082 0.073407732 0.17331536
0.59443712 0.073816277 0.1735893
0.59471977 0.074734464 0.17360407
0.59500235 0.075652644 0.17361884
0.595285 0.076570831 0.17363361
0.59556758 0.077489018 0.17364837
0.59585023 0.078407213 0.17366314
0.59613287 0.0793254 0.17367791
0.59556431 0.0807615 0.17343363
0.59584725 0.081680715 0.17344841
0.59613019 0.08259993 0.1734632
0.59641314 0.083519161 0.17347798
0.59584624 0.084960431 0.17323379
0.59527993 0.086403757 0.17298962
0.59471428 0.087849155 0.1727455
0.59499818 0.088771477 0.17276032
0.59443343 0.090220004 0.17251623
0.59471762 0.091143347 0.17253108
0.59415388 0.092594951 0.17228705
0.5935908 0.094048627 0.17204306
0.59387565 0.094974056 0.17205794
0.5941605 0.09589947 0.17207283
0.59444535 0.096824899 0.17208771
0.5947302 0.097750328 0.17210259
0.59501505 0.09867575 0.17211747
0.5952999 0.099601179 0.17213236
0.59558469 0.10052661 0.17214724
0.59586954 0.10145202 0.17216212
0.57152617 0.051082227 0.16799676
0.57181388 0.052016959 0.1680118
0.57210159 0.05295169 0.16802683
0.57325196 0.053406842 0.16830258
0.57353938 0.054340534 0.1683176
0.57468873 0.054792568 0.16859329
0.57497585 0.055725232 0.16860829
0.5752629 0.056657895 0.16862328
0.57554996 0.057590563 0.16863829
0.57583708 0.058523227 0.16865329
0.57612413 0.05945589 0.16866829
0.57641119 0.060388554 0.16868329
0.57755816 0.060832322 0.16895886
0.57784492 0.061763946 0.16897385
0.57813168 0.06269557 0.16898882
0.57927722 0.063135207 0.16926433
0.57956368 0.064065792 0.16927929
0.58070832 0.064502329 0.16955474
0.58099443 0.065431885 0.16956969
0.58213812 0.06586533 0.16984507
0.58242393 0.066793859 0.16986002
0.58356667 0.067224167 0.17013538
0.58470875 0.067652419 0.17041069
0.58585024 0.068078637 0.17068596
0.58699101 0.068502747 0.17096122
0.58813125 0.068924822 0.17123643
0.58927083 0.069344796 0.17151162
0.5904097 0.069762707 0.17178676
0.5906933 0.070684001 0.17180158
0.59183127 0.071098819 0.17207667
0.59296858 0.071511574 0.17235173
0.59325147 0.072430789 0.17236651
0.59438783 0.072840437 0.17264153
0.59467047 0.073758632 0.1726563
0.59495312 0.074676819 0.17267106
0.59523571 0.075594991 0.17268583
0.59551835 0.076513186 0.1727006
0.59580094 0.077431373 0.17271537
0.59608358 0.07834956 0.17273013
0.59636617 0.079267755 0.1727449
0.59664881 0.080185927 0.17275967
0.59693146 0.081104122 0.17277443
0.59721404 0.082022309 0.1727892
0.59664673 0.083461449 0.17254393
0.59608012 0.084902652 0.17229867
0.59551406 0.086345911 0.17205346
0.59579766 0.08726719 0.17206828
0.59523255 0.088713571 0.17182311
0.59466809 0.090162031 0.17157798
0.59495229 0.091085382 0.17159282
0.59438878 0.092536911 0.17134774
0.59467334 0.093461297 0.17136261
0.59411085 0.094915956 0.17111757
0.59439564 0.095841371 0.17113246
0.59468049 0.096766792 0.17114735
0.59496534 0.097692221 0.17116222
0.59525019 0.098617651 0.1711771
0.59553504 0.09954308 0.17119199
0.59581989 0.1004685 0.17120688
0.59610474 0.10139392 0.17122176
0.57090038 0.051499948 0.16678514
0.57291448 0.051480826 0.16732378
0.57320184 0.052414518 0.16733879
0.57348925 0.053348221 0.16735381
0.57377666 0.054281913 0.16736883
0.57492578 0.05473401 0.16764557
0.57607436 0.055184055 0.1679223
0.57636112 0.056115679 0.16793728
0.57664788 0.057047304 0.16795225
0.57693464 0.057978943 0.16796724
0.57722139 0.058910567 0.16798222
0.57750815 0.059842192 0.16799721
0.57865441 0.060284987 0.16827381
0.57894087 0.061215587 0.16828877
0.57922727 0.062146183 0.16830374
0.57951373 0.063076787 0.1683187
0.57980019 0.064007372 0.16833366
0.58180249 0.06394998 0.1688717
0.58208829 0.064878508 0.16888663
0.58323145 0.065310948 0.16916308
0.5835169 0.066238441 0.16917799
0.5838024 0.067165934 0.16919291
0.58580059 0.067095108 0.16973072
0.58694142 0.06752032 0.17000704
0.58808166 0.067943484 0.1702833
0.58836585 0.068866849 0.17029816
0.5895052 0.069286883 0.1705744
0.59064382 0.06970486 0.1708506
0.59092742 0.070626155 0.17086542
0.5920651 0.07104104 0.17114156
0.59320217 0.071453862 0.17141767
0.59348512 0.072373077 0.17143247
0.59462118 0.072782792 0.17170852
0.59490383 0.073700979 0.17172329
0.59518641 0.074619174 0.17173806
0.59546906 0.075537346 0.17175283
0.5957517 0.076455534 0.17176759
0.59603429 0.077373728 0.17178236
0.59631693 0.078291915 0.17179713
0.59659952 0.079210103 0.17181189
0.59688216 0.080128282 0.17182666
0.59716475 0.08104647 0.17184143
0.5974474 0.081964664 0.17185619
0.59688038 0.083403736 0.17160986
0.59631395 0.08484488 0.17136356
0.59659725 0.085765131 0.17137836
0.59603179 0.087209351 0.17113212
0.59546697 0.088655666 0.17088591
0.59490275 0.090104058 0.17063971
0.59518695 0.091027409 0.17065455
0.59462374 0.092478879 0.17040843
0.59490824 0.093403265 0.17042328
0.59519279 0.094327651 0.17043816
0.59463084 0.095783263 0.17019209
0.59491569 0.096708693 0.17020698
0.59520054 0.097634122 0.17022185
0.59548539 0.098559551 0.17023674
0.59577024 0.099484973 0.17025162
0.59605509 0.1004104 0.17026651
0.59633994 0.10133582 0.1702814
0.59578055 0.10279969 0.17003545
0.57430381 0.048604161 0.16687074
0.57459056 0.049535785 0.16688573
0.57401448 0.050944809 0.16663785
0.5743016 0.051877473 0.16665284
0.57458866 0.05281014 0.16666785
0.57487571 0.053742804 0.16668285
0.57516283 0.054675452 0.16669784
0.57631111 0.055125564 0.16697563
0.57745874 0.055573594 0.16725336
0.57774514 0.056504194 0.16726832
0.5780316 0.057434779 0.16728328
0.57831806 0.058365375 0.16729826
0.57860446 0.059295975 0.16731322
0.57975018 0.059737794 0.16759086
0.58003628 0.06066737 0.1676058
0.58032244 0.061596926 0.16762075
0.58060855 0.062526487 0.16763569
0.58175266 0.062963165 0.16791324
0.58289617 0.063397728 0.16819078
0.58318168 0.064325221 0.16820569
0.58432418 0.064756714 0.16848315
0.58460933 0.065683179 0.16849805
0.58489448 0.066609636 0.16851296
0.58603573 0.067037009 0.16879036
0.58717638 0.067462288 0.16906771
0.58831632 0.067885511 0.16934505
0.58945572 0.068306655 0.16962236
0.58973962 0.069228977 0.16963719
0.59087801 0.069647022 0.16991444
0.59116155 0.070568316 0.16992925
0.59229898 0.070983268 0.17020644
0.59343576 0.07139615 0.17048362
0.59371871 0.072315365 0.1704984
0.59485453 0.072725147 0.1707755
0.59513718 0.073643334 0.17079027
0.59541976 0.074561521 0.17080504
0.59570241 0.075479701 0.1708198
0.59598505 0.076397888 0.17083457
0.59626764 0.077316076 0.17084934
0.59655029 0.07823427 0.17086411
0.59683287 0.079152457 0.17087887
0.59711552 0.080070637 0.17089364
0.5973981 0.080988824 0.17090841
0.59768075 0.081907012 0.17092317
0.59711397 0.083346024 0.1706758
0.59739691 0.08426524 0.17069058
0.59683108 0.085707352 0.17044325
0.59626591 0.087151505 0.17019595
0.59654951 0.088072807 0.17021076
0.59598523 0.089520074 0.16996352
0.59542161 0.090969436 0.16971628
0.59485865 0.092420839 0.1694691
0.5951432 0.093345225 0.16948397
0.59542769 0.094269611 0.16949885
0.59486604 0.095725164 0.16925173
0.59515089 0.096650593 0.16926661
0.59543574 0.097576022 0.1692815
0.59572059 0.098501444 0.16929637
0.59600544 0.099426873 0.16931126
0.59629029 0.1003523 0.16932614
0.59657514 0.10127772 0.16934103
0.59685999 0.10220314 0.16935591
0.57454056 0.04854567 0.16592407
0.57482731 0.049477294 0.16593906
0.57511407 0.050408918 0.16595404
0.57453859 0.051818918 0.16570513
0.57568759 0.052272182 0.165984
0.57597435 0.053203806 0.165999
0.5762611 0.054135431 0.16601397
0.57654786 0.05506707 0.16602896
0.57769525 0.055515166 0.16630773
0.57798165 0.056445766 0.16632271
0.57912803 0.056890756 0.16660143
0.57941419 0.057820316 0.16661638
0.57970029 0.058749873 0.16663133
0.57998639 0.059679434 0.16664629
0.58113122 0.060119282 0.16692492
0.58141702 0.061047815 0.16693985
0.58170283 0.061976332 0.1669548
0.58198863 0.062904865 0.16696973
0.58398926 0.062845625 0.16751194
0.58427447 0.06377209 0.16752684
0.58541638 0.064202622 0.16780533
0.58741415 0.064134121 0.16834737
0.58769834 0.065057471 0.16836223
0.58798259 0.065980829 0.16837709
0.58826679 0.066904195 0.16839193
0.58855098 0.067827538 0.16840678
0.58969015 0.068248749 0.16868514
0.58997399 0.069171071 0.16869998
0.59111214 0.069589175 0.16897827
0.59139568 0.070510477 0.16899309
0.59253287 0.070925489 0.16927134
0.59366941 0.071338437 0.16954955
0.5939523 0.072257653 0.16956434
0.59508789 0.072667494 0.1698425
0.59537053 0.073585689 0.16985726
0.59565312 0.074503876 0.16987203
0.59593576 0.075422049 0.1698868
0.59621835 0.076340243 0.16990156
0.59650099 0.07725843 0.16991633
0.59678364 0.078176618 0.1699311
0.59706622 0.079094812 0.16994587
0.59734887 0.080012985 0.16996063
0.59763145 0.080931179 0.1699754
0.5979141 0.081849366 0.16999017
0.59819674 0.082767554 0.17000493
0.5976305 0.084207527 0.16975652
0.59706497 0.08564958 0.16950813
0.59734821 0.086569831 0.16952294
0.59678364 0.08801496 0.1692746
0.59621966 0.089462169 0.1690263
0.59565628 0.090911463 0.16877803
0.59509361 0.092362799 0.16852979
0.5953781 0.093287192 0.16854466
0.59566265 0.094211578 0.16855952
0.59510124 0.095667064 0.16831136
0.59538609 0.096592486 0.16832624
0.59567094 0.097517915 0.16834113
0.59595579 0.098443344 0.168356
0.59624064 0.099368773 0.16837089
0.59568113 0.10083044 0.16812283
0.59681034 0.10121961 0.16840066
0.59709513 0.10214504 0.16841555
0.57103777 0.049452167 0.16390242
0.57477736 0.048487179 0.1649774
0.57506412 0.049418803 0.16499239
0.57535088 0.050350428 0.16500737
0.57563764 0.051282067 0.16502236
0.5759244 0.052213691 0.16503733
0.57621115 0.053145315 0.16505232
0.57649791 0.05407694 0.1650673
0.5776453 0.054526143 0.16534714
0.5779317 0.055456739 0.16536212
0.5790782 0.055902835 0.16564192
0.5793643 0.056832395 0.16565686
0.58050978 0.0572754 0.1659366
0.58079559 0.058203932 0.16595155
0.58108139 0.059132449 0.16596648
0.58136719 0.060060985 0.16598141
0.58251113 0.060498785 0.16626109
0.58279663 0.061426278 0.16627601
0.58308214 0.062353771 0.16629092
0.58508188 0.062293679 0.1668352
0.58622354 0.062724262 0.16711475
0.5865081 0.063648649 0.16712962
0.58764881 0.064076148 0.16740912
0.58878893 0.064501539 0.16768859
0.58907282 0.065423861 0.16770342
0.58935672 0.066346183 0.16771826
0.58964062 0.067268521 0.16773309
0.58992451 0.068190843 0.16774793
0.59106266 0.068610057 0.1680273
0.59220022 0.069027215 0.16830662
0.59248346 0.069947459 0.16832143
0.59276676 0.07086771 0.16833623
0.59390301 0.071280725 0.16861549
0.59418595 0.072199941 0.16863027
0.59532124 0.072609849 0.16890949
0.59560388 0.073528036 0.16892426
0.59588647 0.074446231 0.16893902
0.59616911 0.075364403 0.16895379
0.5964517 0.076282591 0.16896856
0.59673434 0.077200785 0.16898333
0.59701699 0.078118972 0.16899809
0.59729958 0.07903716 0.16901286
0.59758222 0.079955339 0.16902763
0.59786481 0.080873527 0.16904239
0.59814745 0.081791721 0.16905716
0.59843004 0.082709908 0.16907193
0.59786415 0.084149815 0.16882245
0.59729886 0.085591801 0.16857302
0.5975821 0.086512059 0.16858782
0.59701777 0.087957121 0.16833845
0.59645408 0.089404263 0.16808909
0.59673798 0.090326585 0.16810392
0.59617513 0.091776848 0.16785461
0.59645939 0.092700213 0.16786946
0.59589756 0.094153538 0.16762021
0.59618211 0.095077939 0.16763507
0.59562129 0.096534386 0.16738588
0.59590614 0.097459815 0.16740076
0.59619093 0.098385245 0.16741565
0.59647578 0.099310666 0.16743052
0.59676063 0.1002361 0.16744541
0.59704548 0.10116151 0.16746029
0.59733033 0.10208694 0.16747518
0.57127559 0.049393415 0.16295154
0.57587671 0.04795355 0.16429676
0.57616317 0.04888415 0.16431174
0.57558763 0.050291937 0.1640607
0.57587439 0.051223576 0.16407569
0.57616115 0.0521552 0.16409066
0.5764479 0.053086825 0.16410565
0.57759535 0.053537115 0.16438657
0.57788181 0.054467715 0.16440153
0.57816821 0.055398315 0.16441649
0.57931441 0.055844475 0.16469735
0.57960051 0.056774035 0.16471229
0.58074576 0.057217102 0.16499309
0.58103156 0.058145635 0.16500802
0.58131737 0.059074152 0.16502295
0.58246136 0.059513059 0.16530371
0.58274686 0.060440551 0.16531862
0.58303237 0.061368044 0.16533354
0.5858894 0.060817435 0.1661457
0.58617395 0.061741836 0.16616057
0.5864585 0.062666222 0.16617544
0.586743 0.063590609 0.1661903
0.58788347 0.064018175 0.16647086
0.58902335 0.064443633 0.16675138
0.58930725 0.065365955 0.16676621
0.58959115 0.066288278 0.16678105
0.59072965 0.066709638 0.16706149
0.59101325 0.067630917 0.1670763
0.59215087 0.068049178 0.16735671
0.59243411 0.068969436 0.16737151
0.59271735 0.06988968 0.16738631
0.59385365 0.070303798 0.16766664
0.59498936 0.070715822 0.16794695
0.59527194 0.071634009 0.16796172
0.59555459 0.072552204 0.16797648
0.59668905 0.072960109 0.16825673
0.59697133 0.073877253 0.16827147
0.59725368 0.074794404 0.16828622
0.59753597 0.075711556 0.16830097
0.59781826 0.076628715 0.16831572
0.59810054 0.077545866 0.16833048
0.59838289 0.078463018 0.16834523
0.59866518 0.07938017 0.16835998
0.59894747 0.080297329 0.16837472
0.59922975 0.08121448 0.16838947
0.59866339 0.082652263 0.16813891
0.59809774 0.084092103 0.16788839
0.59838068 0.085011333 0.16790317
0.59781599 0.08645428 0.16765271
0.59809923 0.087374531 0.16766751
0.59753549 0.088820554 0.16741709
0.59697235 0.090268679 0.16716671
0.5964098 0.091718875 0.16691634
0.59669405 0.09264224 0.1669312
0.59866977 0.092505708 0.16747636
0.59895337 0.09342701 0.16749118
0.59670156 0.095944293 0.16671063
0.59614128 0.097401716 0.16646039
0.59642613 0.098327138 0.16647528
0.59671098 0.099252567 0.16649017
0.59699583 0.100178 0.16650504
0.59728068 0.10110341 0.16651992
0.59756553 0.10202883 0.16653481
0.57496411 0.047438554 0.16306908
0.57611322 0.047895126 0.16335115
0.57639962 0.048825722 0.16336611
0.57582438 0.050233442 0.16311403
0.57611114 0.051165082 0.16312902
0.5763979 0.052096706 0.16314399
0.57668465 0.053028334 0.16315898
0.57783186 0.053478688 0.16344094
0.57811826 0.054409288 0.16345592
0.57840472 0.055339888 0.16347088
0.57955062 0.055786114 0.16375278
0.58069593 0.056230288 0.16403463
0.58098173 0.057158805 0.16404958
0.58126754 0.058087338 0.16406451
0.58241159 0.058527336 0.16434632
0.58269709 0.059454829 0.16436124
0.58384013 0.059891749 0.16464299
0.58412534 0.060818218 0.16465789
0.5869813 0.060266774 0.16547318
0.58726549 0.061190136 0.16548803
0.58754969 0.062113483 0.16550289
0.58783394 0.063036844 0.16551773
0.58897382 0.063463405 0.16579933
0.58925772 0.064385727 0.16581416
0.59039664 0.064809203 0.1660957
0.59068024 0.065730497 0.16611052
0.59096384 0.066651791 0.16612533
0.59210145 0.067071147 0.1664068
0.59323847 0.06748841 0.16668823
0.59352142 0.06840764 0.16670302
0.59380436 0.069326855 0.1667178
0.5940873 0.070246086 0.16673258
0.59522271 0.070658177 0.16701393
0.5955053 0.071576364 0.1670287
0.59578794 0.072494552 0.16704346
0.59692216 0.072902523 0.16732477
0.59720445 0.073819675 0.16733952
0.59748673 0.074736819 0.16735427
0.59776902 0.07565397 0.16736901
0.59805137 0.076571137 0.16738376
0.59833366 0.077488288 0.16739851
0.59861594 0.078405432 0.16741326
0.59889823 0.079322584 0.16742802
0.59918058 0.08023975 0.16744277
0.59946287 0.081156902 0.16745752
0.59974515 0.082074046 0.16747226
0.59917939 0.083512798 0.16722067
0.59861428 0.084953621 0.16696912
0.59889722 0.085872836 0.1669839
0.59833312 0.087316759 0.1667324
0.59776962 0.088762715 0.16648093
0.59805316 0.08968401 0.16649574
0.59749067 0.091133088 0.16624433
0.59777457 0.09205541 0.16625915
0.59890389 0.092447869 0.16654019
0.59918749 0.093369164 0.16655502
0.59693646 0.095886253 0.16577131
0.59722102 0.096810639 0.16578618
0.59750551 0.097735025 0.16580105
0.59694618 0.099194467 0.1655498
0.59723103 0.10011989 0.16556467
0.59751588 0.1010453 0.16557956
0.59780073 0.10197073 0.16559444
0.57520086 0.047380064 0.16212241
0.57634974 0.047836699 0.16240554
0.57663614 0.048767298 0.1624205
0.57606113 0.050174952 0.16216736
0.57634789 0.051106591 0.16218235
0.57663465 0.052038215 0.16219732
0.57778192 0.052489679 0.16248035
0.57806838 0.053420264 0.16249533
0.57921463 0.053868633 0.1627783
0.57950079 0.054798193 0.16279326
0.5797869 0.05572775 0.16280821
0.58179086 0.055686623 0.16335911
0.58207637 0.056614116 0.16337402
0.58236182 0.057541609 0.16338894
0.58264732 0.058469102 0.16340385
0.58379042 0.058907129 0.16368668
0.58493292 0.059343092 0.16396946
0.58693177 0.05928544 0.16452007
0.58721596 0.060208801 0.16453493
0.58750015 0.061132163 0.16454977
0.58864045 0.061560854 0.16483246
0.58892435 0.062483177 0.16484728
0.58920825 0.063405499 0.16486213
0.59034723 0.063830078 0.16514473
0.59063077 0.064751357 0.16515954
0.59091437 0.065672651 0.16517435
0.59119797 0.066593952 0.16518918
0.59233534 0.067013368 0.16547169
0.59347206 0.067430697 0.16575417
0.59375501 0.068349928 0.16576895
0.59489083 0.068764158 0.16605139
0.59517342 0.069682352 0.16606615
0.59545606 0.070600525 0.16608092
0.59573865 0.071518719 0.16609569
0.59602129 0.072436906 0.16611046
0.59715521 0.072844937 0.1663928
0.5974375 0.073762089 0.16640756
0.59771985 0.074679241 0.16642231
0.59800214 0.075596392 0.16643706
0.59828442 0.076513551 0.1664518
0.59856671 0.077430703 0.16646655
0.59884906 0.078347854 0.1664813
