# .PCD v0.7 - Point Cloud Data file format
VERSION 0.7
FIELDS x y z
SIZE 4 4 4
TYPE F F F
COUNT 1 1 1
WIDTH 1421
HEIGHT 1
VIEWPOINT 0 0 0 1 0 0 0
POINTS 1421
DATA ascii
0.55353755 0.040364146 0.21775389
0.55238962 0.04057622 0.21784729
0.55124307 0.040789995 0.2179407
0.55087322 0.040315144 0.21793315
0.55050337 0.039840296 0.21792558
0.54935944 0.04005748 0.21801904
0.54899025 0.039583482 0.2180115
0.54862106 0.03910948 0.21800396
0.54825187 0.038635481 0.2179964
0.54711127 0.038856916 0.21808995
0.54674274 0.038383771 0.21808241
0.54637426 0.037910618 0.21807489
0.54600573 0.037437472 0.21806735
0.54563719 0.03696432 0.21805982
0.54526871 0.036491174 0.21805228
0.54490018 0.036018025 0.21804476
0.54453164 0.035544876 0.21803723
0.54416311 0.035071727 0.21802969
0.54379463 0.034598578 0.21802217
0.5434261 0.034125429 0.21801463
0.54305756 0.03365228 0.2180071
0.54268909 0.03317913 0.21799956
0.54232055 0.032705985 0.21799204
0.54195201 0.032232832 0.2179845
0.54158354 0.031759687 0.21797697
0.541215 0.031286538 0.21796945
0.54084647 0.030813385 0.21796191
0.54047793 0.030340238 0.21795438
0.54010946 0.029867088 0.21794684
0.54049909 0.028681485 0.21783796
0.5401299 0.028207485 0.2178304
0.53976071 0.027733482 0.21782286
0.53939158 0.027259484 0.21781532
0.53902239 0.026785485 0.21780777
0.53865319 0.026311485 0.21780023
0.538284 0.025837485 0.21779269
0.53791481 0.025363484 0.21778513
0.53754568 0.024889486 0.21777759
0.53717649 0.024415487 0.21777005
0.5368073 0.023941485 0.2177625
0.53718901 0.022745665 0.21765347
0.53681916 0.022270815 0.21764591
0.53644931 0.021795964 0.21763834
0.53607947 0.021321112 0.21763079
0.53570962 0.020846259 0.21762323
0.53533977 0.020371411 0.21761568
0.53422302 0.020623488 0.21770969
0.56174487 0.042839352 0.21677442
0.56137043 0.042358544 0.21676676
0.56099594 0.041877735 0.21675912
0.56062144 0.041396931 0.21675146
0.55946457 0.041596837 0.21684566
0.55909073 0.041116882 0.21683802
0.55793583 0.041319337 0.21693227
0.55756271 0.040840231 0.21692464
0.55640978 0.041045245 0.21701892
0.55603731 0.040566988 0.2170113
0.5548864 0.040774558 0.21710563
0.55451459 0.040297154 0.21709803
0.55336559 0.040507305 0.21719241
0.55221802 0.040719122 0.21728681
0.5510717 0.040932644 0.21738122
0.55070186 0.040457796 0.21737367
0.55033201 0.039982945 0.21736611
0.54996216 0.039508093 0.21735856
0.54881924 0.039725877 0.21745302
0.54845005 0.039251875 0.21744548
0.54808086 0.038777877 0.21743794
0.54771167 0.038303874 0.21743038
0.54734248 0.037829876 0.21742284
0.54697335 0.037355877 0.2174153
0.54660416 0.036881875 0.21740775
0.54623497 0.036407877 0.21740021
0.54586577 0.035933878 0.21739265
0.54549658 0.03545988 0.21738511
0.54512745 0.034985878 0.21737757
0.54475826 0.034511875 0.21737002
0.54438907 0.034037877 0.21736248
0.54401988 0.033563878 0.21735494
0.54365069 0.033089876 0.21734738
0.5432815 0.032615878 0.21733984
0.54291236 0.032141879 0.2173323
0.54254317 0.031667881 0.21732475
0.54217398 0.031193879 0.21731721
0.54180479 0.030719878 0.21730967
0.5414356 0.03024588 0.21730211
0.54106647 0.029771881 0.21729457
0.54069728 0.029297879 0.21728703
0.54032809 0.028823879 0.21727948
0.53995889 0.02834988 0.21727194
0.5395897 0.027875878 0.2172644
0.53922051 0.027401879 0.21725684
0.53885138 0.026927881 0.2172493
0.53848219 0.026453881 0.21724175
0.538113 0.025979878 0.21723421
0.53774381 0.02550588 0.21722667
0.53812718 0.024312867 0.21711667
0.53775734 0.023838017 0.21710911
0.53738749 0.023363166 0.21710156
0.5370177 0.022888314 0.21709399
0.53664786 0.022413464 0.21708643
0.53627801 0.021938613 0.21707888
0.53590816 0.021463763 0.21707132
0.53553832 0.020988908 0.21706375
0.53516847 0.02051406 0.2170562
0.53405201 0.020765884 0.21715121
0.56157142 0.042983789 0.21620794
0.56119692 0.042502981 0.21620028
0.56082243 0.042022176 0.21619262
0.56044799 0.041541368 0.21618497
0.55929142 0.041741021 0.21628016
0.55891758 0.041261066 0.21627252
0.55776298 0.041463267 0.21636778
0.55738986 0.040984161 0.21636015
0.55701667 0.040505059 0.21635252
0.55586475 0.040710662 0.21644783
0.55471414 0.040917978 0.21654314
0.55434233 0.040440574 0.21653554
0.55319363 0.040650465 0.21663094
0.55204636 0.040862028 0.21672633
0.55167586 0.040386327 0.21671876
0.55130535 0.039910626 0.21671119
0.55016071 0.040125597 0.21680662
0.54979086 0.039650746 0.21679907
0.54864824 0.039868269 0.21689457
0.54827905 0.039394267 0.21688701
0.54790986 0.038920268 0.21687947
0.54754066 0.038446266 0.21687193
0.54717147 0.037972268 0.21686438
0.54680228 0.037498269 0.21685684
0.54643315 0.037024267 0.2168493
0.54606396 0.036550269 0.21684174
0.54569477 0.03607627 0.2168342
0.54532558 0.035602272 0.21682665
0.54495639 0.035128269 0.21681911
0.54458719 0.034654267 0.21681157
0.54421806 0.034180269 0.21680401
0.54384887 0.03370627 0.21679647
0.54347968 0.033232268 0.21678893
0.54311049 0.032758269 0.21678138
0.5427413 0.032284271 0.21677384
0.54237217 0.031810272 0.2167663
0.54200298 0.03133627 0.21675874
0.54163378 0.03086227 0.2167512
0.54126459 0.030388271 0.21674366
0.5408954 0.029914273 0.21673611
0.54052621 0.029440271 0.21672857
0.54015708 0.02896627 0.21672103
0.53978789 0.028492272 0.21671347
0.5394187 0.02801827 0.21670593
0.53904951 0.027544271 0.21669838
0.53868032 0.027070273 0.21669084
0.53906542 0.025880072 0.21657987
0.53869557 0.025405221 0.2165723
0.53832573 0.024930371 0.21656474
0.53795588 0.024455519 0.21655719
0.53758603 0.02398067 0.21654963
0.53721619 0.023505818 0.21654207
0.53684634 0.023030967 0.21653451
0.53647649 0.022556117 0.21652696
0.53610665 0.022081265 0.2165194
0.5357368 0.021606416 0.21651183
0.53536695 0.021131562 0.21650428
0.53499711 0.020656714 0.21649672
0.53462726 0.020181859 0.21648915
0.56218243 0.042451397 0.21553761
0.56180727 0.041969739 0.21552993
0.56064898 0.042166617 0.21562612
0.56027448 0.041685808 0.21561846
0.55911821 0.041885205 0.21571468
0.55874443 0.041405249 0.21570703
0.55837059 0.04092529 0.21569939
0.557217 0.041128088 0.21579567
0.55684382 0.040648986 0.21578804
0.5556922 0.040854335 0.21588434
0.55454189 0.04106139 0.21598066
0.55417007 0.040583987 0.21597306
0.55379826 0.040106583 0.21596546
0.55265051 0.040317077 0.21606186
0.55150419 0.040529232 0.21615829
0.55113369 0.040053532 0.2161507
0.55076319 0.039577831 0.21614313
0.54961956 0.039793395 0.2162396
0.54924971 0.039318543 0.21623203
0.54887986 0.038843695 0.21622448
0.54773885 0.039062664 0.21632099
0.54736966 0.038588662 0.21631345
0.54700047 0.038114663 0.21630591
0.54663128 0.037640665 0.21629836
0.54626209 0.037166663 0.21629082
0.54589295 0.036692664 0.21628328
0.54552376 0.036218666 0.21627572
0.54515457 0.035744663 0.21626818
0.54478538 0.035270661 0.21626063
0.54441619 0.034796663 0.21625309
0.544047 0.034322664 0.21624555
0.54367787 0.033848666 0.21623799
0.54330868 0.033374663 0.21623045
0.54293948 0.032900665 0.21622291
0.54257029 0.032426666 0.21621536
0.5422011 0.031952668 0.21620782
0.54183191 0.031478666 0.21620028
0.54146278 0.031004665 0.21619272
0.54109359 0.030530667 0.21618518
0.5407244 0.030056667 0.21617764
0.54035521 0.029582666 0.21617009
0.53998601 0.029108666 0.21616255
0.53961688 0.028634667 0.21615501
0.53924769 0.028160665 0.21614745
0.5388785 0.027686667 0.21613991
0.5392639 0.026497573 0.21602795
0.53889406 0.026022721 0.21602039
0.53852421 0.025547871 0.21601284
0.53815436 0.02507302 0.21600528
0.53778458 0.024598168 0.21599771
0.53741473 0.024123318 0.21599016
0.53704488 0.023648467 0.2159826
0.53667504 0.023173617 0.21597505
0.53630519 0.022698766 0.21596748
0.53593534 0.022223914 0.21595992
0.5355655 0.021749064 0.21595237
0.53519565 0.021274211 0.21594481
0.5348258 0.020799363 0.21593724
0.53445596 0.02032451 0.21592969
0.56200862 0.042596091 0.21497011
0.56163347 0.042114433 0.21496245
0.56047547 0.042311054 0.21505964
0.56010103 0.041830249 0.21505198
0.55972654 0.041349441 0.21504433
0.55857122 0.041549433 0.21514153
0.55819744 0.041069474 0.21513391
0.55704409 0.041272014 0.21523118
0.55667096 0.040792912 0.21522357
0.55551964 0.040998004 0.21532086
0.55514717 0.040519755 0.21531324
0.55477464 0.040041499 0.21530563
0.553626 0.04025 0.21540298
0.55325413 0.039772596 0.21539538
0.55210745 0.039983686 0.2154928
0.55173624 0.039507132 0.2154852
0.55136508 0.039030582 0.21547762
0.55022109 0.039245032 0.2155751
0.54985058 0.038769327 0.21556753
0.54948008 0.03829363 0.21555994
0.54833865 0.038511492 0.21565744
0.5479688 0.038036641 0.21564989
0.54759902 0.037561789 0.21564233
0.54646027 0.03778306 0.21573989
0.54609108 0.037309058 0.21573234
0.54572189 0.03683506 0.2157248
0.5453527 0.036361061 0.21571726
0.54498357 0.035887059 0.2157097
0.54461437 0.035413057 0.21570216
0.54424518 0.034939058 0.21569462
0.54387599 0.03446506 0.21568707
0.5435068 0.033991061 0.21567953
0.54313761 0.033517059 0.21567197
0.54276848 0.03304306 0.21566443
0.54239929 0.032569062 0.21565689
0.5420301 0.032095063 0.21564934
0.5416609 0.031621061 0.2156418
0.54129171 0.031147061 0.21563426
0.54092258 0.030673062 0.2156267
0.54055339 0.030199062 0.21561916
0.5401842 0.02972506 0.21561162
0.53981501 0.029251061 0.21560407
0.53944582 0.028777063 0.21559653
0.53907663 0.028303061 0.21558899
0.53946245 0.027115073 0.21547604
0.5390926 0.026640221 0.21546848
0.53872275 0.02616537 0.21546093
0.53835291 0.02569052 0.21545336
0.53798306 0.025215669 0.2154458
0.53761321 0.024740819 0.21543825
0.53724337 0.024265967 0.21543069
0.53762388 0.023071172 0.21531764
0.53725338 0.022595469 0.21531007
0.53688282 0.022119766 0.2153025
0.53651232 0.021644063 0.21529491
0.53614181 0.02116836 0.21528734
0.53577131 0.020692661 0.21527977
0.53540081 0.020216962 0.2152722
0.53503031 0.019741256 0.21526463
0.5346598 0.019265557 0.21525706
0.56142545 0.043897916 0.2145161
0.56183487 0.042740785 0.21440262
0.56145972 0.042259127 0.21439496
0.56030202 0.042455494 0.21449314
0.55992752 0.041974686 0.2144855
0.55955309 0.041493878 0.21447784
0.55839807 0.041693617 0.21457605
0.55802423 0.041213661 0.21456841
0.55687124 0.041415945 0.21466669
0.55649811 0.040936839 0.21465907
0.55612493 0.040457733 0.21465144
0.55497462 0.040663425 0.21474975
0.55460209 0.040185172 0.21474214
0.55422962 0.039706916 0.21473452
0.55385709 0.039228663 0.21472692
0.55271006 0.039438609 0.2148253
0.55156434 0.039650291 0.21492372
0.55119312 0.039173741 0.21491614
0.55082196 0.038697187 0.21490856
0.54967892 0.038912237 0.21500704
0.54930842 0.038436536 0.21499947
0.54893792 0.037960835 0.2149919
0.5477975 0.03817929 0.21509042
0.54742765 0.037704438 0.21508285
0.54705781 0.03722959 0.2150753
0.54668796 0.036754739 0.21506774
0.54631811 0.036279887 0.21506019
0.54594827 0.035805035 0.21505262
0.54557842 0.035330184 0.21504506
0.54444337 0.035555448 0.2151437
0.54407418 0.03508145 0.21513616
0.54370499 0.034607451 0.2151286
0.5433358 0.034133453 0.21512106
0.5429666 0.033659451 0.21511352
0.54259741 0.033185452 0.21510597
0.54222828 0.032711454 0.21509843
0.54185909 0.032237452 0.21509089
0.5414899 0.031763453 0.21508333
0.54112071 0.031289451 0.21507579
0.54075152 0.030815452 0.21506825
0.54038239 0.030341454 0.2150607
0.54001319 0.029867452 0.21505316
0.539644 0.029393453 0.21504562
0.53927481 0.028919455 0.21503806
0.53890562 0.028445452 0.21503052
0.53929108 0.027257722 0.21491657
0.53892124 0.02678287 0.214909
0.53855145 0.026308021 0.21490145
0.53893423 0.025116885 0.21478744
0.53856373 0.024641182 0.21477987
0.53819323 0.024165479 0.2147723
0.53782272 0.023689779 0.21476473
0.53745222 0.023214078 0.21475716
0.53708172 0.022738375 0.21474957
0.53671122 0.022262674 0.214742
0.53634071 0.021786971 0.21473444
0.53597021 0.021311268 0.21472687
0.53559971 0.020835569 0.2147193
0.53522921 0.020359868 0.21471173
0.5348587 0.019884164 0.21470414
0.5344882 0.019408464 0.21469657
0.56282037 0.042691957 0.213736
0.56244457 0.042209446 0.21372831
0.56050301 0.043080743 0.2139343
0.56012857 0.042599935 0.21392664
0.55975407 0.042119127 0.213919
0.55937958 0.041638318 0.21391134
0.55900508 0.04115751 0.21390368
0.55785108 0.041357841 0.21400294
0.55747724 0.040877886 0.21399529
0.55632526 0.041080765 0.21409458
0.55595207 0.04060166 0.21408695
0.55557895 0.040122554 0.21407934
0.55520576 0.039643448 0.21407171
0.55483258 0.039164342 0.21406408
0.55368453 0.039372332 0.21416344
0.55331206 0.03889408 0.21415582
0.55293953 0.038415823 0.21414821
0.55102122 0.0393169 0.21435466
0.55065006 0.038840346 0.21434708
0.55027884 0.038363796 0.21433949
0.54913676 0.038579438 0.214439
0.54876626 0.038103737 0.21443143
0.54839575 0.037628036 0.21442385
0.54802525 0.037152331 0.21441628
0.5468865 0.037372239 0.21451584
0.54651666 0.036897387 0.21450827
0.54614681 0.036422536 0.21450071
0.54577696 0.035947684 0.21449316
0.54540712 0.035472833 0.2144856
0.54503727 0.034997985 0.21447803
0.54390311 0.035223845 0.21457767
0.54353398 0.034749847 0.21457013
0.54316479 0.034275848 0.21456259
0.5427956 0.033801846 0.21455504
0.54242641 0.033327848 0.2145475
0.54205722 0.032853849 0.21453995
0.54168808 0.032379847 0.21453241
0.54131889 0.031905845 0.21452487
0.5409497 0.031431846 0.21451731
0.54058051 0.030957848 0.21450977
0.54021132 0.030483849 0.21450223
0.53984213 0.030009847 0.21449468
0.539473 0.029535849 0.21448714
0.53910381 0.029061848 0.2144796
0.53873461 0.028587848 0.21447204
0.53911978 0.027400371 0.21435709
0.53874993 0.026925519 0.21434954
0.53913313 0.025735488 0.21423455
0.53876263 0.025259789 0.21422698
0.53839213 0.024784086 0.21421941
0.53802162 0.024308383 0.21421184
0.53765112 0.023832681 0.21420425
0.53728062 0.023356982 0.21419668
0.53691006 0.022881279 0.21418911
0.53653955 0.022405576 0.21418154
0.53616905 0.021929873 0.21417397
0.53579855 0.02145417 0.2141664
0.53542805 0.020978471 0.21415882
0.53505754 0.020502772 0.21415125
0.53468704 0.020027066 0.21414368
0.53431654 0.019551367 0.21413611
0.56264627 0.042836908 0.2131675
0.56227046 0.042354397 0.21315981
0.56111211 0.042548519 0.21325997
0.55995506 0.042744372 0.21336016
0.55958056 0.042263564 0.2133525
0.55998671 0.041103542 0.21323696
0.55883163 0.041301947 0.2133372
0.55767792 0.041502025 0.21343744
0.55730408 0.04102207 0.21342981
0.55693024 0.040542111 0.21342216
0.55655646 0.040062156 0.21341452
0.55618262 0.039582197 0.21340688
0.55580878 0.039102241 0.21339925
0.55465972 0.039308272 0.21349958
0.55351198 0.039516006 0.21359995
0.55313951 0.039037753 0.21359234
0.55276698 0.038559496 0.21358472
0.55239451 0.038081244 0.21357711
0.5512501 0.038293231 0.21367754
0.55010694 0.038506959 0.21377802
0.54973578 0.038030405 0.21377043
0.54936457 0.037553851 0.21376285
0.54899341 0.037077297 0.21375526
0.54862225 0.036600746 0.21374767
0.54748315 0.03681954 0.21384823
0.54711264 0.036343835 0.21384066
0.54597551 0.036565185 0.21394125
0.54560566 0.036090333 0.21393368
0.54523581 0.035615485 0.21392612
0.54486597 0.035140634 0.21391857
0.54449612 0.034665782 0.21391101
0.54336292 0.034892242 0.21401165
0.54299378 0.034418244 0.21400411
0.54262459 0.033944242 0.21399657
0.5422554 0.033470243 0.21398902
0.54188621 0.032996241 0.21398148
0.54151702 0.032522243 0.21397392
0.54114783 0.03204824 0.21396638
0.5407787 0.031574242 0.21395884
0.54040951 0.031100243 0.21395129
0.54004031 0.030626245 0.21394375
0.53967112 0.030152243 0.21393621
0.53930193 0.029678244 0.21392865
0.5389328 0.029204244 0.21392111
0.53931832 0.028017871 0.21380518
0.53894848 0.02754302 0.21379763
0.53933197 0.026354097 0.21368164
0.53896147 0.025878396 0.21367407
0.53859097 0.025402695 0.2136665
0.53822047 0.024926992 0.21365893
0.53784996 0.024451291 0.21365134
0.53747946 0.023975588 0.21364377
0.53710896 0.023499887 0.2136362
0.53673846 0.023024186 0.21362863
0.53636795 0.022548484 0.21362107
0.53599745 0.022072781 0.21361348
0.53562695 0.021597078 0.21360591
0.53525645 0.021121379 0.21359834
0.53488594 0.020645678 0.21359077
0.53451538 0.020169973 0.2135832
0.53414488 0.019694274 0.21357563
0.56247222 0.042981856 0.21259901
0.56209642 0.042499349 0.21259132
0.56172061 0.042016838 0.21258365
0.56056321 0.042211551 0.21268481
0.55940711 0.042408004 0.21278602
0.5598129 0.041248236 0.21266948
0.55865812 0.041446388 0.21277072
0.55828369 0.040965579 0.21276306
0.55790919 0.040484771 0.2127554
0.55675709 0.040686294 0.21285667
0.55638325 0.040206339 0.21284904
0.55600947 0.03972638 0.21284139
0.55563563 0.039246425 0.21283375
0.55526179 0.038766466 0.21282612
0.55488801 0.038286511 0.21281847
0.55451417 0.037806552 0.21281083
0.55259442 0.03870317 0.21302123
0.55222195 0.038224913 0.21301362
0.55107784 0.038436648 0.21311505
0.55070597 0.037959248 0.21310745
0.55033416 0.037481844 0.21309985
0.54996234 0.037004437 0.21309225
0.54959053 0.036527034 0.21308465
0.54845029 0.036743905 0.21318619
0.54807913 0.036267351 0.2131786
0.54694098 0.036486745 0.21328017
0.54657048 0.03601104 0.2132726
0.5454343 0.036232982 0.21337421
0.54506445 0.035758134 0.21336666
0.5446946 0.035283282 0.21335909
0.54432476 0.034808431 0.21335153
0.54319191 0.035034634 0.2134532
0.54282272 0.034560636 0.21344565
0.54245359 0.034086633 0.21343811
0.5420844 0.033612635 0.21343055
0.5417152 0.033138633 0.21342301
0.54134601 0.032664634 0.21341547
0.54097682 0.032190632 0.21340792
0.54060763 0.031716634 0.21340038
0.5402385 0.031242635 0.21339284
0.53986931 0.030768637 0.21338528
0.53950012 0.030294634 0.21337774
0.53913093 0.029820636 0.2133702
0.53876173 0.029346636 0.21336265
0.53914696 0.02816052 0.2132457
0.53877711 0.027685668 0.21323815
0.53916037 0.026497005 0.21312116
0.53878987 0.026021302 0.21311359
0.53841937 0.025545603 0.21310601
0.53804886 0.0250699 0.21309844
0.5376783 0.024594197 0.21309087
0.5373078 0.024118494 0.2130833
0.5369373 0.023642795 0.21307573
0.53656679 0.023167092 0.21306816
0.53619629 0.02269139 0.21306057
0.53582579 0.022215687 0.213053
0.53545529 0.021739984 0.21304543
0.53508478 0.021264285 0.21303786
0.53471428 0.020788586 0.21303029
0.53434378 0.020312879 0.21302272
0.53397328 0.01983718 0.21301514
0.53360277 0.019361475 0.21300757
0.56267393 0.043609321 0.21203817
0.56229812 0.04312681 0.2120305
0.56192231 0.0426443 0.21202283
0.5615465 0.042161793 0.21201514
0.5603894 0.042356249 0.21211731
0.56001425 0.041874588 0.21210964
0.55963916 0.04139293 0.21210198
0.55848467 0.041590828 0.2122042
0.55811018 0.04111002 0.21219656
0.55773568 0.040629216 0.2121889
0.55658394 0.040830478 0.21229118
0.5562101 0.040350523 0.21228354
0.55583626 0.039870564 0.21227591
0.55546248 0.039390609 0.21226826
0.55508864 0.03891065 0.21226062
0.5547148 0.038430694 0.21225297
0.55434102 0.037950739 0.21224535
0.55319452 0.038158808 0.21234775
0.5520494 0.038368586 0.21245015
0.55167693 0.037890334 0.21244253
0.5513044 0.037412077 0.21243492
0.5501619 0.037625257 0.21253738
0.54979008 0.037147854 0.21252978
0.54941827 0.03667045 0.21252218
0.54827839 0.036887068 0.21262471
0.54790717 0.036410514 0.21261713
0.54753602 0.03593396 0.21260954
0.54639882 0.036153942 0.21271214
0.54526299 0.036375638 0.21281473
0.54489315 0.035900787 0.21280716
0.5445233 0.035425935 0.21279961
0.54415345 0.034951083 0.21279205
0.5430209 0.03517703 0.21289472
0.54265171 0.034703031 0.21288718
0.54228252 0.034229029 0.21287963
0.54191333 0.03375503 0.21287209
0.5415442 0.033281028 0.21286455
0.54117501 0.03280703 0.21285699
0.54080582 0.032333028 0.21284945
0.54043663 0.031859029 0.2128419
0.54006743 0.031385031 0.21283436
0.5396983 0.030911032 0.21282682
0.53932911 0.03043703 0.21281926
0.53895992 0.02996303 0.21281172
0.5393455 0.028778024 0.21269378
0.53897566 0.028303172 0.21268623
0.53860581 0.027828323 0.21267867
0.53898871 0.026639907 0.21256068
0.53861821 0.026164206 0.21255311
0.5382477 0.025688505 0.21254554
0.5378772 0.025212802 0.21253797
0.5375067 0.024737101 0.2125304
0.5371362 0.024261398 0.21252283
0.53676569 0.023785697 0.21251525
0.53639519 0.023309996 0.21250768
0.53602469 0.022834294 0.21250011
0.53565419 0.022358591 0.21249254
0.53528368 0.021882888 0.21248497
0.53491318 0.021407189 0.2124774
0.53454268 0.020931488 0.21246982
0.53417212 0.020455783 0.21246225
0.53380162 0.019980084 0.21245468
0.53343111 0.019504378 0.21244711
0.56249982 0.043754268 0.21146968
0.56212401 0.043271761 0.21146201
0.56096596 0.043464262 0.21156515
0.5605908 0.042982601 0.21155748
0.56021565 0.042500943 0.21154982
0.5598405 0.042019285 0.21154214
0.55790603 0.04289449 0.21175624
0.55753219 0.042414535 0.21174861
0.55715841 0.041934576 0.21174097
0.55756223 0.040773652 0.21162242
0.55563378 0.041656479 0.21183664
0.5552606 0.041177373 0.21182901
0.55411184 0.041381788 0.21193233
0.55528927 0.039534792 0.21170276
0.55491549 0.039054837 0.21169513
0.55454165 0.038574882 0.21168749
0.55416781 0.038094923 0.21167985
0.55224931 0.038990516 0.21189427
0.55187684 0.03851226 0.21188666
0.55150437 0.038034003 0.21187904
0.55113184 0.03755575 0.21187143
0.54998964 0.037768677 0.21197489
0.54961783 0.03729127 0.2119673
0.54924601 0.036813866 0.2119597
0.54810643 0.037030227 0.21206324
0.54773527 0.036553673 0.21205565
0.54736412 0.036077123 0.21204807
0.54622722 0.036296852 0.21215166
0.54509163 0.036518287 0.21225525
0.54472178 0.036043435 0.2122477
0.54435194 0.035568584 0.21224014
0.54398215 0.035093732 0.21223257
0.5428499 0.035319425 0.21233624
0.54248071 0.034845427 0.2123287
0.54211152 0.034371424 0.21232116
0.54174232 0.033897422 0.21231361
0.54137313 0.033423424 0.21230607
0.541004 0.032949425 0.21229853
0.54063481 0.032475423 0.21229097
0.54026562 0.032001425 0.21228343
0.53989643 0.031527426 0.21227588
0.53952724 0.031053426 0.21226834
0.53915805 0.030579424 0.2122608
0.53954399 0.029395524 0.21214187
0.53917414 0.028920673 0.21213432
0.53880429 0.028445821 0.21212676
0.53843445 0.027970972 0.21211919
0.53881711 0.026782814 0.21200021
0.53844661 0.026307112 0.21199264
0.5380761 0.025831413 0.21198507
0.53770554 0.02535571 0.2119775
0.53733504 0.024880007 0.21196991
0.53696454 0.024404304 0.21196234
0.53659403 0.023928605 0.21195477
0.53622353 0.023452902 0.2119472
0.53585303 0.022977199 0.21193963
0.53548253 0.022501497 0.21193206
0.53511202 0.022025796 0.21192448
0.53474152 0.021550095 0.21191691
0.53437102 0.021074396 0.21190934
0.53400052 0.020598691 0.21190177
0.53363001 0.02012299 0.2118942
0.53325951 0.019647285 0.21188663
0.56232572 0.043899219 0.21090119
0.56273258 0.042742807 0.21078169
0.56235611 0.042259447 0.210774
0.560417 0.043127298 0.21098998
0.56004184 0.042645641 0.21098231
0.55966669 0.042163979 0.21097465
0.55773288 0.043038674 0.21119076
0.55735904 0.042558718 0.21118312
0.5569852 0.04207876 0.21117547
0.55661142 0.041598804 0.21116784
0.55546093 0.041800406 0.21127215
0.55508775 0.0413213 0.21126452
0.55393928 0.041525461 0.21136884
0.55356675 0.041047208 0.21136124
0.55474228 0.039199021 0.21112964
0.5543685 0.038719065 0.21112199
0.55399466 0.038239107 0.21111436
0.55207676 0.039134186 0.21133079
0.55170429 0.038655933 0.21132317
0.55133182 0.038177676 0.21131556
0.55095929 0.037699424 0.21130794
0.55058682 0.037221167 0.21130033
0.54944557 0.037434686 0.21140482
0.54907376 0.036957283 0.21139723
0.54793447 0.03717339 0.21150176
0.54756331 0.036696836 0.21149418
0.54719216 0.036220282 0.21148659
0.54605556 0.036439754 0.21159118
0.54492033 0.036660936 0.21169579
0.54455048 0.036186084 0.21168822
0.54418063 0.035711233 0.21168067
0.54381078 0.035236381 0.21167311
0.54267883 0.035461821 0.21177778
0.5423097 0.034987818 0.21177022
0.54194051 0.034513816 0.21176268
0.54157132 0.034039818 0.21175514
0.54120213 0.033565819 0.21174759
0.54083294 0.033091821 0.21174005
0.54046375 0.032617819 0.21173251
0.54009461 0.03214382 0.21172495
0.53972542 0.031669822 0.21171741
0.53935623 0.031195821 0.21170987
0.53898704 0.030721819 0.21170232
0.53937268 0.029538173 0.21158241
0.53900284 0.029063322 0.21157484
0.53863299 0.028588472 0.21156728
0.53826314 0.02811362 0.21155973
0.53864545 0.026925718 0.21143974
0.53827494 0.026450016 0.21143217
0.53790444 0.025974315 0.21142459
0.53753394 0.025498614 0.21141702
0.53716344 0.025022911 0.21140945
0.53679293 0.024547208 0.21140188
0.53642243 0.024071509 0.21139431
0.53605193 0.023595806 0.21138674
0.53568143 0.023120103 0.21137916
0.53531092 0.022644401 0.21137159
0.53494036 0.022168698 0.21136402
0.53456986 0.021692999 0.21135645
0.53419936 0.0212173 0.21134888
0.53382885 0.020741593 0.21134131
0.53345835 0.020265894 0.21133372
0.53308785 0.019790187 0.21132615
0.56096011 0.04587061 0.21056595
0.56215167 0.044044171 0.21033269
0.56177586 0.04356166 0.21032502
0.56061834 0.04375365 0.21043016
0.56180525 0.041921288 0.21019682
0.5598681 0.042790331 0.21041483
0.55949295 0.042308673 0.21040717
0.55911779 0.041827012 0.21039949
0.55718589 0.042702902 0.21061763
0.55681205 0.042222943 0.21060999
0.55643821 0.041742988 0.21060234
0.55528808 0.041944336 0.21070765
0.55491489 0.04146523 0.21070004
0.55609185 0.039620109 0.21046646
0.55494297 0.039823163 0.21057178
0.55456913 0.039343204 0.21056415
0.55419534 0.038863249 0.21055651
0.5538215 0.03838329 0.21054886
0.5519042 0.039277859 0.2107673
0.55153173 0.038799606 0.21075968
0.55115926 0.03832135 0.21075207
0.55078673 0.037843093 0.21074446
0.55041426 0.037364841 0.21073686
0.55004174 0.036886584 0.21072924
0.5489015 0.037100699 0.21083474
0.54852968 0.036623299 0.21082714
0.54739136 0.036839996 0.2109327
0.5470202 0.036363445 0.21092512
0.54588395 0.03658266 0.21103071
0.54474902 0.036803585 0.21113631
0.54437917 0.036328733 0.21112876
0.54400933 0.035853881 0.2111212
0.54363948 0.03537903 0.21111363
0.54326963 0.034904182 0.21110608
0.54289979 0.03442933 0.21109852
0.54252994 0.033954479 0.21109097
0.54216009 0.033479627 0.2110834
0.54179025 0.033004779 0.21107584
0.5414204 0.032529928 0.21106829
0.54105055 0.032055076 0.21106072
0.54068071 0.031580225 0.21105316
0.54031086 0.031105375 0.21104561
0.53994101 0.030630523 0.21103805
0.53957117 0.030155674 0.21103048
0.53920132 0.029680822 0.21102293
0.53883153 0.02920597 0.21101537
0.53846169 0.028731121 0.21100782
0.53809184 0.028256269 0.21100025
0.53847384 0.027068624 0.21087925
0.53810328 0.026592921 0.21087168
0.53773278 0.026117222 0.21086411
0.53736228 0.02564152 0.21085654
0.53699178 0.025165817 0.21084897
0.53662127 0.024690114 0.2108414
0.53625077 0.024214415 0.21083382
0.53588027 0.023738712 0.21082625
0.53550977 0.023263009 0.21081868
0.53513926 0.022787308 0.21081111
0.535514 0.021590309 0.21068995
0.53514278 0.021113751 0.21068236
0.53477162 0.020637199 0.21067478
0.53440046 0.020160649 0.21066719
0.53328675 0.0204088 0.21077324
0.53291625 0.019933095 0.21076567
0.56197757 0.044189122 0.2097642
0.56160176 0.043706615 0.20975651
0.56200731 0.042549856 0.209635
0.56006944 0.043416686 0.20985501
0.55969429 0.042935029 0.20984733
0.55931914 0.042453367 0.20983967
0.55894399 0.04197171 0.209832
0.55701274 0.042847086 0.21005213
0.5566389 0.042367131 0.21004449
0.55626506 0.041887175 0.21003686
0.55511522 0.042088263 0.21014318
0.55629283 0.040245354 0.20990764
0.55591834 0.039764546 0.20989998
0.55476981 0.039967347 0.2100063
0.55439597 0.039487388 0.20999865
0.55402213 0.039007433 0.20999101
0.55364835 0.038527474 0.20998338
0.55327451 0.038047519 0.20997573
0.55290067 0.03756756 0.20996809
0.5517568 0.03777631 0.21007454
0.55061418 0.037986767 0.21018098
0.55024171 0.037508514 0.21017337
0.54986918 0.037030257 0.21016575
0.54949671 0.036552005 0.21015814
0.54835743 0.036766712 0.21026467
0.54721946 0.036983158 0.21037123
0.54684824 0.036506604 0.21036363
0.54571229 0.036725566 0.21047023
0.54457766 0.036946233 0.21057685
0.54420781 0.036471382 0.21056928
0.54383796 0.03599653 0.21056172
0.54346812 0.035521682 0.21055417
0.54309827 0.035046831 0.21054661
0.54272842 0.034571979 0.21053904
0.54235864 0.034097128 0.21053149
0.54198879 0.033622276 0.21052393
0.54161894 0.033147428 0.21051636
0.5412491 0.032672577 0.21050881
0.54087925 0.032197725 0.21050125
0.5405094 0.031722873 0.2104937
0.54013956 0.031248024 0.21048613
0.53976971 0.030773172 0.21047857
0.53939986 0.030298322 0.21047102
0.53903002 0.029823471 0.21046346
0.53866017 0.029348621 0.21045589
0.53829032 0.02887377 0.21044834
0.53792048 0.028398918 0.21044078
0.53830218 0.027211532 0.21031877
0.53793168 0.026735829 0.2103112
0.53756118 0.026260128 0.21030363
0.53719068 0.025784427 0.21029606
0.53756905 0.024592783 0.21017398
0.53719789 0.024116231 0.21016639
0.53682673 0.023639677 0.21015881
0.53645551 0.023163127 0.21015123
0.53608435 0.022686573 0.21014364
0.5357132 0.022210021 0.21013606
0.53534204 0.02173347 0.21012847
0.53497088 0.021256912 0.21012089
0.53534329 0.020057578 0.20999868
0.5342285 0.02030381 0.21010572
0.53385735 0.019827258 0.21009813
0.53348619 0.0193507 0.21009055
0.53311503 0.01887415 0.21008296
0.56061316 0.046159483 0.20943299
0.56258583 0.043661784 0.20908089
0.56142765 0.043851562 0.20918801
0.5618329 0.042695064 0.2090655
0.56067604 0.042886544 0.20917265
0.55952048 0.043079723 0.20927984
0.55914533 0.042598065 0.20927216
0.55877024 0.042116404 0.2092645
0.55839509 0.041634746 0.20925683
0.55801994 0.041153088 0.20924917
0.55686831 0.041351408 0.20935646
0.55494231 0.042232189 0.20957869
0.55456918 0.041753083 0.20957106
0.55574489 0.039908983 0.20933349
0.5545966 0.040111527 0.20944081
0.55422282 0.039631568 0.20943318
0.55384898 0.039151613 0.20942554
0.55347514 0.038671654 0.20941789
0.55310136 0.038191698 0.20941027
0.55272752 0.03771174 0.20940262
0.55158389 0.037920237 0.20951006
0.55121076 0.037441131 0.20950243
0.55083758 0.036962025 0.2094948
0.54969662 0.037173931 0.20960227
0.54932415 0.036695674 0.20959465
0.54818517 0.036910132 0.20970218
0.54781336 0.036432728 0.20969458
0.54667634 0.036649767 0.20980215
0.54630518 0.036173213 0.20979457
0.54517019 0.036392767 0.20990218
0.54403651 0.036614031 0.21000981
0.54366666 0.036139183 0.21000226
0.54329681 0.035664331 0.20999469
0.54292697 0.03518948 0.20998713
0.54255712 0.034714628 0.20997958
0.54218727 0.034239776 0.20997202
0.54181743 0.033764929 0.20996445
0.54144758 0.033290077 0.2099569
0.54107773 0.032815225 0.20994934
0.54070789 0.032340374 0.20994177
0.54033804 0.031865522 0.20993422
0.53996819 0.031390674 0.20992666
0.53959841 0.030915823 0.20991911
0.53922856 0.030440971 0.20991154
0.53885871 0.02996612 0.20990399
0.53848886 0.02949127 0.20989643
0.53811902 0.029016418 0.20988888
0.53774917 0.028541569 0.20988131
0.53813052 0.027354434 0.20975831
0.53776002 0.026878731 0.20975074
0.53738952 0.026403032 0.20974317
0.53776824 0.025212498 0.20962009
0.53739709 0.024735944 0.2096125
0.53702593 0.024259392 0.20960492
0.53665477 0.023782838 0.20959733
0.53628361 0.023306288 0.20958975
0.53591239 0.022829734 0.20958216
0.53554124 0.022353182 0.20957458
0.53517008 0.021876629 0.209567
0.53554291 0.020678399 0.20944379
0.53517109 0.020200996 0.20943619
0.53479922 0.019723592 0.20942859
0.5344274 0.019246191 0.20942099
0.53405559 0.018768787 0.20941339
0.53368372 0.018291384 0.20940579
0.56357068 0.043619178 0.20840327
0.56241143 0.043806989 0.2085114
0.56203496 0.043323629 0.20850371
0.5616585 0.042840268 0.208496
0.56128204 0.042356908 0.20848832
0.56012613 0.042548984 0.20859648
0.55975032 0.042066474 0.20858879
0.55859643 0.042261101 0.20869701
0.55822128 0.041779444 0.20868933
0.55784613 0.041297782 0.20868167
0.55669487 0.041495845 0.20878996
0.55476946 0.04237612 0.20901421
0.55594587 0.040534228 0.20877466
0.55557138 0.040053423 0.208767
0.55442345 0.04025571 0.20887533
0.55404961 0.039775752 0.20886768
0.55367583 0.039295796 0.20886004
0.55330199 0.038815837 0.20885241
0.55292815 0.038335882 0.20884477
0.55255437 0.037855927 0.20883712
0.55141103 0.038064167 0.20894556
0.55103791 0.037585061 0.20893793
0.55066472 0.037105955 0.20893031
0.54952407 0.037317604 0.20903878
0.5491516 0.036839347 0.20903116
0.54801291 0.037053544 0.2091397
0.5476411 0.036576141 0.20913211
0.54726928 0.036098737 0.20912451
0.54613322 0.036316372 0.20923309
0.54499853 0.036535677 0.2093417
0.54386514 0.036756683 0.20945032
0.5434953 0.036281835 0.20944276
0.54312551 0.035806984 0.20943521
0.54275566 0.035332132 0.20942765
0.54238582 0.034857281 0.20942008
0.54201597 0.034382429 0.20941253
0.54164612 0.033907581 0.20940498
0.54127628 0.03343273 0.20939742
0.54090643 0.032957878 0.20938985
0.54053658 0.032483026 0.2093823
0.54016674 0.032008175 0.20937474
0.53979689 0.031533327 0.20936719
0.53942704 0.031058475 0.20935962
0.5390572 0.030583624 0.20935206
0.53868735 0.030108772 0.20934451
0.5383175 0.029633923 0.20933695
0.53794765 0.029159071 0.20932938
0.53832942 0.027973045 0.2092054
0.53795892 0.027497342 0.20919783
0.53758842 0.027021639 0.20919025
0.5379675 0.02583221 0.2090662
0.53759634 0.025355659 0.20905861
0.53722513 0.024879105 0.20905103
0.53685397 0.024402553 0.20904344
0.53648281 0.023925999 0.20903586
0.53611165 0.023449449 0.20902827
0.53574049 0.022972893 0.20902069
0.53536934 0.022496343 0.2090131
0.53574246 0.021299217 0.20888892
0.53537065 0.020821813 0.20888132
0.53499883 0.02034441 0.20887372
0.53462696 0.019867009 0.20886612
0.53425515 0.019389605 0.20885852
0.53314227 0.019637022 0.20896758
0.53277111 0.019160472 0.20896
0.56455624 0.04357874 0.20772369
0.56417841 0.043093678 0.20771597
0.5630188 0.043280426 0.20782506
0.56186056 0.043468837 0.2079342
0.5614841 0.042985477 0.20792651
0.56032789 0.043176442 0.20803566
0.55995208 0.042693932 0.20802799
0.55957621 0.042211421 0.2080203
0.55842263 0.042405792 0.20812953
0.55804747 0.041924134 0.20812185
0.55767238 0.041442476 0.20811418
0.55652136 0.041640289 0.20822346
0.55614686 0.041159481 0.2082158
0.55577236 0.040678672 0.20820816
0.55539793 0.040197864 0.2082005
0.5542503 0.040399894 0.20830983
0.55387646 0.039919935 0.2083022
0.55350262 0.03943998 0.20829456
0.55312884 0.038960025 0.20828691
0.552755 0.038480066 0.20827928
0.55238116 0.038000111 0.20827164
0.55123818 0.038208093 0.20838109
0.55086505 0.037728988 0.20837346
0.55049187 0.037249882 0.20836583
0.55011874 0.036770776 0.2083582
0.54897904 0.036983021 0.20846769
0.54784065 0.037196964 0.20857722
0.54746884 0.036719561 0.20856962
0.54709703 0.036242153 0.20856202
0.54596126 0.036459535 0.20867161
0.54482692 0.036678579 0.20878123
0.54369384 0.036899332 0.20889086
0.54332399 0.036424484 0.2088833
0.54295415 0.035949633 0.20887573
0.5425843 0.035474781 0.20886818
0.54221445 0.034999929 0.20886062
0.54184461 0.034525078 0.20885307
0.54147476 0.03405023 0.2088455
0.54110491 0.033575378 0.20883794
0.54073507 0.033100527 0.20883039
0.54036528 0.032625675 0.20882283
0.53999543 0.032150827 0.20881526
0.53962559 0.031675976 0.20880771
0.53925574 0.031201124 0.20880015
0.53888589 0.030726273 0.2087926
0.53851604 0.030251423 0.20878503
0.5381462 0.029776571 0.20877747
0.53777635 0.029301722 0.20876992
0.53815776 0.028115947 0.20864493
0.53778726 0.027640244 0.20863736
0.5381667 0.026451927 0.20851231
0.53779554 0.025975371 0.20850472
0.53742439 0.02549882 0.20849714
0.53705323 0.025022266 0.20848955
0.53668207 0.024545714 0.20848197
0.53631085 0.02406916 0.20847438
0.53593969 0.023592608 0.2084668
0.53556854 0.023116054 0.20845921
0.53519738 0.022639504 0.20845163
0.5355702 0.021442635 0.20832643
0.53519839 0.020965232 0.20831883
0.53556925 0.01976585 0.20819362
0.53519672 0.019287594 0.208186
0.53408289 0.019533023 0.20829603
0.53371108 0.01905562 0.20828843
0.53333926 0.018578216 0.20828083
0.56438118 0.043724462 0.20715217
0.56322122 0.043910101 0.20726228
0.5628441 0.043425888 0.20725457
0.56168616 0.043614045 0.20736469
0.5613097 0.043130685 0.207357
0.56015378 0.043321393 0.20746717
0.55977798 0.042838883 0.20745949
0.55940217 0.042356372 0.20745181
0.55824888 0.042550489 0.20756201
0.55787373 0.042068832 0.20755436
0.55749857 0.04158717 0.20754668
0.55634791 0.041784726 0.20765698
0.55597341 0.041303918 0.20764932
0.55559891 0.040823109 0.20764166
0.55522442 0.040342301 0.20763402
0.55407709 0.040544078 0.20774435
0.55370331 0.040064123 0.2077367
0.55332947 0.039584164 0.20772907
0.55295563 0.039104208 0.20772143
0.55258185 0.038624253 0.20771378
0.55220801 0.038144294 0.20770614
0.55183417 0.037664339 0.20769851
0.55069214 0.037872918 0.20780896
0.55031902 0.037393808 0.20780133
0.54994583 0.036914706 0.20779371
0.54880649 0.037126694 0.2079042
0.54766846 0.03734038 0.20801474
0.54729658 0.036862977 0.20800714
0.54692477 0.03638557 0.20799954
0.5457893 0.036602695 0.20811014
0.54465526 0.036821485 0.20822075
0.54352254 0.037041984 0.20833138
0.54315269 0.036567133 0.20832382
0.54278284 0.036092281 0.20831627
0.542413 0.03561743 0.20830871
0.54204315 0.035142578 0.20830114
0.5416733 0.03466773 0.20829359
0.54130346 0.034192879 0.20828603
0.54093361 0.033718027 0.20827848
0.54056376 0.033243176 0.20827091
0.54019392 0.032768324 0.20826335
0.53982407 0.032293476 0.2082558
0.53945422 0.031818625 0.20824824
0.53908437 0.031343773 0.20824067
0.53871453 0.030868923 0.20823312
0.53834468 0.030394072 0.20822556
0.53797483 0.02991922 0.20821801
0.53760505 0.02944437 0.20821044
0.53798616 0.028258855 0.20808445
0.53761566 0.027783152 0.20807688
0.5379948 0.026595086 0.20795083
0.53762358 0.026118532 0.20794325
0.53725243 0.025641982 0.20793566
0.53762895 0.024450475 0.20780955
0.53725713 0.023973072 0.20780195
0.53688532 0.023495669 0.20779435
0.53651351 0.023018265 0.20778675
0.53614163 0.02254086 0.20777915
0.53576982 0.022063456 0.20777155
0.53539801 0.021586051 0.20776395
0.53502613 0.021108648 0.20775636
0.5353967 0.019909522 0.20763013
0.53502417 0.019431267 0.20762253
0.53391063 0.019676438 0.20773356
0.53353882 0.019199034 0.20772596
0.533167 0.018721633 0.20771836
0.56498867 0.043200616 0.20646189
0.56382841 0.043385118 0.20657295
0.5626694 0.043571349 0.20668407
0.56229228 0.04308714 0.20667636
0.56113529 0.043275885 0.20678751
0.56075883 0.042792525 0.20677982
0.55960387 0.042983834 0.20689099
0.55922806 0.042501327 0.2068833
0.55807507 0.042695183 0.20699452
0.55769992 0.042213526 0.20698686
0.55732477 0.041731868 0.20697919
0.5561744 0.041929163 0.20709048
0.5557999 0.041448358 0.20708284
0.55542547 0.040967546 0.20707518
0.55505097 0.040486742 0.20706752
0.55390394 0.040688261 0.20717886
0.5535301 0.040208306 0.20717122
0.55315632 0.039728351 0.20716357
0.55278248 0.039248392 0.20715593
0.55240864 0.038768437 0.2071483
0.55203485 0.038288478 0.20714065
0.55166101 0.037808523 0.20713301
0.55051929 0.038016845 0.20724447
0.55014616 0.037537735 0.20723686
0.54977298 0.037058633 0.20722923
0.54863393 0.037270363 0.20734073
0.5474962 0.037483796 0.20745225
0.54712433 0.037006393 0.20744465
0.54675251 0.03652899 0.20743705
0.5456174 0.036745854 0.20754866
0.5444836 0.03696439 0.20766027
0.54335117 0.037184633 0.20777191
0.54298133 0.036709782 0.20776436
0.54261148 0.03623493 0.20775679
0.54224163 0.035760079 0.20774923
0.54187179 0.035285231 0.20774168
0.541502 0.034810379 0.20773412
0.54113215 0.034335528 0.20772655
0.54076231 0.033860676 0.207719
0.54039246 0.033385824 0.20771144
0.54002261 0.032910977 0.20770389
0.53965276 0.032436125 0.20769632
0.53928292 0.031961273 0.20768876
0.53891307 0.031486422 0.20768121
0.53854322 0.031011572 0.20767365
0.53817338 0.030536721 0.20766608
0.53780353 0.030061871 0.20765853
0.538185 0.028877463 0.20753154
0.5378145 0.02840176 0.20752397
0.538194 0.027214799 0.20739694
0.53782284 0.026738247 0.20738935
0.53745168 0.026261693 0.20738177
0.53782856 0.025071299 0.20725466
0.53745675 0.024593893 0.20724706
0.53708488 0.02411649 0.20723946
0.53671306 0.023639087 0.20723186
0.53634125 0.023161683 0.20722426
0.53596938 0.022684278 0.20721667
0.53559756 0.022206875 0.20720907
0.53522575 0.021729469 0.20720147
0.53559661 0.020531446 0.20707427
0.53522414 0.020053191 0.20706667
0.53485161 0.019574936 0.20705906
0.53447914 0.019096682 0.20705144
0.53336656 0.019342454 0.20716347
0.53299475 0.018865051 0.20715587
0.56403118 0.044015896 0.20600916
0.56365341 0.043530833 0.20600145
0.5624947 0.043716811 0.20611356
0.56211758 0.043232601 0.20610586
0.56096089 0.043421093 0.206218
0.56058443 0.042937733 0.20621032
0.55942976 0.043128785 0.20632249
0.55905396 0.042646274 0.2063148
0.55790126 0.042839881 0.20642702
0.55752617 0.04235822 0.20641936
0.55715102 0.041876562 0.20641169
0.55600095 0.042073607 0.20652398
0.55562645 0.041592799 0.20651633
0.55525196 0.041111987 0.20650868
0.55487746 0.040631182 0.20650102
0.55373079 0.040832449 0.20661336
0.55335695 0.04035249 0.20660572
0.55298311 0.039872535 0.20659809
0.55260932 0.039392576 0.20659044
0.55223548 0.03891262 0.2065828
0.55186164 0.038432661 0.20657516
0.55148786 0.037952706 0.20656753
0.55111402 0.037472747 0.20655988
0.54997331 0.037681665 0.20667236
0.54960012 0.037202563 0.20666473
0.54846138 0.037414033 0.20677724
0.54732394 0.037627213 0.20688978
0.54695213 0.037149809 0.20688218
0.54658026 0.036672402 0.20687458
0.54544544 0.036889017 0.20698719
0.544312 0.037107296 0.20709981
0.5439415 0.036631595 0.20709223
0.54281002 0.036852431 0.20720488
0.54244018 0.036377579 0.20719732
0.54207033 0.035902727 0.20718977
0.54170048 0.03542788 0.2071822
0.54133064 0.034953028 0.20717464
0.54096079 0.034478176 0.20716709
0.54059094 0.034003325 0.20715953
0.5402211 0.033528473 0.20715196
0.53985125 0.033053625 0.20714441
0.5394814 0.032578774 0.20713685
0.53911155 0.032103922 0.2071293
0.53874177 0.031629071 0.20712173
0.53837192 0.031154221 0.20711417
0.53800207 0.030679369 0.20710662
0.53763223 0.03020452 0.20709907
0.5380134 0.029020367 0.20697108
0.5376429 0.028544664 0.20696349
0.53802204 0.02735796 0.20683546
0.53765088 0.026881408 0.20682788
0.53802812 0.025692116 0.20669979
0.53765631 0.025214715 0.20669219
0.53728449 0.024737308 0.20668459
0.53691262 0.024259904 0.20667699
0.53654081 0.023782503 0.20666939
0.53616899 0.023305099 0.20666179
0.53579718 0.022827692 0.20665419
0.53542531 0.022350289 0.20664659
0.53579658 0.021153374 0.20651841
0.53542405 0.020675117 0.2065108
0.53505158 0.020196863 0.20650318
0.53467906 0.019718608 0.20649557
0.53356618 0.019963272 0.20660859
0.5331943 0.019485869 0.20660099
0.53282249 0.019008465 0.20659339
0.56385618 0.044161614 0.20543766
0.56347835 0.043676551 0.20542994
0.56231999 0.043862272 0.20554307
0.56078655 0.043566301 0.2056485
0.56041002 0.043082941 0.20564081
0.55925566 0.043273736 0.205754
0.55887985 0.042791225 0.20574631
0.55772752 0.042984575 0.20585953
0.55735236 0.042502917 0.20585187
0.55697721 0.04202126 0.20584419
0.55582744 0.042218044 0.2059575
0.55545294 0.041737236 0.20594984
0.553532 0.042616654 0.20618413
0.55470401 0.040775619 0.20593454
0.55355757 0.040976632 0.20604788
0.55318379 0.040496673 0.20604023
0.55280995 0.040016718 0.20603259
0.55243611 0.039536759 0.20602494
0.55206233 0.039056804 0.20601732
0.55168849 0.038576845 0.20600967
0.55131465 0.03809689 0.20600203
0.55094087 0.037616931 0.2059944
0.5498004 0.037825592 0.20610787
0.54942727 0.03734649 0.20610026
0.54828882 0.037557706 0.20621376
0.54715168 0.037770629 0.20632729
0.54677987 0.037293229 0.20631969
0.546408 0.036815822 0.20631209
0.54527348 0.037032176 0.2064257
0.54414034 0.037250202 0.20653932
0.54376984 0.036774501 0.20653175
0.54263866 0.036995079 0.20664541
0.54226887 0.036520228 0.20663784
0.54189903 0.03604538 0.20663029
0.54152918 0.035570528 0.20662273
0.54115933 0.035095677 0.20661518
0.54078948 0.034620825 0.20660761
0.54041964 0.034145974 0.20660006
0.54004979 0.033671126 0.2065925
0.53967994 0.033196274 0.20658495
0.5393101 0.032721423 0.20657738
0.53894025 0.032246571 0.20656982
0.5385704 0.031771719 0.20656227
0.53895324 0.030590378 0.20643331
0.53858274 0.030114675 0.20642574
0.53821224 0.029638972 0.20641817
0.53784174 0.029163273 0.20641059
0.5382213 0.027977675 0.20628157
0.53785014 0.027501121 0.20627399
0.53747898 0.027024569 0.2062664
0.53785586 0.025835536 0.2061373
0.53748405 0.025358133 0.2061297
0.53711224 0.024880726 0.2061221
0.53748649 0.02368832 0.20599298
0.53711396 0.023210065 0.20598537
0.5367415 0.022731809 0.20597775
0.53636897 0.022253554 0.20597015
0.5359965 0.0217753 0.20596254
0.53562403 0.021297045 0.20595492
0.5352515 0.02081879 0.20594731
0.53487903 0.020340536 0.2059397
0.5345065 0.019862281 0.20593208
0.53413403 0.019384027 0.20592447
0.5337615 0.018905772 0.20591685
0.53338903 0.018427515 0.20590924
0.56368119 0.044307329 0.20486616
0.56330335 0.043822266 0.20485844
0.56292558 0.043337204 0.20485072
0.56254774 0.042852141 0.204843
0.561391 0.043039311 0.20495714
0.56023562 0.043228146 0.20507132
0.55908161 0.043418683 0.2051855
0.55870581 0.042936172 0.20517781
0.55755371 0.043129269 0.20529205
0.55717856 0.042647608 0.20528437
0.55680341 0.04216595 0.20527671
0.55565399 0.042362481 0.205391
0.55373228 0.043239687 0.20562729
0.55335915 0.042760581 0.20561966
0.55298597 0.042281471 0.20561203
0.55338442 0.041120812 0.20548239
0.55301058 0.040640853 0.20547475
0.5526368 0.040160898 0.20546712
0.55226296 0.039680939 0.20545948
0.5503512 0.040570907 0.20569596
0.55151534 0.038721025 0.20544419
0.5511415 0.03824107 0.20543656
0.55076766 0.037761111 0.20542891
0.54962754 0.037969518 0.2055434
0.54925442 0.037490416 0.20553577
0.54811627 0.03770138 0.20565027
0.54697943 0.037914045 0.20576482
0.54660761 0.037436642 0.20575722
0.54547274 0.037651893 0.20587181
0.54510158 0.037175339 0.20586422
0.54396874 0.037393104 0.20597886
0.54359823 0.036917407 0.20597129
0.54246736 0.037137728 0.20608594
0.54209751 0.036662877 0.20607838
0.54172766 0.036188029 0.20607083
0.54135782 0.035713177 0.20606326
0.54098797 0.035238326 0.2060557
0.54061812 0.034763474 0.20604815
0.54024827 0.034288622 0.20604059
0.53987849 0.033813775 0.20603302
0.53950864 0.033338923 0.20602547
0.53913879 0.032864071 0.20601791
0.53876895 0.03238922 0.20601036
0.5383991 0.031914368 0.20600279
0.53878164 0.030733282 0.20587285
0.53841114 0.030257579 0.20586526
0.53804064 0.029781876 0.20585769
0.53767014 0.029306177 0.20585012
0.53804934 0.028120836 0.2057201
0.53767818 0.027644282 0.20571251
0.53730702 0.02716773 0.20570493
0.53768367 0.025978951 0.20557483
0.53731179 0.025501547 0.20556723
0.53768641 0.024310246 0.20543711
0.53731394 0.023831991 0.20542949
0.53694141 0.023353737 0.20542188
0.53656894 0.022875482 0.20541428
0.53619641 0.022397228 0.20540667
0.53582394 0.021918973 0.20539905
0.53545147 0.021440718 0.20539144
0.53507894 0.020962464 0.20538382
0.53470647 0.020484207 0.20537621
0.53433394 0.020005953 0.20536859
0.53396147 0.019527698 0.20536098
0.53358895 0.019049443 0.20535336
0.53395498 0.01784708 0.20522308
0.56466585 0.044270422 0.2041796
0.56428742 0.043784507 0.20417185
0.56390893 0.043298595 0.20416412
0.5635305 0.042812679 0.20415638
0.56237274 0.042997859 0.20427148
0.56121629 0.043184772 0.20438665
0.56006128 0.04337335 0.20450181
0.55890751 0.043563634 0.20461701
0.5585317 0.043081123 0.20460932
0.55737996 0.043273963 0.20472455
0.55700481 0.042792305 0.20471688
0.55662966 0.042310648 0.20470922
0.55470651 0.043184824 0.20494746
0.55355942 0.043383617 0.20506279
0.5531863 0.042904511 0.20505516
0.55281311 0.042425402 0.20504753
0.55243993 0.041946296 0.20503992
0.5520668 0.041467194 0.20503229
0.55092365 0.04167109 0.2051477
0.55055118 0.041192837 0.20514008
0.55017865 0.040714581 0.20513247
0.54980618 0.040236324 0.20512486
0.55096835 0.038385253 0.20487106
0.55059451 0.037905298 0.20486343
0.54792267 0.039489675 0.20522512
0.54908156 0.037634347 0.20497127
0.54794371 0.037845053 0.2050868
0.54680717 0.038057465 0.20520233
0.54643536 0.037580062 0.20519473
0.54606354 0.037102655 0.20518713
0.54492962 0.037318502 0.20530273
0.54379708 0.037536014 0.20541838
0.54342657 0.037060313 0.20541079
0.54229605 0.037280381 0.20552646
0.54192621 0.036805529 0.2055189
0.54155636 0.036330681 0.20551133
0.54118651 0.03585583 0.20550378
0.54081666 0.035380978 0.20549622
0.54044682 0.034906127 0.20548867
0.54007697 0.034431279 0.2054811
0.53970712 0.033956427 0.20547354
0.53933728 0.033481576 0.20546599
0.53896743 0.033006724 0.20545842
0.53859758 0.032531872 0.20545086
0.53822774 0.032057025 0.20544331
0.53860998 0.030876188 0.20531236
0.53823948 0.030400485 0.20530479
0.53786898 0.029924784 0.20529722
0.53749847 0.029449083 0.20528965
0.53787738 0.028263999 0.20515861
