# .PCD v0.7 - Point Cloud Data file format
VERSION 0.7
FIELDS x y z
SIZE 4 4 4
TYPE F F F
COUNT 1 1 1
WIDTH 1391
HEIGHT 1
VIEWPOINT 0 0 0 1 0 0 0
POINTS 1391
DATA ascii
0.6830197 0.12351114 0.067107536
0.68328929 0.12438694 0.067121617
0.68434834 0.12466659 0.067533121
0.68461764 0.12554133 0.067547187
0.68567568 0.12581791 0.067958616
0.68594462 0.12669162 0.067972668
0.68621355 0.12756535 0.067986719
0.68569463 0.12904039 0.067603461
0.68596387 0.12991513 0.067617528
0.69437158 0.12562063 0.071618274
0.69463766 0.12648505 0.071632177
0.69490373 0.12734948 0.071646072
0.69516981 0.1282139 0.071659975
0.61974871 0.043577842 0.048611764
0.620031 0.04449499 0.048626512
0.62113845 0.044932906 0.04904158
0.62224525 0.045368768 0.049456626
0.62252694 0.046283852 0.049471341
0.62280858 0.047198936 0.04948606
0.62309027 0.04811402 0.049500775
0.62419552 0.048544727 0.049915727
0.62530017 0.048973337 0.050330658
0.62722701 0.048913438 0.051145751
0.62832999 0.04933688 0.051560599
0.62861007 0.05024679 0.051575232
0.63135612 0.049688011 0.052790344
0.6324569 0.050104227 0.053205047
0.63519979 0.049535085 0.054419991
0.63794065 0.048959795 0.055634819
0.64067972 0.048378263 0.05684958
0.64259642 0.048285253 0.05766413
0.64451188 0.048188113 0.058478642
0.64560628 0.048583657 0.058893025
0.64751953 0.048479278 0.059707422
0.64861238 0.048869636 0.060121723
0.64970452 0.049257942 0.060536001
0.65079606 0.049644168 0.060950238
0.651887 0.050028332 0.061364438
0.65297729 0.050410423 0.061778635
0.65406692 0.05079044 0.062192768
0.65433872 0.051673468 0.062206969
0.65461051 0.052556496 0.062221169
0.65488231 0.053439539 0.062235374
0.65515411 0.054322567 0.062249575
0.65542591 0.055205595 0.062263776
0.6556977 0.056088623 0.062277976
0.65678483 0.056460373 0.062691979
0.65705627 0.057342377 0.062706165
0.65732777 0.058224365 0.062720343
0.6551562 0.060649518 0.06153525
0.65705675 0.060503777 0.062348984
0.65732855 0.061386805 0.062363185
0.65760034 0.062269848 0.062377386
0.65787214 0.063152879 0.062391587
0.65895665 0.063516349 0.062805451
0.65922815 0.064398356 0.062819637
0.66031176 0.064758733 0.063233458
0.6605829 0.065639697 0.063247629
0.66166556 0.06599696 0.063661426
0.66436988 0.065302737 0.064874344
0.66788316 0.064076543 0.066486739
0.66815174 0.064949244 0.066500776
0.66842037 0.065821931 0.066514812
0.66868901 0.066694625 0.066528842
0.66571933 0.069686875 0.064944848
0.66679847 0.070032783 0.06535843
0.667068 0.070908584 0.065372519
0.66814625 0.071251355 0.065786071
0.67326528 0.068921961 0.068196788
0.67353261 0.069790512 0.068210751
0.67379999 0.070659071 0.068224721
0.67406732 0.071527623 0.06823869
0.67433465 0.072396174 0.06825266
0.67460197 0.07326474 0.06826663
0.67486936 0.074133299 0.0682806
0.67594272 0.074460581 0.068693899
0.67620975 0.075328097 0.068707846
0.67647678 0.076195627 0.068721801
0.67674381 0.077063136 0.068735756
0.67701083 0.077930667 0.068749703
0.67727786 0.07879819 0.068763658
0.67674077 0.080213182 0.068378374
0.67700809 0.081081733 0.068392344
0.67807895 0.081400745 0.068805516
0.67834598 0.082268275 0.068819463
0.67861301 0.083135791 0.068833418
0.67888004 0.084003314 0.068847366
0.67914701 0.08487083 0.068861321
0.67941403 0.085738353 0.068875268
0.67968106 0.086605884 0.068889223
0.67994809 0.0874734 0.068903178
0.68021512 0.088340923 0.068917125
0.67567819 0.092561491 0.066536821
0.68074918 0.090075962 0.068945028
0.68101621 0.090943478 0.068958983
0.67093706 0.10875871 0.062717013
0.67120916 0.10964277 0.062731236
0.67227745 0.10995352 0.063144252
0.67334515 0.11026221 0.063557245
0.67998117 0.1065411 0.06676165
0.68025011 0.10741481 0.066775702
0.68051904 0.10828856 0.066789754
0.67999339 0.10974076 0.066405073
0.6826455 0.10887697 0.067615263
0.68291378 0.10974862 0.067629278
0.68159479 0.11178345 0.066845961
0.6834504 0.11149194 0.067657314
0.68371868 0.1123636 0.067671336
0.68319428 0.11381993 0.067286737
0.68187815 0.11586408 0.066503547
0.68214738 0.11673882 0.066517621
0.68241668 0.11761358 0.066531688
0.68268591 0.11848835 0.066545755
0.68295515 0.11936311 0.066559821
0.68243361 0.12082879 0.066175357
0.68270314 0.12170458 0.066189438
0.68297273 0.12258036 0.066203527
0.68324232 0.12345616 0.066217609
0.68351185 0.12433195 0.066231698
0.68457067 0.12461168 0.066644229
0.6848399 0.12548642 0.066658303
0.68589777 0.12576306 0.06707079
0.68695492 0.12603761 0.067483224
0.68722349 0.1269103 0.067497261
0.68749213 0.12778299 0.067511298
0.68618619 0.12986021 0.066728644
0.69511217 0.12409863 0.071124315
0.69537789 0.12496202 0.071138203
0.69564366 0.12582539 0.071152091
0.69512337 0.1272952 0.070767701
0.62302107 0.04391709 0.048913412
0.6233024 0.044831134 0.048928112
0.62358373 0.045745194 0.048942812
0.62304115 0.047141485 0.048556194
0.62332284 0.048056569 0.048570909
0.6244278 0.048487339 0.048986912
0.62553215 0.048916012 0.0494029
0.62745851 0.048856247 0.050220102
0.62856126 0.049279749 0.05063599
0.62884134 0.050189663 0.050650623
0.63158661 0.049631074 0.051868882
0.63268709 0.050047357 0.052284651
0.63542914 0.049478412 0.053502746
0.6389901 0.048410695 0.055121891
0.64090753 0.048321977 0.055938628
0.64364386 0.047734424 0.057156421
0.64473867 0.048132088 0.057571892
0.64665228 0.048030961 0.058388419
0.6485647 0.04792567 0.059204891
0.64965695 0.048315082 0.059620243
0.65074855 0.0487024 0.060035534
0.65183949 0.049087651 0.060450818
0.65292984 0.049470849 0.060866073
0.653202 0.050354917 0.060880292
0.65429133 0.050734997 0.06129548
0.65456313 0.051618028 0.06130968
0.65483493 0.052501056 0.061323881
0.65510672 0.053384099 0.061338082
0.65537852 0.054267127 0.061352286
0.65565032 0.055150155 0.061366487
0.65592211 0.056033183 0.061380688
0.65619391 0.056916211 0.061394889
0.65646577 0.057799254 0.06140909
0.65673757 0.058682282 0.061423291
0.65782338 0.059050992 0.061838295
0.65890867 0.05941765 0.06225327
0.65917981 0.060298614 0.062267438
0.65945095 0.061179575 0.062281605
0.65890932 0.062578976 0.061895035
0.65999329 0.062941499 0.062309939
0.66026443 0.063822463 0.06232411
0.66053563 0.064703427 0.062338278
0.66080678 0.065584391 0.062352445
0.66756773 0.062276382 0.065571882
0.66783631 0.063149065 0.065585911
0.66810495 0.064021751 0.065599948
0.66837353 0.064894453 0.065613985
0.66945207 0.065239385 0.066028625
0.66972041 0.066111043 0.066042639
0.66998869 0.066982687 0.066056661
0.66783005 0.069446921 0.064869046
0.66809934 0.070321687 0.06488312
0.66917688 0.070663512 0.0652977
0.67348599 0.06886743 0.067314215
0.67375338 0.069735982 0.067328177
0.67482805 0.070068508 0.067742601
0.67509508 0.070936039 0.067756556
0.67536211 0.071803547 0.067770511
0.67643559 0.072131954 0.068184868
0.67670232 0.072998442 0.0681988
0.67696899 0.073864929 0.068212733
0.67804122 0.074189156 0.068627037
0.67830765 0.075054623 0.068640962
0.67776912 0.076464392 0.068254538
0.67723131 0.077876195 0.067868173
0.67749834 0.078743726 0.067882121
0.68098098 0.077421628 0.06949719
0.6812467 0.078285024 0.069511078
0.67829943 0.081346281 0.067923978
0.67856646 0.082213804 0.067937933
0.68364918 0.079772092 0.070353143
0.6839143 0.080633409 0.070366994
0.68417943 0.081494726 0.070380852
0.67963451 0.08568389 0.067993738
0.67990154 0.086551413 0.068007693
0.68016857 0.087418929 0.06802164
0.6804356 0.088286459 0.068035595
0.68070263 0.089153968 0.068049543
0.67616922 0.093380362 0.065663047
0.6802032 0.10648625 0.065873824
0.68047214 0.10735996 0.065887868
0.68074107 0.1082337 0.065901928
0.67942131 0.11026428 0.065116398
0.68286699 0.10882224 0.066729538
0.68313533 0.1096939 0.06674356
0.68181682 0.1117286 0.065958127
0.68208575 0.11260231 0.065972179
0.68235469 0.11347605 0.065986231
0.68183124 0.1149344 0.065600596
0.68130833 0.11639485 0.065214992
0.68236971 0.1166839 0.065628737
0.68263894 0.11755867 0.065642804
0.68290824 0.11843343 0.065656871
0.68317747 0.1193082 0.065670937
0.68265617 0.1207738 0.065285422
0.6829257 0.12164959 0.065299504
0.68319529 0.12252538 0.065313585
0.68346488 0.12340117 0.065327674
0.68373442 0.12427697 0.065341756
0.684793 0.12455676 0.065755345
0.68506223 0.12543149 0.065769419
0.68611979 0.12570819 0.066182956
0.6871767 0.12598282 0.066596434
0.68823296 0.12625539 0.067009911
0.68850124 0.12712702 0.067023925
0.6961183 0.1234412 0.070646361
0.69638371 0.12430354 0.070660226
0.69664913 0.12516588 0.070674099
0.62325335 0.043859702 0.0479846
0.62353468 0.044773746 0.0479993
0.62381607 0.045687806 0.048014
0.62327373 0.04708403 0.047626343
0.62355536 0.047999114 0.047641058
0.62466007 0.048429951 0.0480581
0.62576419 0.048858691 0.048475139
0.62769002 0.048799053 0.049294438
0.62879252 0.049222622 0.04971138
0.62907261 0.050132535 0.049726013
0.63181704 0.04957414 0.050947435
0.63291728 0.04999049 0.051364243
0.63565856 0.049421739 0.052585497
0.63921845 0.048354279 0.054208849
0.64195555 0.047772113 0.055429872
0.64387089 0.047678337 0.056248635
0.64578497 0.047580432 0.057067305
0.64687854 0.047975067 0.057483777
0.64879042 0.047869906 0.058302362
0.64988238 0.048259385 0.058718752
0.65179199 0.048146989 0.059537187
0.65206444 0.049032081 0.059551422
0.65315455 0.049415346 0.05996773
0.65424395 0.049796529 0.06038399
0.65451574 0.050679557 0.060398191
0.65478754 0.051562585 0.060412392
0.65505934 0.052445613 0.060426593
0.65533113 0.053328656 0.060440794
0.65560293 0.054211684 0.060454994
0.65587473 0.055094711 0.060469199
0.65614659 0.055977743 0.0604834
0.65723312 0.056349624 0.060899507
0.65750462 0.057231627 0.060913693
0.65777606 0.058113616 0.060927879
0.65804756 0.058995616 0.060942061
0.65913254 0.059362341 0.06135809
0.65940368 0.060243305 0.061372258
0.65967488 0.061124265 0.061386425
0.65994602 0.062005229 0.061400592
0.66102946 0.06236675 0.061816551
0.6613003 0.06324669 0.061830703
0.66400588 0.062562153 0.063050061
0.66427577 0.063438982 0.063064165
0.66778952 0.06222159 0.064685106
0.6680581 0.063094273 0.064699136
0.66832674 0.06396696 0.064713173
0.66859531 0.064839661 0.06472721
0.66967362 0.06518466 0.065142885
0.6699419 0.066056319 0.065156907
0.67021024 0.066927962 0.065170921
0.67209601 0.066738032 0.065988138
0.67317206 0.067075796 0.066403702
0.67343938 0.067944348 0.066417672
0.67209119 0.069880702 0.065628536
0.67316663 0.070216395 0.066044077
0.67504853 0.070014045 0.066861086
0.67531556 0.070881568 0.066875033
0.6763891 0.07121107 0.067290463
0.67665577 0.072077557 0.067304403
0.67772841 0.072403915 0.06771978
0.67799479 0.073269375 0.067733698
0.67987162 0.073050499 0.06855043
0.6801374 0.07391388 0.068564318
0.68120772 0.074233033 0.068979584
0.68147314 0.075095378 0.068993449
0.68093461 0.076504037 0.068605974
0.68120039 0.077367418 0.068619862
0.6814661 0.078230813 0.068633743
0.68253487 0.078544788 0.069048926
0.68280029 0.079407141 0.069062792
0.68386811 0.079718016 0.069477923
0.68413317 0.080579333 0.069491774
0.68439829 0.08144065 0.069505624
0.67985499 0.085629418 0.067112215
0.68012202 0.086496949 0.06712617
0.68038905 0.087364465 0.067140125
0.68065608 0.088231988 0.067154072
0.6809231 0.089099504 0.067168027
0.68119013 0.089967035 0.067181975
0.67506117 0.095320813 0.063987032
0.67963022 0.10700665 0.064585112
0.68069422 0.1073051 0.065000042
0.68096316 0.10817884 0.065014094
0.68043798 0.10963091 0.06462732
0.68308854 0.10876751 0.065843806
0.68335682 0.10963918 0.06585782
0.6820389 0.11167374 0.065070301
0.68230784 0.11254745 0.065084353
0.68257678 0.11342119 0.065098405
0.68205351 0.11487947 0.064711727
0.68153089 0.11633986 0.064325072
0.68180043 0.11721565 0.064339153
0.68207002 0.11809144 0.064353243
0.6831305 0.11837851 0.064768001
0.6833998 0.11925327 0.064782068
0.68287873 0.12071881 0.064395495
0.68314832 0.12159461 0.064409576
0.68499714 0.1212847 0.065224871
0.68526608 0.12215844 0.065238923
0.68474603 0.12362707 0.064852409
0.68501532 0.12450183 0.064866476
0.68528455 0.12537657 0.064880542
0.68634182 0.12565334 0.065295123
0.6889739 0.12472995 0.066510648
0.68924189 0.12560059 0.066524647
0.68872279 0.12707229 0.066138193
0.69449848 0.12372898 0.068955339
0.6963374 0.12338706 0.069770098
0.69738895 0.12364519 0.07018438
0.69765407 0.12450651 0.07019823
0.62348562 0.043802314 0.047055788
0.62376702 0.044716358 0.047070488
0.62404835 0.045630418 0.047085188
0.62350625 0.047026578 0.046696488
0.62378794 0.047941662 0.046711206
0.62489241 0.048372563 0.047129288
0.62599623 0.048801366 0.047547381
0.62709939 0.049228106 0.047965426
0.62902373 0.049165495 0.048786771
0.62930381 0.050075404 0.048801403
0.63204753 0.049517207 0.050025973
0.63314748 0.04993362 0.050443836
0.63506746 0.049856514 0.051264975
0.63862652 0.048790358 0.052892528
0.64218313 0.047715895 0.054519974
0.64573717 0.046633165 0.056147277
0.64683074 0.047028907 0.056564823
0.6471048 0.047919169 0.056579139
0.64983475 0.04731651 0.057802994
0.65174448 0.047206324 0.058623571
0.65283501 0.047591701 0.059040952
0.65310711 0.048475772 0.059055168
0.65419656 0.048858061 0.059472501
0.65528542 0.049238272 0.059889782
0.65555692 0.050120272 0.059903968
0.65582836 0.05100226 0.05991815
0.65609986 0.051884264 0.059932336
0.65637136 0.052766267 0.059946522
0.65664285 0.053648256 0.059960704
0.65691429 0.054530255 0.05997489
0.65718579 0.055412244 0.059989076
0.65827179 0.055783182 0.060406223
0.65854293 0.056664143 0.06042039
0.65881407 0.057545107 0.060434557
0.66071242 0.057397675 0.06125455
0.66179615 0.05776136 0.061671581
0.66206634 0.058639217 0.0616857
0.66233659 0.059517086 0.061699819
0.66260678 0.060394943 0.061713938
0.66368896 0.060753442 0.062130883
0.66477048 0.0611099 0.062547781
0.66504002 0.061985694 0.06256187
0.66530961 0.06286148 0.062575951
0.66882193 0.061643295 0.064201087
0.66909027 0.062514953 0.064215109
0.66854852 0.063912168 0.063826397
0.6688171 0.06478487 0.063840434
0.66989517 0.065129928 0.064257167
0.67097253 0.065472916 0.064673848
0.67124051 0.066343546 0.064687848
0.67231703 0.066683434 0.065104514
0.67339277 0.067021258 0.065521114
0.67366016 0.067889817 0.065535083
0.67473495 0.068224534 0.065951645
0.6758092 0.068557203 0.066368178
0.67607588 0.06942369 0.06638211
0.67553604 0.070827104 0.065993503
0.67660928 0.071156666 0.066409983
0.67768198 0.071484126 0.066826433
0.67955953 0.071269527 0.067645349
0.67982531 0.072132908 0.067659229
0.68009102 0.072996289 0.067673117
0.6811614 0.073316537 0.068089433
0.68142688 0.074178889 0.068103306
0.68249631 0.074496031 0.068519585
0.68276137 0.075357348 0.068533435
0.68222314 0.076765947 0.06814491
0.68248856 0.077628285 0.068158776
0.68275404 0.078490645 0.068172649
0.68382186 0.078802608 0.068588845
0.68408698 0.07966394 0.068602696
0.6843521 0.080525257 0.068616547
0.68461722 0.081386574 0.068630405
0.68007547 0.085574955 0.066230685
0.6803425 0.086442485 0.066244632
0.68060952 0.087309994 0.066258587
0.68087655 0.088177525 0.066272542
0.68114358 0.089045033 0.066286489
0.68141061 0.089912564 0.066300444
0.67528373 0.095265828 0.063097097
0.68037838 0.1055028 0.064084105
0.68064731 0.10637654 0.064098157
0.68012184 0.10782649 0.063710295
0.68039107 0.10870123 0.063724361
0.68066031 0.10957599 0.063738436
0.68092954 0.11045076 0.063752502
0.68199199 0.11074515 0.064168416
0.68226093 0.11161888 0.064182468
0.68252987 0.1124926 0.06419652
0.6820066 0.11394979 0.063808776
0.68069196 0.11599357 0.063019276
0.68096185 0.11687038 0.06303338
0.68123174 0.1177472 0.063047484
0.68229258 0.11803646 0.0634633
0.68256217 0.11891225 0.06347739
0.6828317 0.11978804 0.063491471
0.6831013 0.12066383 0.063505553
0.68337089 0.12153962 0.063519642
0.68521923 0.12122984 0.064337038
0.68548816 0.12210359 0.064351089
0.68496835 0.12357215 0.063963525
0.68523765 0.12444691 0.063977592
0.68550688 0.12532166 0.063991658
0.68735164 0.12500055 0.064808846
0.68919516 0.1246753 0.065625966
0.68946314 0.12554593 0.065639965
0.69366527 0.12341131 0.067661546
0.69550467 0.12307264 0.068478465
0.69577038 0.123936 0.068492353
0.69760787 0.12359112 0.069309153
0.697873 0.12445243 0.069323003
0.6239993 0.04465897 0.046141692
0.62428063 0.04557303 0.046156392
0.62373883 0.046969127 0.045766622
0.62402052 0.047884211 0.04578134
0.62430215 0.048799291 0.045796055
0.62540603 0.049229234 0.046215191
0.62650931 0.049657062 0.046634305
0.629255 0.049108364 0.047862172
0.62953508 0.050018277 0.047876805
0.63227797 0.049460273 0.049104508
0.63337767 0.04987675 0.049523443
0.63693768 0.048817035 0.051155325
0.6372152 0.049718685 0.051169828
0.64405 0.046672788 0.054418679
0.64596367 0.046577204 0.055241581
0.647057 0.046973012 0.055660184
0.64733106 0.047863275 0.055674501
0.65087861 0.046763226 0.05730572
0.65196943 0.047150753 0.057724174
0.65305966 0.047536198 0.058142625
0.65414917 0.047919579 0.058561008
0.65523809 0.048300892 0.058979362
0.65550959 0.049182896 0.058993548
0.6565975 0.049561121 0.059411865
0.6568687 0.050442096 0.059426032
0.65713984 0.05132306 0.059440199
0.65741098 0.05220402 0.05945437
0.65768218 0.053084984 0.059468538
0.65958315 0.052948013 0.060290791
0.65985364 0.05382691 0.060304925
0.66012418 0.054705806 0.060319059
0.66039473 0.055584703 0.060333196
0.66147882 0.05595053 0.060751311
0.66174906 0.056828387 0.06076543
0.66201925 0.057706244 0.060779549
0.66228944 0.058584101 0.060793668
0.66337198 0.058944743 0.061211687
0.66364187 0.059821572 0.061225791
0.66391176 0.06069839 0.061239891
0.66499305 0.061054915 0.061657846
0.66526264 0.061930705 0.061671931
0.66553217 0.062806495 0.061686017
0.66904348 0.06158857 0.063315354
0.66931176 0.062460229 0.063329369
0.66877031 0.063857377 0.062939607
0.66903889 0.064730078 0.062953644
0.67011666 0.065075204 0.063371427
0.67119378 0.065418251 0.063789181
0.67146176 0.066288888 0.063803181
0.67253798 0.066628836 0.064220883
0.67361355 0.066966727 0.06463854
0.67388088 0.067835286 0.06465251
0.67495543 0.068170071 0.06507013
0.67602938 0.068502799 0.065487698
0.67629611 0.069369286 0.06550163
0.67656279 0.070235774 0.06551557
0.67682952 0.071102262 0.065529503
0.67870754 0.070890851 0.066350572
0.67977893 0.071215324 0.066768013
0.68084973 0.071537696 0.067185417
0.68111515 0.072400041 0.06719929
0.68138057 0.073262393 0.067213155
0.68164599 0.074124746 0.067227021
0.68271518 0.074441954 0.067644358
0.6829803 0.075303271 0.067658216
0.68244231 0.076711804 0.067268632
0.68270773 0.077574141 0.067282498
0.68297321 0.078436501 0.067296371
0.68404073 0.078748532 0.067713618
0.68430585 0.079609863 0.067727476
0.68457097 0.08047118 0.067741327
0.68483609 0.081332497 0.067755178
0.68029594 0.085520491 0.065349162
0.68056297 0.086388014 0.065363117
0.68083 0.08725553 0.065377064
0.68109703 0.088123053 0.065391019
0.68136406 0.088990569 0.065404974
0.68163109 0.0898581 0.065418921
0.68109912 0.091286264 0.065029658
0.6813665 0.092154831 0.065043628
0.67926711 0.10427251 0.062765136
0.67953634 0.10514728 0.062779211
0.6806004 0.10544794 0.063196264
0.6808694 0.10632168 0.063210316
0.6771673 0.1100762 0.061209552
0.67981946 0.10922353 0.062432513
0.68088263 0.10952108 0.062849551
0.68115187 0.11039584 0.062863618
0.68142116 0.11127061 0.062877685
0.68169039 0.11214537 0.062891752
0.6811673 0.11360249 0.062502936
0.68064493 0.11506167 0.062114183
0.68091482 0.11593851 0.062128287
0.6803934 0.1174008 0.061739583
0.6814546 0.11769215 0.062156487
0.68172449 0.11856899 0.062170591
0.68199438 0.11944581 0.062184691
0.68305433 0.11973305 0.062601529
0.68332386 0.12060884 0.062615618
0.68359345 0.12148463 0.0626297
0.68465215 0.1217677 0.063046508
0.68492144 0.12264246 0.063060574
0.68519068 0.12351723 0.063074641
0.68545991 0.124392 0.063088708
0.686517 0.12466989 0.063505396
0.68757343 0.12494576 0.063922055
0.69099087 0.1234228 0.06554649
0.69125819 0.12429136 0.06556046
0.69388521 0.12335698 0.066782124
0.69572407 0.12301843 0.067601137
0.69598985 0.12388179 0.067615017
0.69861239 0.12293294 0.068836451
0.69887722 0.12379324 0.068850286
0.62011391 0.04700125 0.043185085
0.62368971 0.045996588 0.044822052
0.6239714 0.046911672 0.044836771
0.62425303 0.047826756 0.044851486
0.62453473 0.04874184 0.044866204
0.62563831 0.049171843 0.04528638
0.62674135 0.049599737 0.045706548
0.62866497 0.049538411 0.046532124
0.62894535 0.050449364 0.046546776
0.6325084 0.04940334 0.048183061
0.63360786 0.049819883 0.048603036
0.6371668 0.048760425 0.05023912
0.63744438 0.049662076 0.050253622
0.64427704 0.046616696 0.053510878
0.64700925 0.046026848 0.054741211
0.64892083 0.04592621 0.055566154
0.65001261 0.04631795 0.055985745
0.65110379 0.046707589 0.056405269
0.65219438 0.047095183 0.056824792
0.65328431 0.047480691 0.057244278
0.65437359 0.047864139 0.05766372
0.65546227 0.048245516 0.058083128
0.65655023 0.048624847 0.058502503
0.65682143 0.049505807 0.05851667
0.65709257 0.050386786 0.058530837
0.65736371 0.051267747 0.058545005
0.65763491 0.052148711 0.058559176
0.65790606 0.053029671 0.058573343
0.65980649 0.05289283 0.059397705
0.66007704 0.053771727 0.059411839
0.66034752 0.054650623 0.059425972
0.66143173 0.055017546 0.059845164
0.66170192 0.055895414 0.05985928
0.66197217 0.056773271 0.059873398
0.66305506 0.057136033 0.060292508
0.66332495 0.058012862 0.060306609
0.66359484 0.058889691 0.060320709
0.66386473 0.059766524 0.060334813
0.66494602 0.06012414 0.060753837
0.66602677 0.060479645 0.061172843
0.66629601 0.06135441 0.06118691
0.6665653 0.06222916 0.06120098
0.66926497 0.061533842 0.062429618
0.66953331 0.062405501 0.062443636
0.6689921 0.063802585 0.062052831
0.66926068 0.064675286 0.062066864
0.67033821 0.065020479 0.062485691
0.67141503 0.065363593 0.062904499
0.67249131 0.065704651 0.063323274
0.67356694 0.066043645 0.063741997
0.67464185 0.06638056 0.06416069
0.67490888 0.067248076 0.064174637
0.67517591 0.068115599 0.064188592
0.67624962 0.068448395 0.064607218
0.67651629 0.069314882 0.06462115
0.67678303 0.07018137 0.064635091
0.6770497 0.071047857 0.064649023
0.67892724 0.070836581 0.065472186
0.67919332 0.071700998 0.065486088
0.6810689 0.071483552 0.066309139
0.68133432 0.072345898 0.066323012
0.68159974 0.07320825 0.066336878
0.68186516 0.07407061 0.066350743
0.68293405 0.074387878 0.066769138
0.68319917 0.075249195 0.066782989
0.68266147 0.07665766 0.066392355
0.68292689 0.077520005 0.06640622
0.68319231 0.078382358 0.066420093
0.68425965 0.078694455 0.066838399
0.68452477 0.079555787 0.066852249
0.6847899 0.080417104 0.0668661
0.68505502 0.081278414 0.06687995
0.68612075 0.08158534 0.067298181
0.68638557 0.082445629 0.067312017
0.68105048 0.087201059 0.064495534
0.68131751 0.08806859 0.064509481
0.68158454 0.088936105 0.064523436
0.68185157 0.089803629 0.064537391
0.68131989 0.091231734 0.064147085
0.68158722 0.0921003 0.064161047
0.6792202 0.10334285 0.061862186
0.67948943 0.10421759 0.061876256
0.67975867 0.10509235 0.061890323
0.6800279 0.10596712 0.061904393
0.67632592 0.10971719 0.059898317
0.67739069 0.11002102 0.060316466
0.67845482 0.1103228 0.060734607
0.678725 0.11120065 0.060748722
0.67899525 0.11207852 0.060762841
0.68005806 0.11237614 0.061180901
0.68032795 0.11325298 0.061195005
0.68059784 0.1141298 0.061209105
0.68086773 0.11500662 0.061223205
0.68113762 0.11588346 0.061237309
0.6806165 0.11734568 0.060847551
0.68088669 0.11822356 0.060861669
0.68194729 0.11851394 0.061279614
0.68221718 0.11939076 0.061293714
0.68248707 0.12026758 0.061307814
0.68354642 0.12055386 0.061725695
0.68381602 0.12142964 0.061739776
0.68487448 0.12171277 0.06215762
0.68514371 0.12258754 0.062171686
0.685413 0.1234623 0.062185757
0.68647009 0.12374132 0.062603518
0.68831414 0.12342151 0.063424923
0.690157 0.12309752 0.064246289
0.69121158 0.12336827 0.064663917
0.69147891 0.12423683 0.064677887
0.69253254 0.12450447 0.065095462
0.69437158 0.12416809 0.065916613
0.69620925 0.12382759 0.066737704
0.69883102 0.12287893 0.067962281
0.69909585 0.12373922 0.067976117
0.62034756 0.046943538 0.042251017
0.6214534 0.047381856 0.042672396
0.62338132 0.047336157 0.043500327
0.62366331 0.048252281 0.04351506
0.6239453 0.049168404 0.043529794
0.62587065 0.049114455 0.044357564
0.62615198 0.050028499 0.044372268
0.62889647 0.049481217 0.04560646
0.62917686 0.05039217 0.045621112
0.63273889 0.049346406 0.047261599
0.63301802 0.050253212 0.047276184
0.63329715 0.051160034 0.047290768
0.64450413 0.046560604 0.052603077
0.64723551 0.045970954 0.053836573
0.64996505 0.045375075 0.055069987
0.6502381 0.046262249 0.055084255
0.65132904 0.046651956 0.055504832
0.65241933 0.047039613 0.055925395
0.65350902 0.047425184 0.056345936
0.654598 0.047808696 0.056766432
0.65568638 0.048190143 0.057186894
0.6567741 0.048569534 0.057607323
0.6570453 0.049450498 0.05762149
0.65731645 0.050331473 0.057635657
0.65758765 0.051212437 0.057649825
0.65785879 0.052093398 0.057663992
0.65812993 0.052974362 0.057678163
0.65921551 0.053346485 0.058098488
0.66030037 0.053716548 0.058518767
0.66138464 0.054084573 0.058939014
0.66165483 0.05496243 0.058953129
0.66273808 0.055327334 0.059373327
0.66382074 0.055690184 0.059793472
0.66409034 0.056565974 0.059807558
0.66435993 0.057441767 0.059821643
0.66462946 0.058317557 0.059835728
0.66489905 0.059193347 0.059849814
0.66597986 0.059549972 0.060269888
0.6662491 0.060424723 0.060283959
0.66651833 0.061299488 0.060298026
0.66678756 0.062174238 0.060312096
0.66867661 0.062002424 0.061137985
0.66894525 0.062875114 0.061152019
0.66921383 0.063747793 0.061166056
0.66624665 0.066726089 0.059556644
0.66651654 0.06760291 0.059570745
0.67163628 0.065308928 0.062019814
0.67271233 0.065650053 0.062439643
0.67378765 0.065989114 0.062859409
0.67486233 0.066326089 0.063279152
0.67512935 0.067193605 0.063293107
0.67539638 0.068061136 0.063307062
0.67727625 0.067859299 0.064132482
0.67754263 0.068724759 0.064146399
0.6786148 0.069053464 0.064566016
0.67888087 0.069917887 0.064579912
0.68156224 0.069165893 0.0658108
0.68182737 0.070027217 0.06582465
0.68209249 0.070888534 0.065838508
0.68155348 0.072291754 0.065446749
0.6818189 0.073154107 0.065460615
0.68288785 0.073472485 0.06588006
0.68315297 0.074333802 0.065893911
0.6834181 0.075195111 0.065907769
0.68448585 0.075509354 0.066327162
0.68475062 0.076369628 0.066340998
0.68501544 0.077229917 0.066354834
0.6852802 0.078090198 0.066368669
0.68634629 0.078399263 0.066787951
0.68661082 0.079258516 0.066801772
0.68527389 0.081224337 0.066004731
0.68633938 0.081531323 0.066424012
0.6866042 0.08239162 0.066437848
0.68047124 0.08770299 0.063208617
0.68153799 0.088014126 0.063627951
0.68180501 0.088881634 0.063641906
0.68207204 0.089749165 0.063655853
0.68154061 0.091177203 0.063264497
0.68180794 0.092045769 0.063278459
0.68127751 0.093476906 0.062887169
0.68154514 0.094346501 0.062901154
0.67623258 0.099168703 0.060078401
0.67490876 0.10117688 0.059282042
0.6751793 0.10205577 0.05929618
0.67837763 0.102983 0.060554057
0.67944247 0.10328794 0.060973302
0.6797117 0.10416267 0.060987372
0.67998099 0.10503744 0.061001439
0.68025023 0.1059122 0.061015505
0.67654955 0.10966194 0.059004176
0.67761403 0.10996585 0.059423391
0.67788458 0.11084474 0.059437528
0.67815512 0.11172364 0.059451662
0.67842561 0.11260253 0.059465796
0.67869616 0.11348143 0.05947993
0.67896664 0.1143603 0.059494067
0.67844546 0.11582146 0.059103239
0.67950773 0.11611809 0.059522334
0.67977822 0.11699699 0.059536468
0.6808396 0.11729057 0.059955519
0.68110979 0.11816844 0.059969638
0.68137997 0.11904629 0.059983753
0.68244004 0.11933571 0.060402736
0.68270993 0.12021253 0.060416836
0.68376905 0.12049887 0.060835753
0.68403858 0.12137466 0.060849838
0.6850968 0.12165786 0.061268736
0.68536603 0.12253262 0.061282802
0.68563527 0.12340739 0.061296873
0.68669218 0.12368646 0.061715689
0.68932301 0.12277007 0.062943928
0.69037801 0.12304293 0.063362658
0.69064564 0.12391254 0.063376643
0.6901269 0.12538195 0.062985934
0.69196701 0.12505084 0.063809261
0.69380575 0.12471566 0.064632542
0.69642866 0.12377338 0.065860368
0.69669443 0.12463678 0.065874256
0.62086409 0.047805056 0.041331735
0.62279183 0.047760524 0.042161793
0.62307411 0.048677675 0.042176541
0.6233564 0.049594823 0.042191293
0.62363869 0.050511975 0.042206042
0.62474209 0.050943121 0.042628355
0.62502408 0.051859245 0.042643089
0.63296932 0.049289472 0.046340153
0.63324845 0.050196279 0.046354737
0.64473116 0.046504516 0.051695276
0.64746177 0.04591506 0.052931935
0.65019047 0.045319375 0.054168481
0.65046358 0.046206549 0.054182749
0.65155423 0.046596322 0.054604396
0.65264422 0.046984043 0.055026013
0.65373367 0.047369681 0.055447608
0.65482241 0.047753256 0.055869143
0.65591055 0.048134767 0.05629066
0.65618205 0.04901677 0.056304842
0.65726918 0.049395189 0.05672631
0.65754032 0.050276164 0.056740478
0.65781152 0.051157128 0.056754645
0.65889746 0.051531382 0.057176046
0.6591683 0.052411303 0.057190195
0.66025323 0.052782468 0.057611544
0.66052371 0.053661365 0.057625681
0.66160774 0.054029457 0.058046967
0.66187793 0.054907311 0.058061082
0.66296095 0.055272281 0.058482334
0.66404331 0.055635199 0.058903549
0.6643129 0.056510989 0.058917634
0.66458249 0.057386782 0.05893172
0.66485202 0.058262572 0.058945805
0.66512161 0.059138361 0.05895989
0.66620213 0.05949505 0.059381004
0.66647142 0.060369801 0.059395075
0.66674066 0.061244566 0.059409142
0.66700989 0.062119316 0.059423208
0.6688984 0.061947633 0.060251195
0.66916704 0.062820315 0.060265228
0.66943562 0.063693002 0.060279265
0.66970426 0.064565703 0.060293298
0.67078125 0.064911023 0.060714234
0.6718576 0.065254271 0.061135132
0.67535651 0.064007156 0.062776595
0.67562318 0.064873643 0.062790528
0.67669702 0.065208606 0.063211299
0.67696345 0.066074066 0.063225217
0.67803627 0.066405945 0.063645937
0.67830235 0.067270361 0.063659839
0.67856842 0.068134785 0.063673742
0.67883444 0.068999194 0.063687637
0.67990571 0.069325924 0.064108275
0.68178117 0.069111817 0.06493558
0.68204629 0.069973141 0.064949431
0.68311566 0.070293643 0.065369979
0.68338048 0.071153924 0.065383814
0.68364525 0.072014213 0.06539765
0.68391007 0.072874486 0.065411486
0.6841749 0.073734775 0.065425321
0.68443966 0.074595049 0.065439157
0.68470448 0.075455345 0.065452993
0.68577123 0.075767569 0.065873377
0.68603575 0.076626815 0.065887198
0.68630022 0.077486068 0.065901019
0.68656468 0.078345321 0.065914832
0.68682915 0.079204567 0.065928653
0.68709362 0.08006382 0.065942474
0.68735814 0.080923066 0.065956295
0.68762261 0.081782319 0.065970108
0.68069196 0.087648459 0.062326048
0.68095928 0.08851701 0.062340014
0.68202543 0.08882717 0.062760383
0.68229246 0.089694694 0.062774338
0.68176132 0.091122665 0.062381919
0.68202871 0.091991238 0.062395889
0.68229604 0.09285979 0.062409855
0.68256336 0.093728341 0.062423825
0.68203384 0.095161483 0.062031507
0.68230146 0.096031062 0.062045492
0.68256915 0.096900672 0.062059477
0.68283683 0.097770251 0.062073465
0.68310446 0.098639861 0.06208745
0.67860019 0.10292801 0.059664134
0.6804598 0.10266221 0.060490619
0.68072873 0.10353592 0.060504671
0.67940891 0.10555542 0.059706386
0.67650235 0.10872678 0.058095887
0.67756689 0.10903177 0.058516171
0.67783743 0.10991066 0.058530305
0.67731488 0.11136654 0.058138341
0.67758572 0.11224649 0.058152489
0.67864901 0.11254735 0.05857271
0.67891949 0.11342625 0.058586843
0.67839825 0.11488626 0.058194946
0.6786691 0.11576621 0.058209095
0.67973107 0.11606291 0.058629248
0.68000162 0.1169418 0.058643382
0.6810627 0.11723545 0.059063472
0.68133289 0.11811332 0.059077591
0.68160307 0.11899117 0.059091706
0.68266284 0.11928066 0.059511743
0.68293273 0.12015747 0.059525844
0.68399161 0.12044388 0.059945829
0.68426114 0.12131967 0.059959915
0.68531913 0.12160293 0.060379852
0.68558836 0.1224777 0.060393918
0.68585759 0.12335246 0.060407989
0.68691421 0.12363161 0.060827859
0.68954426 0.12271541 0.062059246
0.68981224 0.12358601 0.062073249
0.68850744 0.12565407 0.061275747
0.68956208 0.12592703 0.06169552
0.69061613 0.12619789 0.062115256
0.69088411 0.12706852 0.062129255
0.62055856 0.049148362 0.040003777
0.62166357 0.049585775 0.040427245
0.62194651 0.050505001 0.040442027
0.62222946 0.05142422 0.040456813
0.6225124 0.052343436 0.040471595
0.62279534 0.053262662 0.040486377
0.63128024 0.049301758 0.044586964
0.63155997 0.050210632 0.044601582
0.63511801 0.049159206 0.046250377
0.63539648 0.050063945 0.046264928
0.6493246 0.044870716 0.052844264
0.649598 0.045758918 0.05285855
0.65068907 0.046150848 0.053281259
0.65177941 0.046540685 0.05370396
0.65286916 0.046928473 0.054126613
0.65395838 0.047314174 0.054549266
0.65504682 0.047697816 0.05497187
0.65613467 0.04807939 0.055394422
0.65640616 0.048961394 0.055408608
0.65749305 0.049339876 0.055831116
0.65776426 0.050220855 0.055845283
0.6580354 0.051101815 0.05585945
0.6591211 0.051476136 0.056281906
0.65939194 0.052356057 0.056296054
0.66047657 0.052727289 0.056718457
0.66074711 0.053606186 0.056732595
0.66183084 0.053974342 0.057154931
0.66210103 0.054852195 0.05716905
0.66318381 0.055217233 0.057591353
0.66426593 0.055580214 0.058013611
0.66453546 0.056456003 0.058027696
0.66561669 0.056815848 0.058449917
0.66588593 0.057690598 0.058463983
0.66615522 0.058565363 0.058478054
0.66723508 0.058921095 0.058900207
0.66750401 0.059794821 0.058914259
0.66777295 0.060668547 0.058928311
0.66885155 0.061020143 0.059350383
0.66992956 0.061369665 0.059772436
0.67019784 0.062241323 0.059786454
0.66965741 0.06363821 0.059392489
0.67154288 0.063458368 0.060222447
0.67181087 0.064328991 0.06023645
0.67207885 0.065199606 0.06025045
0.67557669 0.063952759 0.061896116
0.67584342 0.064819247 0.061910052
0.67691696 0.065154269 0.062331874
0.67718339 0.066019729 0.062345792
0.67825592 0.066351667 0.062767565
0.67852199 0.067216091 0.062781468
0.67878807 0.068080515 0.062795371
0.6798594 0.068408333 0.063217059
0.68012512 0.069271713 0.063230947
0.6828047 0.068519063 0.064468123
0.68306953 0.069379345 0.064481959
0.68333429 0.070239633 0.064495794
0.68359911 0.071099907 0.06450963
0.68386388 0.071960196 0.064523466
0.6841287 0.07282047 0.064537302
0.68439353 0.073680766 0.064551137
0.68465829 0.07454104 0.064564973
0.68492311 0.075401329 0.064578809
0.68598962 0.07571362 0.065000251
0.68625408 0.076572873 0.065014064
0.68651855 0.077432118 0.065027885
0.68678308 0.078291371 0.065041706
0.68704754 0.079150617 0.065055527
0.68731201 0.08000987 0.06506934
0.68757647 0.080869123 0.065083161
0.68864048 0.081173152 0.065504484
0.68970382 0.081475109 0.065925777
0.68996763 0.082332298 0.065939561
0.6902315 0.08318948 0.065953344
0.69049531 0.084046662 0.065967128
0.6819821 0.091068134 0.061499346
0.68145186 0.092498124 0.061105926
0.68251675 0.092805259 0.061527282
0.68278408 0.09367381 0.061541252
0.68225479 0.095106892 0.06114788
0.68252248 0.095976472 0.061161865
0.68279016 0.096846074 0.061175849
0.68305779 0.097715653 0.061189834
0.68332547 0.098585263 0.061203822
0.68359309 0.099454843 0.061217807
0.68386078 0.10032442 0.061231792
0.68095076 0.10348107 0.059616838
0.67963147 0.10550043 0.058816448
0.67751974 0.10809769 0.057608947
0.67779022 0.10897659 0.057623085
0.67806077 0.10985548 0.057637218
0.67833132 0.11073438 0.057651352
0.67780936 0.11219124 0.057258349
0.67887235 0.11249217 0.057679623
0.67914289 0.11337107 0.057693757
0.67941338 0.11424994 0.057707891
0.67968392 0.11512883 0.057722028
0.67995447 0.11600773 0.057736162
0.68101555 0.11630247 0.058157321
0.6812858 0.11718034 0.05817144
0.68155599 0.11805821 0.058185559
0.68182617 0.11893605 0.058199674
0.68288571 0.11922561 0.058620766
0.6831556 0.12010242 0.058634866
0.68421417 0.1203889 0.059055891
0.68448377 0.12126469 0.059069976
0.68554139 0.12154801 0.059490968
0.68581069 0.12242278 0.059505034
0.68607992 0.12329754 0.059519105
0.68634915 0.12417231 0.059533171
0.68661845 0.12504704 0.059547238
0.68767411 0.1253242 0.059968129
0.68872917 0.12559928 0.060388971
0.68899781 0.12647197 0.060403008
0.68926644 0.12734465 0.060417041
0.68796468 0.12942085 0.059617579
0.62025416 0.050493609 0.038673762
0.62135893 0.050931096 0.03909827
0.62246305 0.051366504 0.039522741
0.62356657 0.051799849 0.039947197
0.62384915 0.05271804 0.039961964
0.63151121 0.049244698 0.043663409
0.631791 0.050153568 0.043678027
0.63534796 0.049102403 0.045331024
0.63562644 0.050007142 0.045345575
0.6416356 0.047467295 0.048227072
0.64354849 0.047378577 0.049060602
0.64955032 0.044814952 0.051941719
0.64982373 0.04570315 0.051956005
0.65091449 0.046095148 0.052379765
0.6520046 0.046485052 0.052803524
0.65309411 0.046872903 0.053227231
0.65418303 0.047258671 0.053650923
0.65445518 0.048142739 0.053665143
0.65554303 0.048525419 0.054088783
0.65663034 0.048906017 0.054512374
0.65771693 0.049284566 0.054935917
0.65798813 0.050165541 0.054950088
0.65825927 0.051046506 0.054964256
0.65934467 0.05142089 0.055387761
0.65961552 0.052300811 0.055401914
0.66069996 0.052672107 0.055825371
0.66097045 0.053551003 0.055839505
0.66205394 0.053919222 0.056262899
0.66313672 0.054285351 0.056686275
0.66340661 0.05516218 0.056700375
0.66448849 0.055525228 0.057123687
0.66556972 0.055886164 0.057546977
0.66583902 0.05676093 0.057561047
0.66691929 0.057118788 0.057984259
0.66718823 0.057992514 0.057998311
0.66745716 0.05886624 0.058012363
0.6677261 0.059739962 0.058026414
0.66799504 0.060613688 0.058040466
0.66907334 0.060965352 0.058463607
0.67015111 0.061314937 0.058886699
0.67041939 0.062186595 0.058900718
0.6698792 0.063583419 0.05850571
0.67176414 0.063403711 0.059337765
0.67445564 0.062692612 0.060578775
0.67472267 0.063560128 0.060592726
0.67579693 0.063898355 0.061015636
0.67687052 0.064234488 0.061438531
0.6771369 0.065099932 0.061452448
0.67820954 0.065432973 0.061875276
0.67847562 0.066297397 0.061889175
0.67874169 0.067161821 0.061903078
0.67900777 0.068026237 0.061916981
0.6800788 0.06835413 0.062339742
0.68034452 0.069217511 0.062353626
0.68302333 0.068465054 0.063593954
0.68328816 0.069325328 0.06360779
0.68355292 0.070185617 0.063621625
0.68301433 0.071587622 0.063226685
0.6832794 0.072448939 0.063240536
0.68354452 0.073310249 0.063254394
0.68461215 0.073626749 0.063676968
0.68487692 0.074487031 0.063690804
0.68514174 0.075347319 0.06370464
0.68620801 0.07565967 0.064127132
0.68647248 0.076518923 0.064140953
0.68673694 0.077378176 0.064154774
0.68700141 0.078237422 0.064168587
0.68726593 0.079096675 0.064182408
0.6875304 0.079955921 0.064196229
0.68779486 0.080815174 0.064210042
0.68885857 0.081119269 0.064632408
0.68992168 0.081421293 0.065054752
0.69018549 0.082278475 0.065068536
0.69044936 0.083135664 0.065082327
0.69071317 0.083992846 0.06509611
0.68459582 0.089332618 0.061842166
0.68406481 0.090759449 0.061447628
0.6835345 0.092188321 0.061053135
0.68380153 0.093055844 0.061067089
0.68406856 0.093923375 0.061081041
0.68353951 0.095356382 0.060686614
0.68301111 0.096791476 0.060292222
0.6832788 0.097661056 0.060306206
0.68354648 0.098530665 0.060320191
0.68381411 0.099400245 0.06033418
0.68408179 0.10026982 0.060348164
0.68276107 0.10228281 0.059545565
0.68302941 0.10315447 0.059559584
0.67853659 0.10746875 0.057124108
0.67880678 0.1083466 0.057138223
0.67907703 0.10922447 0.057152342
0.67855465 0.11067919 0.056758266
0.6796174 0.11098018 0.05718058
0.67988765 0.11185805 0.057194699
0.67936623 0.11331589 0.056800671
0.67963678 0.11419475 0.056814805
0.68069828 0.11449164 0.057237051
0.68096846 0.11536951 0.05725117
0.68123865 0.11624735 0.057265289
0.6815089 0.11712522 0.057279408
0.68177909 0.11800309 0.057293523
0.68283868 0.11829374 0.057715684
0.68310857 0.11917055 0.057729784
0.68337846 0.12004737 0.057743888
0.68443674 0.12033391 0.058165967
0.68470633 0.1212097 0.058180053
0.68576372 0.12149309 0.058602098
0.68603295 0.12236786 0.058616165
0.68630224 0.12324262 0.058630232
0.68657148 0.12411739 0.058644302
0.68684071 0.12499212 0.058658369
0.68711001 0.12586689 0.058672439
0.68816513 0.12614305 0.059094336
0.68843406 0.1270168 0.059108388
0.688703 0.12789053 0.059122439
0.688187 0.12936592 0.05872871
0.6226967 0.051308792 0.038588688
0.62379992 0.0517422 0.039014183
0.62408251 0.052660391 0.03902895
0.64186364 0.047410946 0.047315083
0.64377606 0.047322359 0.048150707
0.64977604 0.044759184 0.051039174
0.65004945 0.045647386 0.051053461
0.65113997 0.046039447 0.051478274
0.65222985 0.046429414 0.051903073
0.65331906 0.046817333 0.052327834
0.65440774 0.047203165 0.052752595
0.65712738 0.046586368 0.053998236
0.65739852 0.047467329 0.054012403
0.65685445 0.048850644 0.05361614
0.65712595 0.049732644 0.053630322
0.65821201 0.050110232 0.054054908
0.65848315 0.050991192 0.054069076
0.65956831 0.051365644 0.054493636
0.65983915 0.052245565 0.054507788
0.66011 0.053125504 0.054521941
0.66119385 0.053495824 0.054946419
0.66227704 0.053864107 0.055370867
0.66335958 0.054230299 0.055795282
0.66362947 0.055107128 0.055809382
0.66552281 0.054956492 0.056644026
0.66660345 0.055316482 0.057068326
0.66687238 0.056190208 0.057082377
0.66714132 0.057063933 0.057096429
0.6682207 0.057419792 0.057520676
0.66848934 0.058292493 0.057534713
0.6695677 0.058645248 0.057958923
0.67064548 0.058995921 0.058383089
0.67091346 0.059866555 0.058397092
0.67118144 0.060737174 0.058411092
0.67144942 0.061607793 0.058425095
0.67171741 0.062478427 0.058439095
0.67198539 0.063349046 0.058453098
0.67467612 0.062638141 0.059697241
0.67494315 0.063505657 0.059711192
0.67601711 0.063843951 0.060135156
0.67709047 0.064180151 0.060559101
0.67816317 0.064514279 0.060983002
0.67923522 0.064846382 0.061406866
0.67950094 0.065709762 0.061420754
0.67976671 0.066573143 0.061434638
0.68003249 0.067436539 0.061448522
0.68190759 0.067226946 0.062282201
0.68217272 0.068088263 0.062296055
0.68324196 0.068411045 0.062719785
0.68350679 0.069271319 0.06273362
0.68377155 0.070131607 0.062747456
0.68403637 0.070991881 0.062761292
0.6843012 0.07185217 0.062775128
0.68456596 0.072712451 0.062788963
0.68483078 0.07357274 0.062802799
0.68509555 0.074433014 0.062816635
0.68536037 0.075293303 0.062830471
0.68642634 0.075605728 0.063254006
0.68669081 0.076464973 0.06326782
0.68695533 0.077324226 0.06328164
0.6872198 0.078183472 0.063295461
0.68748426 0.079042725 0.063309282
0.68854839 0.079348952 0.063732743
0.68881249 0.080207162 0.063746542
0.68907666 0.081065387 0.063760348
0.68934083 0.081923597 0.063774146
0.689605 0.082781807 0.063787952
0.68986917 0.083640032 0.063801751
0.68933564 0.085057475 0.063406013
0.68960011 0.085916728 0.063419826
0.68827039 0.087898575 0.06261465
0.68853551 0.088759884 0.0626285
0.68880063 0.089621201 0.062642358
0.68428904 0.093868904 0.060199507
0.68376029 0.095301852 0.059804041
0.68402761 0.096170411 0.059818011
0.68349981 0.097606465 0.059422579
0.68376744 0.098476067 0.059436563
0.68403512 0.099345647 0.059450548
0.68430275 0.10021523 0.059464533
0.68457043 0.10108484 0.059478521
0.68404448 0.10252709 0.059083175
0.68431246 0.1033977 0.059097178
0.68140876 0.10656728 0.057474051
0.68088531 0.10801782 0.057078842
0.68036258 0.1094704 0.056683678
0.68063247 0.11034723 0.056697778
0.68090236 0.11122407 0.056711879
0.68038094 0.11268081 0.056316782
0.68065113 0.11355865 0.056330901
0.68171203 0.11385455 0.056754183
0.68198192 0.11473136 0.056768287
0.68225181 0.11560821 0.056782387
0.681732 0.11707011 0.056387372
0.68279159 0.11736184 0.056810591
0.68306148 0.11823869 0.056824692
0.68333137 0.1191155 0.056838792
0.68438977 0.11940313 0.057261944
0.6846593 0.12027892 0.057276029
0.68571675 0.1205634 0.057699144
0.68598604 0.12143817 0.057713211
0.68625528 0.12231293 0.057727281
0.68652451 0.1231877 0.057741348
0.6867938 0.12406246 0.057755418
0.68706304 0.1249372 0.057769485
0.68733227 0.12581196 0.057783555
0.68760157 0.12668674 0.057797622
0.6878708 0.12756149 0.057811689
0.68814003 0.12843627 0.057825759
0.68683994 0.13051429 0.057022113
0.62293029 0.05125108 0.03765462
0.62403327 0.051684551 0.038081169
0.62431586 0.052602742 0.038095936
0.64209175 0.047354598 0.04640308
0.64727491 0.045294181 0.048887398
0.65000176 0.04470342 0.050136644
0.65027517 0.045591623 0.050150927
0.65136546 0.045983747 0.050576784
0.65163851 0.046870906 0.050591052
0.65272778 0.047259912 0.051016886
0.65381646 0.047646854 0.051442686
0.65735126 0.046531055 0.053103041
0.6576224 0.047412019 0.053117208
0.65707862 0.048795268 0.052719906
0.65735012 0.049677271 0.052734088
0.65843588 0.050054919 0.053159714
0.65870708 0.050935883 0.053173881
0.65897822 0.051816843 0.053188048
0.65924937 0.052697808 0.053202216
0.66033363 0.053070258 0.0536278
0.66141719 0.053440642 0.054053333
0.66250014 0.053808991 0.054478835
0.66277033 0.054686848 0.054492954
0.66385227 0.055052079 0.054918405
0.66574514 0.05490157 0.055755142
0.66682547 0.055261627 0.056180496
0.66709441 0.056135353 0.056194548
0.66736335 0.057009075 0.056208599
0.66844249 0.057365 0.056633901
0.66871107 0.058237702 0.056647934
0.67059875 0.058070641 0.057484403
0.67167604 0.058420353 0.057909623
0.67194366 0.059289947 0.057923608
0.67221135 0.060159538 0.057937592
0.67247903 0.061029132 0.057951577
0.67193866 0.062423766 0.057554413
0.67624485 0.060663994 0.059624001
0.67651129 0.061529454 0.059637923
0.67354965 0.064507477 0.058007516
0.67623734 0.063789546 0.059254676
0.67972946 0.062535189 0.060912829
0.67999494 0.063397542 0.060926698
0.68026036 0.064259887 0.060940567
0.68052578 0.065122239 0.060954437
0.68159628 0.065450244 0.061379272
0.6818614 0.066311553 0.061393127
0.68293101 0.066636465 0.061817944
0.68319583 0.067496739 0.06183178
0.68346059 0.068357028 0.061845616
0.68372542 0.069217302 0.061859451
0.68479335 0.069537044 0.062284157
0.68505788 0.070396289 0.062297974
0.68532234 0.071255527 0.062311795
0.68558681 0.072114781 0.062325612
0.68585128 0.072974026 0.062339433
0.68611574 0.073833279 0.06235325
0.68638027 0.074692525 0.06236707
0.68664473 0.075551778 0.062380888
0.6869092 0.076411031 0.062394708
0.68797398 0.076720424 0.062819257
0.68823814 0.077578634 0.062833063
0.68770266 0.078988776 0.062436163
0.68876648 0.079295069 0.062860668
0.68903065 0.080153279 0.062874466
0.68929482 0.081011504 0.062888272
0.68955892 0.081869714 0.062902071
0.68982309 0.082727924 0.062915877
0.69008726 0.083586149 0.062929675
0.69035143 0.084444359 0.062943481
0.69061559 0.085302576 0.062957279
0.69087976 0.086160786 0.062971085
0.69114393 0.087018996 0.062984884
0.69220424 0.087313935 0.063409209
0.69246811 0.088171117 0.063422993
0.68795872 0.092420496 0.060973879
0.68504357 0.095549464 0.059345875
0.68769532 0.094714694 0.060591199
0.6879614 0.095579118 0.060605101
0.68743318 0.097013026 0.060208585
0.68769956 0.097878471 0.060222503
0.68717229 0.099315532 0.05982602
0.68585241 0.1013272 0.059019245
0.68611974 0.10219578 0.059033215
0.68400902 0.10478834 0.057816159
0.68348497 0.1062357 0.057419859
0.68296158 0.10768513 0.057023592
0.68243879 0.10913663 0.056627374
0.68191659 0.11059021 0.056231171
0.68218619 0.11146601 0.056245256
0.68245572 0.11234179 0.056259342
0.68272531 0.11321758 0.056273427
0.68220478 0.11467631 0.055877309
0.68247467 0.11555316 0.05589141
0.68274456 0.11642998 0.05590551
0.68301445 0.11730679 0.055919614
0.68407315 0.11759657 0.05634385
0.68434274 0.11847236 0.056357935
0.68461233 0.11934815 0.05637202
0.68488187 0.12022394 0.056386106
0.68593907 0.12050848 0.05681026
0.68620837 0.12138325 0.056824327
0.6864776 0.12225801 0.056838397
0.68674684 0.12313278 0.056852464
0.68701613 0.12400755 0.056866534
0.68728536 0.12488228 0.056880601
0.68676889 0.1263545 0.056484699
0.68782383 0.12663181 0.056908738
0.68809313 0.12750657 0.056922805
0.68836236 0.12838134 0.056936875
0.6870628 0.13045923 0.056131136
0.63931179 0.046972703 0.04422396
0.63958901 0.047873314 0.044238444
0.64068407 0.048282046 0.044665635
0.64750141 0.045238223 0.047981702
0.64941031 0.045141611 0.048821412
0.65050089 0.045535855 0.049248382
0.65159088 0.045928046 0.049675293
0.65268022 0.046318144 0.050102197
0.65295297 0.047204278 0.05011645
0.65485704 0.047092155 0.05095591
0.65594447 0.047476053 0.051382713
0.65621632 0.048359096 0.051396914
0.6573028 0.048739891 0.051823657
0.65757424 0.049621895 0.051837839
0.6594739 0.049495295 0.052677065
0.65974474 0.050375216 0.052691218
0.66001558 0.051255152 0.05270537
0.66028643 0.052135076 0.052719522
0.66137004 0.052506566 0.053146113
0.662453 0.052876022 0.053572685
0.66272324 0.053753875 0.053586803
