# .PCD v0.7 - Point Cloud Data file format
VERSION 0.7
FIELDS x y z
SIZE 4 4 4
TYPE F F F
COUNT 1 1 1
WIDTH 1435
HEIGHT 1
VIEWPOINT 0 0 0 1 0 0 0
POINTS 1435
DATA ascii
0.6198262 0.10619092 0.22783525
0.61945492 0.1057202 0.2278164
0.6190837 0.10524948 0.22779755
0.61871243 0.10477876 0.2277787
0.61834115 0.10430804 0.22775985
0.61796987 0.10383731 0.227741
0.61759859 0.1033666 0.22772215
0.61635196 0.10345855 0.22784922
0.61598134 0.10298868 0.2278304
0.61561078 0.1025188 0.22781157
0.61524016 0.10204893 0.22779277
0.61486959 0.10157906 0.22777395
0.61449897 0.10110918 0.22775513
0.61412835 0.1006393 0.22773631
0.61375779 0.10016943 0.2277175
0.61338717 0.099699557 0.22769868
0.61301655 0.099229679 0.22767986
0.61264598 0.098759808 0.22766104
0.61227536 0.098289937 0.22764224
0.61190474 0.097820058 0.22762342
0.61153418 0.097350188 0.2276046
0.61116356 0.096880309 0.22758578
0.61079293 0.096410438 0.22756697
0.61042237 0.09594056 0.22754815
0.61005175 0.095470689 0.22752933
0.60968113 0.095000811 0.22751051
0.60931057 0.09453094 0.22749171
0.60893995 0.094061069 0.22747289
0.60856932 0.093591191 0.22745407
0.60819876 0.09312132 0.22743526
0.60782814 0.092651442 0.22741644
0.60659826 0.092764519 0.22754435
0.60622829 0.09229549 0.22752556
0.60585839 0.091826469 0.22750679
0.60548848 0.09135744 0.227488
0.60511851 0.090888411 0.22746922
0.60474861 0.090419382 0.22745043
0.60437864 0.089950353 0.22743165
0.60400873 0.089481331 0.22741286
0.60363877 0.089012302 0.22739409
0.60326886 0.088543274 0.22737531
0.6028989 0.088074245 0.22735652
0.60252899 0.087605216 0.22733775
0.60215908 0.087136194 0.22731896
0.60263973 0.086073205 0.227153
0.60226911 0.085603334 0.2271342
0.60189855 0.085133456 0.22711538
0.60152793 0.084663585 0.22709656
0.60115731 0.084193707 0.22707774
0.60078675 0.083723836 0.22705893
0.60041612 0.083253965 0.22704011
0.6000455 0.082784086 0.22702129
0.67327946 0.13425741 0.22542588
0.67289215 0.13376637 0.22540621
0.6725049 0.13327533 0.22538655
0.67211759 0.13278429 0.22536689
0.67173028 0.13229325 0.22534722
0.67134297 0.13180222 0.22532755
0.67095572 0.13131118 0.2253079
0.67056841 0.13082013 0.22528823
0.66925073 0.13082115 0.22541262
0.66886407 0.13033096 0.225393
0.66847748 0.12984076 0.22537336
0.66901922 0.12885597 0.22520958
0.66863191 0.12836494 0.22518991
0.66731757 0.12837018 0.22531447
0.61972517 0.10982183 0.22768061
0.62023753 0.10879979 0.22751532
0.61986691 0.10832991 0.2274965
0.61949635 0.10786004 0.22747768
0.61912572 0.10739017 0.22745888
0.61963481 0.10636386 0.2272934
0.61926353 0.10589314 0.22727455
0.61889231 0.10542242 0.2272557
0.61852103 0.10495169 0.22723685
0.61814976 0.10448097 0.227218
0.61777848 0.10401025 0.22719915
0.6174072 0.10353953 0.2271803
0.61616093 0.10363118 0.22730835
0.61579031 0.1031613 0.22728953
0.61541975 0.10269143 0.22727071
0.61504912 0.10222156 0.22725189
0.6146785 0.10175168 0.22723308
0.61430794 0.10128181 0.22721426
0.61393732 0.10081193 0.22719544
0.6135667 0.10034206 0.22717662
0.61319613 0.099872179 0.22715782
0.61282551 0.099402308 0.227139
0.61245489 0.09893243 0.22712018
0.61208433 0.098462559 0.22710137
0.61171371 0.097992688 0.22708255
0.61134309 0.09752281 0.22706373
0.61097252 0.097052939 0.22704491
0.6106019 0.096583061 0.2270261
0.61023128 0.09611319 0.22700728
0.60986072 0.095643319 0.22698846
0.6094901 0.095173441 0.22696964
0.60911947 0.09470357 0.22695084
0.60874891 0.094233692 0.22693202
0.60837829 0.093763821 0.2269132
0.60800767 0.093293943 0.22689438
0.60763711 0.092824072 0.22687557
0.60726649 0.092354193 0.22685675
0.60689586 0.091884322 0.22683793
0.6065253 0.091414452 0.22681911
0.60615468 0.090944573 0.22680031
0.60578412 0.090474702 0.22678149
0.6054135 0.090004824 0.22676267
0.60504287 0.089534953 0.22674385
0.60467231 0.089065075 0.22672504
0.60430169 0.088595204 0.22670622
0.60393107 0.088125326 0.2266874
0.60356051 0.087655455 0.22666858
0.60318989 0.087185584 0.22664978
0.60281926 0.086715706 0.22663096
0.6024487 0.086245835 0.22661214
0.60207808 0.085775957 0.22659332
0.60255647 0.08471071 0.22642629
0.60218519 0.08423999 0.22640744
0.60181391 0.083769269 0.22638859
0.60144264 0.083298549 0.22636974
0.60107136 0.082827821 0.22635089
0.60070014 0.082357101 0.22633204
0.67307979 0.13443781 0.22486064
0.67269254 0.13394678 0.22484097
0.67230523 0.13345574 0.2248213
0.67191792 0.1329647 0.22480164
0.6715306 0.13247365 0.22478198
0.67114335 0.13198262 0.22476232
0.67075604 0.13149157 0.22474265
0.67036873 0.13100053 0.22472298
0.66905141 0.13100125 0.22484836
0.66866475 0.13051105 0.22482873
0.66920686 0.12952742 0.22466399
0.66881955 0.12903638 0.22464433
0.62041706 0.10944229 0.22699326
0.6200465 0.10897242 0.22697444
0.61967587 0.10850254 0.22695562
0.61930525 0.10803267 0.2269368
0.61893469 0.1075628 0.226918
0.61944342 0.1065368 0.22675155
0.61907214 0.10606608 0.2267327
0.61870086 0.10559536 0.22671385
0.61832958 0.10512464 0.226695
0.61795837 0.10465392 0.22667615
0.61758709 0.1041832 0.2266573
0.61721581 0.10371248 0.22663845
0.61596984 0.10380381 0.22676747
0.61559927 0.10333394 0.22674865
0.61522865 0.10286406 0.22672983
0.61485803 0.10239419 0.226711
0.61448747 0.10192431 0.2266922
0.61411685 0.10145444 0.22667338
0.61374623 0.10098456 0.22665456
0.61337566 0.10051469 0.22663574
0.61300504 0.10004482 0.22661693
0.61263448 0.099574938 0.22659811
0.61226386 0.099105068 0.22657929
0.61189324 0.098635197 0.22656047
0.61152267 0.098165318 0.22654167
0.61115205 0.09769544 0.22652285
0.61078143 0.097225569 0.22650403
0.61041087 0.096755691 0.22648521
0.61004025 0.09628582 0.2264664
0.60966963 0.095815949 0.22644758
0.60929906 0.095346071 0.22642876
0.60892844 0.0948762 0.22640996
0.60855782 0.094406329 0.22639114
0.60818726 0.093936451 0.22637232
0.60781664 0.09346658 0.2263535
0.60744601 0.092996702 0.22633469
0.60707545 0.092526831 0.22631587
0.60670483 0.092056952 0.22629705
0.60633421 0.091587082 0.22627823
0.60596365 0.091117203 0.22625943
0.60559303 0.090647332 0.22624061
0.6052224 0.090177462 0.22622178
0.60485184 0.089707583 0.22620296
0.60448122 0.089237712 0.22618416
0.6041106 0.088767834 0.22616534
0.60374004 0.088297963 0.22614652
0.60336941 0.087828085 0.2261277
0.60299885 0.087358214 0.22610889
0.60262823 0.086888336 0.22609007
0.60310757 0.085825086 0.22592214
0.60273635 0.085354365 0.22590329
0.60236508 0.084883645 0.22588444
0.6019938 0.084412925 0.22586559
0.60162252 0.083942205 0.22584674
0.60125124 0.083471484 0.22582789
0.60172588 0.082402349 0.22565973
0.60135394 0.081930779 0.22564085
0.67249286 0.13412718 0.22427572
0.67210555 0.13363615 0.22425607
0.67171824 0.13314511 0.2242364
0.67133099 0.13265406 0.22421673
0.67094368 0.13216303 0.22419707
0.67055637 0.13167198 0.22417741
0.67016906 0.13118094 0.22415775
0.6697818 0.1306899 0.22413808
0.6198554 0.10914505 0.22643356
0.61948484 0.10867518 0.22641474
0.61911422 0.1082053 0.22639592
0.6187436 0.10773543 0.22637711
0.61925203 0.10670975 0.22620969
0.61888075 0.10623902 0.22619084
0.61850947 0.10576831 0.22617199
0.61813819 0.10529758 0.22615314
0.61776692 0.10482686 0.22613429
0.6173957 0.10435614 0.22611544
0.61702442 0.10388542 0.22609659
0.6157788 0.10397644 0.22622658
0.61540818 0.10350657 0.22620776
0.61503762 0.10303669 0.22618894
0.614667 0.10256682 0.22617012
0.61429638 0.10209695 0.22615132
0.61392581 0.10162707 0.2261325
0.61355519 0.1011572 0.22611368
0.61318457 0.10068732 0.22609486
0.61281401 0.10021745 0.22607605
0.61244339 0.099747568 0.22605723
0.61207277 0.099277698 0.22603841
0.6117022 0.098807827 0.22601959
0.61133158 0.098337948 0.22600079
0.61096102 0.097868077 0.22598197
0.6105904 0.097398199 0.22596315
0.61021978 0.096928328 0.22594433
0.60984921 0.096458457 0.22592552
0.60947859 0.095988579 0.2259067
0.60910797 0.095518701 0.22588788
0.60873741 0.09504883 0.22586906
0.60836679 0.094578959 0.22585025
0.60799617 0.094109081 0.22583143
0.6076256 0.09363921 0.22581261
0.60725498 0.093169332 0.22579379
0.60688436 0.092699461 0.22577499
0.6065138 0.09222959 0.22575617
0.60614318 0.091759712 0.22573735
0.60577255 0.091289841 0.22571853
0.60540199 0.090819962 0.22569972
0.60503137 0.090350091 0.2256809
0.60466075 0.089880213 0.22566208
0.60429019 0.089410342 0.22564328
0.60391957 0.088940464 0.22562446
0.60354894 0.088470593 0.22560564
0.60317838 0.088000722 0.22558682
0.60365874 0.086939476 0.22541797
0.60328746 0.086468756 0.22539912
0.60291618 0.085998036 0.22538027
0.60339385 0.08493343 0.22521132
0.60302192 0.084461868 0.22519244
0.60264999 0.083990298 0.22517356
0.60227805 0.083518729 0.22515468
0.60190612 0.083047166 0.22513579
0.60237974 0.081977487 0.22496663
0.60200715 0.081505075 0.22494772
0.67229319 0.13430759 0.22371048
0.67190588 0.13381656 0.22369082
0.67151862 0.1333255 0.22367115
0.67113131 0.13283446 0.2236515
0.670744 0.13234343 0.22363183
0.67035669 0.13185239 0.22361216
0.66996944 0.13136135 0.2235925
0.61966437 0.10931768 0.22589268
0.61929375 0.10884781 0.22587386
0.61892313 0.10837793 0.22585504
0.61855257 0.10790806 0.22583622
0.61906064 0.10688268 0.22566783
0.61868936 0.10641196 0.22564898
0.61831808 0.10594124 0.22563013
0.6179468 0.10547052 0.22561128
0.61757553 0.1049998 0.22559243
0.61720425 0.10452908 0.22557358
0.61683303 0.10405836 0.22555473
0.61558777 0.10414907 0.22568569
0.61521715 0.1036792 0.22566688
0.61484653 0.10320932 0.22564806
0.61447597 0.10273945 0.22562924
0.61410534 0.10226957 0.22561044
0.61373472 0.1017997 0.22559161
0.61336416 0.10132983 0.22557279
0.61299354 0.10085995 0.22555397
0.61262292 0.10039008 0.22553517
0.61225235 0.099920206 0.22551635
0.61188173 0.099450327 0.22549753
0.61151111 0.098980457 0.22547871
0.61114055 0.098510578 0.2254599
0.61076993 0.098040707 0.22544108
0.61039931 0.097570829 0.22542226
0.61002874 0.097100958 0.22540344
0.60965812 0.096631087 0.22538464
0.60928756 0.096161209 0.22536582
0.60891694 0.095691338 0.225347
0.60854632 0.09522146 0.22532818
0.60817575 0.094751589 0.22530937
0.60780513 0.094281718 0.22529055
0.60743451 0.09381184 0.22527173
0.60706395 0.093341962 0.22525291
0.60669333 0.092872091 0.22523411
0.60632271 0.09240222 0.22521529
0.60595214 0.091932341 0.22519647
0.60558152 0.091462471 0.22517765
0.6052109 0.090992592 0.22515884
0.60484034 0.090522721 0.22514002
0.60446972 0.090052851 0.2251212
0.60409909 0.089582972 0.22510238
0.60372853 0.089113101 0.22508357
0.60420984 0.08805386 0.22491382
0.60383862 0.08758314 0.22489497
0.60346735 0.087112419 0.22487612
0.60394597 0.086049825 0.22470626
0.60357404 0.085578255 0.22468738
0.6040507 0.08451312 0.22451742
0.60367805 0.084040709 0.2244985
0.60330546 0.083568297 0.22447959
0.60293287 0.083095878 0.22446066
0.60256028 0.082623467 0.22444175
0.60218763 0.082151055 0.22442283
0.60181504 0.081678636 0.22440392
0.67093164 0.13301487 0.22308625
0.67054433 0.13252383 0.22306658
0.67015707 0.1320328 0.22304691
0.61947328 0.10949032 0.2253518
0.61910272 0.10902044 0.22533298
0.61873209 0.10855057 0.22531416
0.61836147 0.10808069 0.22529534
0.61886925 0.10705563 0.22512598
0.61849797 0.10658491 0.22510713
0.61812669 0.10611419 0.22508828
0.61775541 0.10564347 0.22506943
0.61738414 0.10517275 0.22505058
0.61701286 0.10470203 0.22503173
0.61664158 0.10423131 0.22501288
0.61627036 0.10376058 0.22499403
0.61589909 0.10328986 0.22497518
0.61552781 0.10281914 0.22495633
0.61515653 0.10234842 0.22493748
0.61478525 0.1018777 0.22491863
0.61441398 0.10140698 0.22489978
0.6140427 0.10093626 0.22488093
0.61367148 0.10046554 0.22486208
0.61243188 0.10056271 0.22499427
0.61206126 0.10009284 0.22497547
0.6116907 0.099622957 0.22495665
0.61132008 0.099153087 0.22493783
0.61094946 0.098683216 0.22491902
0.61057889 0.098213337 0.2249002
0.61020827 0.097743466 0.22488138
0.60983765 0.097273588 0.22486256
0.61033005 0.096229054 0.22469242
0.60995877 0.095758326 0.22467357
0.60958749 0.095287606 0.22465472
0.60921621 0.094816886 0.22463587
0.60884494 0.094346166 0.22461702
0.60847372 0.093875445 0.22459817
0.60810244 0.093404725 0.22457932
0.60773116 0.092934005 0.22456047
0.60735989 0.092463285 0.22454162
0.60698861 0.091992564 0.22452277
0.60661733 0.091521844 0.22450392
0.60624605 0.091051124 0.22448507
0.60587484 0.090580404 0.22446622
0.60550356 0.090109684 0.22444737
0.60513228 0.089638963 0.22442852
0.604761 0.089168243 0.22440967
0.60438973 0.088697523 0.22439082
0.60487002 0.087637782 0.22422008
0.60449809 0.087166212 0.2242012
0.60412616 0.086694643 0.22418231
0.60375422 0.086223073 0.22416343
0.60423118 0.085159101 0.22399254
0.60385859 0.084686682 0.22397362
0.60433352 0.083620168 0.22380261
0.60396028 0.083146907 0.22378366
0.60358697 0.082673647 0.2237647
0.60321373 0.082200386 0.22374575
0.60284042 0.081727125 0.22372679
0.60246718 0.081253871 0.22370785
0.61928225 0.10966294 0.22481091
0.61891162 0.10919307 0.22479211
0.61854106 0.10872319 0.22477329
0.61817044 0.10825332 0.22475447
0.61867779 0.10722857 0.22458413
0.61830658 0.10675785 0.22456528
0.6179353 0.10628713 0.22454643
0.61756402 0.1058164 0.22452758
0.61719275 0.10534569 0.22450873
0.61682147 0.10487496 0.22448988
0.61645019 0.10440424 0.22447103
0.61607891 0.10393352 0.22445218
0.6157077 0.1034628 0.22443333
0.61533642 0.10299208 0.22441448
0.61496514 0.10252136 0.22439563
0.61459386 0.10205064 0.22437678
0.61422259 0.10157992 0.22435792
0.61385131 0.1011092 0.22433907
0.61348003 0.10063848 0.22432022
0.61310881 0.10016776 0.22430137
0.61273754 0.099697039 0.22428252
0.61236626 0.099226318 0.22426367
0.61199498 0.098755598 0.22424482
0.6116237 0.098284878 0.22422597
0.61125243 0.09781415 0.22420712
0.61088115 0.09734343 0.22418827
0.61050993 0.09687271 0.22416942
0.61013865 0.096401989 0.22415057
0.60976738 0.095931269 0.22413172
0.6093961 0.095460549 0.22411287
0.60902482 0.094989829 0.22409402
0.60865355 0.094519109 0.22407517
0.60828227 0.094048388 0.22405632
0.60791105 0.093577668 0.22403747
0.60753977 0.093106948 0.22401862
0.6071685 0.092636228 0.22399977
0.60679722 0.092165507 0.22398092
0.60642594 0.091694787 0.22396207
0.60605466 0.091224059 0.22394322
0.60568339 0.090753347 0.22392437
0.60531217 0.090282619 0.22390552
0.60494089 0.089811899 0.22388667
0.60542214 0.088754162 0.22371504
0.60505021 0.088282593 0.22369614
0.60467827 0.08781103 0.22367726
0.60430634 0.087339461 0.22365838
0.60478431 0.086277492 0.22348657
0.60441172 0.085805073 0.22346765
0.60403907 0.085332662 0.22344874
0.60451436 0.084267311 0.22327678
0.60414112 0.08379405 0.22325782
0.60376781 0.083320789 0.22323887
0.60424042 0.082252048 0.22306678
0.60386652 0.081777938 0.22304779
0.60349256 0.081303835 0.22302881
0.6031186 0.080829725 0.22300982
0.61872059 0.1093657 0.22425123
0.61834997 0.10889582 0.22423241
0.61797941 0.10842595 0.22421359
0.6184864 0.10740151 0.22404227
0.61811513 0.10693079 0.22402342
0.61774391 0.10646007 0.22400457
0.61737263 0.10598935 0.22398572
0.61700135 0.10551863 0.22396687
0.61663008 0.10504791 0.22394802
0.6162588 0.10457719 0.22392917
0.61588752 0.10410646 0.22391032
0.61551625 0.10363575 0.22389147
0.61514503 0.10316502 0.22387262
0.61477375 0.10269431 0.22385377
0.61440247 0.10222358 0.22383492
0.6140312 0.10175286 0.22381607
0.61365992 0.10128214 0.22379722
0.61328864 0.10081142 0.22377835
0.61291736 0.1003407 0.2237595
0.61254615 0.099869981 0.22374065
0.61217487 0.099399261 0.2237218
0.61180359 0.098928541 0.22370295
0.61143231 0.098457821 0.2236841
0.61106104 0.0979871 0.22366525
0.61068976 0.09751638 0.2236464
0.61031848 0.097045653 0.22362755
0.60994726 0.09657494 0.2236087
0.60957599 0.096104212 0.22358985
0.60920471 0.095633492 0.223571
0.60883343 0.095162772 0.22355215
0.60846215 0.094692051 0.2235333
0.60809088 0.094221331 0.22351445
0.6077196 0.093750611 0.2234956
0.60734838 0.093279891 0.22347675
0.60697711 0.09280917 0.2234579
0.60660583 0.09233845 0.22343905
0.60623455 0.09186773 0.2234202
0.60586327 0.09139701 0.22340135
0.605492 0.09092629 0.2233825
0.60512072 0.090455569 0.22336365
0.60560238 0.089398988 0.22319108
0.60523045 0.088927418 0.2231722
0.60485846 0.088455848 0.22315331
0.60533744 0.087395884 0.22298059
0.60496485 0.086923473 0.22296166
0.6045922 0.086451054 0.22294275
0.6050685 0.085387699 0.2227699
0.6046952 0.084914438 0.22275096
0.60432196 0.084441178 0.22273201
0.60479552 0.083374448 0.22255899
0.60442162 0.082900338 0.22254001
0.60404766 0.082426235 0.22252102
0.6036737 0.081952125 0.22250204
0.6032998 0.081478015 0.22248305
0.60292584 0.081003912 0.22246407
0.61728036 0.10962099 0.22384492
0.61778831 0.10859858 0.2236727
0.61741775 0.10812871 0.22365388
0.61792374 0.10710374 0.22348157
0.61755246 0.10663301 0.22346272
0.61718118 0.10616229 0.22344387
0.61680996 0.10569157 0.22342502
0.61643869 0.10522085 0.22340617
0.61606741 0.10475013 0.22338732
0.61569613 0.10427941 0.22336847
0.61532485 0.10380869 0.22334962
0.61495358 0.10333797 0.22333077
0.61458236 0.10286725 0.22331192
0.61421108 0.10239653 0.22329305
0.61383981 0.10192581 0.2232742
0.61346853 0.10145508 0.22325535
0.61309725 0.10098436 0.2232365
0.61272597 0.10051364 0.22321765
0.6123547 0.10004292 0.2231988
0.61198348 0.099572204 0.22317995
0.6116122 0.099101484 0.2231611
0.61124092 0.098630764 0.22314225
0.61086965 0.098160036 0.2231234
0.61049837 0.097689316 0.22310455
0.61012709 0.097218595 0.2230857
0.60975581 0.096747875 0.22306685
0.6093846 0.096277155 0.223048
0.60901332 0.095806435 0.22302915
0.60864204 0.095335715 0.2230103
0.60827076 0.094864994 0.22299145
0.60789949 0.094394274 0.2229726
0.60752821 0.093923554 0.22295375
0.60715693 0.093452834 0.2229349
0.60678571 0.092982113 0.22291605
0.60641444 0.092511393 0.2228972
0.60604316 0.092040673 0.22287835
0.60652643 0.090986937 0.2227049
0.6061545 0.090515375 0.22268601
0.60578257 0.090043806 0.22266713
0.60541064 0.089572236 0.22264825
0.60589057 0.088514276 0.22247462
0.60551792 0.088041864 0.22245571
0.60514534 0.087569445 0.22243679
0.60562259 0.086508095 0.22226302
0.60524935 0.086034834 0.22224407
0.60487604 0.085561574 0.22222513
0.60535061 0.084496848 0.22205122
0.60497671 0.084022738 0.22203223
0.60460275 0.083548628 0.22201325
0.60422885 0.083074525 0.22199425
0.60470015 0.082005523 0.22182018
0.60432553 0.081530564 0.22180115
0.60395092 0.081055611 0.22178213
0.6035763 0.080580659 0.2217631
0.61759728 0.10877121 0.22313182
0.61722666 0.10830134 0.223113
0.61773235 0.10727667 0.22293971
0.61736107 0.10680595 0.22292086
0.61786473 0.10577878 0.22274747
0.61749279 0.10530721 0.2227286
0.61712086 0.10483564 0.2227097
0.61674887 0.10436408 0.22269082
0.61637694 0.10389251 0.22267194
0.616005 0.10342094 0.22265305
0.61563307 0.10294938 0.22263417
0.61526114 0.10247781 0.22261529
0.6148892 0.10200624 0.22259641
0.61451727 0.10153467 0.22257751
0.61414534 0.10106311 0.22255863
0.61377341 0.10059154 0.22253975
0.61340147 0.10011997 0.22252086
0.61302954 0.099648409 0.22250198
0.61265761 0.099176839 0.2224831
0.61228567 0.098705269 0.22246422
0.61191374 0.0982337 0.22244532
0.61154181 0.097762138 0.22242644
0.61116987 0.097290568 0.22240756
0.61079794 0.096818998 0.22238867
0.61042595 0.096347436 0.22236979
0.61005402 0.095875867 0.22235091
0.60968208 0.095404297 0.22233202
0.60931015 0.094932735 0.22231314
0.60893822 0.094461165 0.22229426
0.60856628 0.093989596 0.22227538
0.60819435 0.093518034 0.22225648
0.60782242 0.093046464 0.2222376
0.60745049 0.092574894 0.22221872
0.60707855 0.092103332 0.22219983
0.60670662 0.091631763 0.22218095
0.60633469 0.091160193 0.22216207
0.60596275 0.090688623 0.22214319
0.60644364 0.089632668 0.22196865
0.60607105 0.089160249 0.22194974
0.60569847 0.088687837 0.22193082
0.60617673 0.087628491 0.22175616
0.60580343 0.08715523 0.22173721
0.60543019 0.086681969 0.22171825
0.60590577 0.085619241 0.22154343
0.60553181 0.085145138 0.22152445
0.60515785 0.084671028 0.22150546
0.60478395 0.084196925 0.22148648
0.6052562 0.083129928 0.22131148
0.60488158 0.082654968 0.22129247
0.60450703 0.082180016 0.22127345
0.60497659 0.081109665 0.22109833
0.60460132 0.080633864 0.22107928
0.60422599 0.080158062 0.22106023
0.6063773 0.077888459 0.22057259
0.60684156 0.076811299 0.2203972
0.60646361 0.076332115 0.22037801
0.60692585 0.075252451 0.22020252
0.61703563 0.10847398 0.22257212
0.61841685 0.10689516 0.22224241
0.61804491 0.1064236 0.22222354
0.61767298 0.10595203 0.22220466
0.61730105 0.10548046 0.22218578
0.61692911 0.10500889 0.22216688
0.61742973 0.10397865 0.2219924
0.61705709 0.10350624 0.22197348
0.6166845 0.10303382 0.22195455
0.61631191 0.10256141 0.22193564
0.61593932 0.102089 0.22191672
0.61469746 0.10217949 0.22205359
0.61432552 0.10170793 0.22203469
0.61395359 0.10123636 0.22201581
0.61358166 0.10076479 0.22199693
0.61320972 0.10029322 0.22197804
0.61283779 0.099821657 0.22195916
0.61246586 0.099350087 0.22194028
0.61209393 0.098878525 0.22192138
0.61172199 0.098406956 0.2219025
0.61135006 0.097935386 0.22188362
0.61097813 0.097463816 0.22186475
0.61060619 0.096992247 0.22184585
0.61109543 0.095947608 0.22167079
0.61072284 0.095475197 0.22165187
0.61035025 0.095002778 0.22163296
0.6099776 0.094530366 0.22161403
0.60960501 0.094057955 0.22159512
0.60923243 0.093585536 0.2215762
0.60885984 0.093113124 0.22155727
0.60848719 0.092640713 0.22153836
0.6081146 0.092168294 0.22151944
0.60774201 0.091695882 0.22150053
0.60736936 0.091223471 0.22148161
0.60699677 0.090751052 0.2214627
0.60662419 0.09027864 0.22144377
0.6062516 0.089806229 0.22142485
0.60673082 0.088748887 0.22124928
0.60635757 0.088275626 0.22123033
0.60598427 0.087802365 0.22121137
0.60561103 0.087329112 0.22119242
0.60523772 0.086855851 0.22117348
0.60571295 0.085793428 0.22099768
0.60533905 0.085319325 0.22097869
0.60581231 0.084254332 0.2208028
0.6054377 0.08377938 0.22078377
0.60506308 0.08330442 0.22076476
0.60553366 0.082236074 0.22058874
0.60515839 0.081760272 0.22056969
0.60478312 0.081284478 0.22055063
0.60525101 0.080212742 0.22037449
0.60656005 0.078542538 0.22004113
0.60702467 0.07746654 0.21986479
0.60748786 0.076388881 0.2196884
0.60710925 0.075908847 0.21966918
0.60673064 0.075428814 0.21964996
0.61859703 0.10753999 0.22171848
0.61910063 0.10651428 0.22154318
0.61872804 0.10604187 0.22152427
0.61835545 0.10556945 0.22150534
0.6179828 0.10509704 0.22148643
0.61761022 0.10462463 0.22146751
0.61723763 0.10415221 0.2214486
0.61686504 0.1036798 0.22142968
0.61649239 0.10320739 0.22141075
0.6161198 0.10273497 0.22139184
0.61574721 0.10226256 0.22137292
0.61537462 0.10179015 0.22135401
0.61500198 0.10131773 0.22133508
0.61462939 0.10084531 0.22131617
0.6142568 0.1003729 0.22129725
0.61388421 0.099900484 0.22127832
0.61351156 0.099428073 0.22125942
0.61313897 0.098955661 0.22124049
0.61276639 0.098483242 0.22122158
0.61239374 0.098010831 0.22120266
0.61202115 0.097538419 0.22118375
0.61164856 0.097066 0.22116482
0.61127597 0.096593589 0.2211459
0.61090332 0.096121177 0.22112699
0.61053073 0.095648758 0.22110806
0.61015815 0.095176347 0.22108915
0.60978556 0.094703928 0.22107023
0.60941291 0.094231516 0.22105132
0.60904032 0.093759105 0.2210324
0.60866773 0.093286686 0.22101347
0.60829514 0.092814274 0.22099456
0.60792249 0.092341863 0.22097564
0.60754991 0.091869444 0.22095673
0.60717732 0.091397032 0.2209378
0.60680473 0.090924621 0.22091889
0.60643208 0.090452202 0.22089997
0.60691166 0.089396022 0.22072345
0.60653841 0.088922761 0.2207045
0.60616511 0.088449508 0.22068554
0.60579187 0.087976247 0.22066659
0.60626805 0.086915828 0.2204899
0.60589415 0.086441725 0.22047092
0.60552019 0.085967615 0.22045194
0.60599381 0.084903777 0.22027509
0.60561919 0.084428824 0.22025608
0.60609072 0.083362482 0.22007914
0.60571545 0.082886681 0.2200601
0.60618502 0.081817798 0.21988307
0.60580909 0.081341155 0.21986398
0.60543311 0.080864504 0.21984489
0.60589999 0.079792239 0.21966773
0.60720778 0.078121781 0.21933237
0.60682982 0.07764259 0.21931319
0.60729271 0.076565243 0.21913582
0.60691404 0.07608521 0.2191166
0.60653543 0.075605176 0.21909738
0.60615683 0.075125143 0.21907815
0.61890852 0.10668784 0.22099937
0.61853594 0.10621543 0.22098047
0.61816335 0.10574301 0.22096154
0.61779076 0.1052706 0.22094263
0.61741811 0.10479819 0.22092371
0.61704552 0.10432577 0.2209048
0.61667293 0.10385336 0.22088587
0.61630034 0.10338095 0.22086695
0.6159277 0.10290853 0.22084804
0.61555511 0.10243612 0.22082911
0.61518252 0.10196371 0.2208102
0.61480993 0.10149129 0.22079128
0.61443728 0.10101888 0.22077237
0.61406469 0.10054646 0.22075345
0.6136921 0.10007405 0.22073454
0.61331952 0.099601634 0.22071561
0.61294687 0.099129222 0.22069669
0.61257428 0.098656811 0.22067778
0.61220169 0.098184392 0.22065885
0.6118291 0.09771198 0.22063994
0.61145645 0.097239569 0.22062102
0.61108387 0.09676715 0.22060211
0.61071128 0.096294738 0.22058319
0.61033863 0.095822327 0.22056426
0.60996604 0.095349908 0.22054535
0.61045194 0.094302505 0.22036819
0.61007869 0.093829244 0.22034925
0.60884821 0.093932666 0.22048859
0.60847563 0.093460254 0.22046968
0.60810304 0.092987835 0.22045076
0.60773045 0.092515424 0.22043183
0.6073578 0.092043012 0.22041292
0.60783905 0.090989679 0.22023553
0.6074658 0.090516418 0.22021659
0.6070925 0.090043157 0.22019763
0.60671926 0.089569896 0.22017868
0.60719711 0.088512339 0.2200011
0.60682315 0.088038228 0.21998212
0.60644925 0.087564126 0.21996313
0.60607529 0.087090015 0.21994415
0.60570133 0.086615913 0.21992517
0.6061753 0.085553229 0.21974738
0.60580069 0.085078277 0.21972835
0.60627258 0.084013097 0.21955049
0.6067431 0.082946211 0.21937257
0.60636717 0.082469568 0.21935348
0.60683566 0.081400156 0.21917544
0.60645908 0.080922656 0.21915632
0.60692561 0.079850703 0.21897818
0.60654831 0.079372361 0.21895903
0.60701293 0.078297831 0.21878077
0.60747612 0.077221639 0.21860248
0.60709751 0.076741606 0.21858326
0.6067189 0.076261573 0.21856403
0.60634029 0.075781539 0.21854481
0.60596168 0.075301506 0.21852559
0.60558307 0.074821472 0.21850637
0.6195913 0.10630789 0.22029722
0.61921805 0.10583463 0.22027826
0.61884475 0.10536137 0.22025931
0.6184715 0.10488811 0.22024035
0.6180982 0.10441485 0.2202214
0.61772496 0.10394159 0.22020245
0.61735171 0.10346833 0.22018351
0.61697841 0.10299507 0.22016455
0.61660516 0.10252181 0.2201456
0.61623186 0.10204855 0.22012664
0.61585861 0.10157529 0.22010769
0.61548531 0.10110202 0.22008874
0.61511207 0.10062876 0.2200698
0.61473876 0.10015551 0.22005084
0.61436552 0.099682249 0.22003189
0.61399221 0.099208988 0.22001293
0.61361897 0.098735727 0.21999398
0.61324567 0.098262466 0.21997502
0.61287242 0.097789206 0.21995607
0.61249918 0.097315945 0.21993713
0.61212587 0.096842684 0.21991818
0.61175263 0.096369423 0.21989922
0.61137933 0.095896162 0.21988027
0.61100608 0.095422901 0.21986131
0.61063278 0.09494964 0.21984236
0.61025953 0.094476379 0.21982342
0.60988623 0.094003119 0.21980447
0.60951298 0.093529858 0.21978551
0.60913968 0.093056597 0.21976656
0.60876644 0.092583336 0.2197476
0.60839313 0.092110075 0.21972865
0.60801989 0.091636814 0.21970969
0.60764658 0.091163553 0.21969076
0.60727334 0.0906903 0.2196718
0.6077522 0.089634739 0.21949333
0.6073783 0.089160629 0.21947435
0.60700434 0.088686526 0.21945535
0.60663038 0.088212416 0.21943636
0.60625648 0.087738313 0.21941738
0.60588253 0.087264203 0.21939839
0.60720491 0.0856153 0.21905996
0.60682964 0.085139498 0.21904092
0.60645437 0.084663697 0.21902186
0.60692525 0.08359798 0.21884298
0.60654926 0.083121337 0.21882389
0.60617334 0.082644686 0.21880481
0.60664153 0.081575587 0.21862578
0.60710841 0.080504782 0.21844672
0.60757399 0.079432257 0.21826756
0.60719603 0.078953065 0.21824837
0.60765952 0.077878036 0.21806912
0.60728091 0.077398002 0.21804988
0.6069023 0.076917969 0.21803066
0.60652369 0.076437935 0.21801144
0.60614508 0.075957902 0.21799222
0.60576648 0.075477868 0.21797299
0.60538787 0.074997835 0.21795377
0.62027341 0.10592857 0.21959309
0.61989945 0.10545446 0.21957411
0.61952549 0.10498035 0.21955512
0.61915159 0.10450625 0.21953614
0.61877763 0.10403214 0.21951714
0.61840367 0.10355803 0.21949816
0.61802977 0.10308392 0.21947917
0.61765581 0.10260982 0.21946019
0.61728185 0.10213571 0.21944121
0.61603945 0.10222242 0.21958187
0.61566615 0.10174916 0.21956292
0.61529291 0.1012759 0.21954396
0.6149196 0.10080264 0.21952502
0.61454636 0.10032938 0.21950607
0.61417305 0.099856116 0.21948712
0.61379981 0.099382855 0.21946816
0.61429036 0.098342851 0.21928932
0.6139164 0.097868748 0.21927033
0.6135425 0.097394638 0.21925135
0.61316854 0.096920535 0.21923237
0.61279458 0.096446425 0.21921338
0.61242068 0.095972314 0.21919438
0.61204672 0.095498212 0.2191754
0.61167276 0.095024101 0.21915641
0.61129886 0.094549991 0.21913743
0.6109249 0.094075888 0.21911845
0.61055094 0.093601778 0.21909946
0.61017704 0.093127675 0.21908048
0.60980308 0.092653565 0.21906149
0.60942912 0.092179462 0.21904249
0.60905522 0.091705352 0.21902351
0.60868126 0.091231242 0.21900453
0.6083073 0.090757139 0.21898554
0.6079334 0.090283029 0.21896656
0.60755944 0.089808926 0.21894757
0.60718548 0.089334816 0.21892859
0.60681158 0.088860705 0.21890961
0.60728747 0.087802038 0.21873
0.60691285 0.087327085 0.21871097
0.60653824 0.086852133 0.21869196
0.60701144 0.085790105 0.21851227
0.60663617 0.085314311 0.21849321
0.60710734 0.08424975 0.2183134
0.6075772 0.083183497 0.21813349
0.60720062 0.082706004 0.21811438
0.60682398 0.082228512 0.21809526
0.60729116 0.081158869 0.21791524
0.60775709 0.080087498 0.21773514
0.60737914 0.079608306 0.21771595
0.60784298 0.078534432 0.21753576
0.60746437 0.078054398 0.21751654
0.60708576 0.077574365 0.21749732
0.6067071 0.077094331 0.2174781
0.60632849 0.076614298 0.21745887
0.60594988 0.076134264 0.21743965
0.60557127 0.075654231 0.21742043
0.60519266 0.075174198 0.21740121
0.60481405 0.074694164 0.21738198
0.62008059 0.10610275 0.21904734
0.6205802 0.10507488 0.21886799
0.62020564 0.10459992 0.21884897
0.61983103 0.10412497 0.21882994
0.61945641 0.10365001 0.21881093
0.6190818 0.10317506 0.21879192
0.61783695 0.10325811 0.21893342
0.61746305 0.102784 0.21891443
0.61708909 0.1023099 0.21889545
0.61584699 0.1023963 0.21903709
0.61547375 0.10192304 0.21901813
0.61510044 0.10144978 0.21899919
0.6147272 0.10097651 0.21898024
0.6143539 0.10050326 0.21896128
0.61398065 0.10003 0.21894233
0.61360735 0.099556737 0.21892338
0.6140976 0.098517038 0.21874356
0.61372364 0.098042935 0.21872458
0.61334968 0.097568825 0.21870559
0.61297578 0.097094715 0.21868661
0.61260182 0.096620612 0.21866763
0.61222786 0.096146502 0.21864864
0.61185396 0.095672391 0.21862964
0.61148 0.095198289 0.21861066
0.61110604 0.094724178 0.21859168
0.61073214 0.094250076 0.21857269
0.61035818 0.093775965 0.21855371
0.60998422 0.093301862 0.21853472
0.60961032 0.092827752 0.21851574
0.60923636 0.092353642 0.21849675
0.6088624 0.091879539 0.21847777
0.6084885 0.091405429 0.21845877
0.60811454 0.090931319 0.21843979
0.60774058 0.090457216 0.2184208
0.60736668 0.089983106 0.21840182
0.60699272 0.089509003 0.21838284
0.60661876 0.089034893 0.21836385
0.60709435 0.087976538 0.21818328
0.60671973 0.087501585 0.21816427
0.60634512 0.087026626 0.21814524
0.60681796 0.085964918 0.21796456
0.60728949 0.084901512 0.21778379
0.60691357 0.084424868 0.21776471
0.60738307 0.083358929 0.21758385
0.60785121 0.08229129 0.21740292
0.60831809 0.081221923 0.21722192
0.6079402 0.080742732 0.21720272
0.60756224 0.080263548 0.21718353
0.60802639 0.079190828 0.21700242
0.60764778 0.078710794 0.2169832
0.60726917 0.078230761 0.21696398
0.60689056 0.077750728 0.21694474
0.60651195 0.077270694 0.21692552
0.60613334 0.076790661 0.21690629
0.60575473 0.076310627 0.21688707
0.60537612 0.075830594 0.21686785
0.60499746 0.07535056 0.21684863
0.60461885 0.074870527 0.2168294
0.62163556 0.10517174 0.218179
0.62126023 0.10469594 0.21815994
0.62088495 0.10422014 0.2181409
0.61963791 0.10429946 0.21828322
0.61926329 0.10382451 0.21826419
0.61888868 0.10334956 0.21824518
0.61851406 0.10287461 0.21822615
0.61727023 0.10295819 0.21836868
0.61689633 0.10248408 0.2183497
0.61565459 0.10257018 0.2184923
0.61528128 0.10209692 0.21847336
0.61490804 0.10162365 0.21845441
0.61453474 0.10115039 0.21843545
0.61416149 0.10067713 0.2184165
0.61378819 0.10020387 0.21839754
0.61341494 0.099730611 0.21837859
0.61390477 0.098691225 0.21819781
0.61353087 0.098217115 0.21817882
0.61315691 0.097743012 0.21815984
0.61278296 0.097268902 0.21814086
0.61240906 0.096794792 0.21812187
0.6120351 0.096320689 0.21810289
0.61166114 0.095846578 0.2180839
0.61128724 0.095372476 0.2180649
0.61091328 0.094898365 0.21804592
0.61053932 0.094424263 0.21802694
0.61016542 0.093950152 0.21800795
0.60979146 0.093476042 0.21798897
0.6094175 0.093001939 0.21796998
0.6090436 0.092527829 0.217951
0.60866964 0.092053719 0.21793202
0.60829568 0.091579616 0.21791303
0.60792178 0.091105506 0.21789403
0.60754782 0.090631403 0.21787505
0.60717386 0.090157293 0.21785606
0.60679996 0.08968319 0.21783708
0.606426 0.08920908 0.2178181
0.60690123 0.088151038 0.21763654
0.60652661 0.087676078 0.21761753
0.606152 0.087201126 0.2175985
0.60662454 0.086139724 0.21741685
0.60709566 0.08507663 0.21723512
0.60756552 0.084011853 0.21705331
0.60718888 0.08353436 0.21703419
0.60765672 0.082467027 0.21685231
0.6081233 0.081397973 0.2166703
0.60774535 0.080918789 0.21665113
0.6073674 0.080439605 0.21663193
0.60783118 0.079367191 0.21644984
0.60745257 0.078887157 0.21643062
0.60707396 0.078407124 0.2164114
0.60669535 0.07792709 0.21639217
0.60631675 0.077447057 0.21637295
0.60593814 0.076967023 0.21635373
0.60555953 0.07648699 0.21633451
0.60518092 0.076006956 0.21631528
0.60480231 0.075526923 0.21629606
0.6044237 0.075046889 0.21627684
0.6219396 0.10431763 0.21744995
0.62069154 0.10439495 0.21759319
0.61944479 0.10447396 0.2177365
0.61994094 0.10344335 0.21755509
0.61956567 0.10296755 0.21753603
0.61832094 0.1030491 0.21767944
0.61707747 0.10313237 0.21782294
0.61670357 0.10265826 0.21780394
0.61546212 0.10274405 0.21794753
0.61508888 0.10227079 0.21792859
0.61471558 0.10179753 0.21790963
0.61434233 0.10132427 0.21789068
0.61396903 0.10085101 0.21787173
0.61359578 0.10037775 0.21785277
0.61322248 0.099904485 0.21783382
0.61371201 0.098865412 0.21765205
0.61333811 0.098391302 0.21763307
0.61296415 0.097917192 0.21761408
0.61259019 0.097443089 0.2175951
0.61221629 0.096968979 0.21757612
0.61184233 0.096494876 0.21755713
0.61146837 0.096020766 0.21753815
0.61109447 0.095546663 0.21751916
0.61072052 0.095072553 0.21750018
0.61034656 0.094598442 0.21748118
0.60997266 0.09412434 0.2174622
0.6095987 0.093650229 0.21744321
0.60922474 0.093176119 0.21742423
0.60885084 0.092702016 0.21740524
0.60847688 0.092227906 0.21738626
0.60810292 0.091753803 0.21736728
0.60772902 0.091279693 0.21734829
0.60735506 0.09080559 0.21732929
0.6069811 0.09033148 0.21731031
0.6066072 0.089857377 0.21729133
0.60623324 0.089383267 0.21727234
0.60670811 0.08832553 0.21708982
0.60633349 0.087850578 0.2170708
0.60595888 0.087375626 0.21705179
0.60643107 0.086314537 0.21686915
0.60690188 0.085251749 0.21668646
0.60737139 0.084187277 0.21650368
0.60699475 0.083709784 0.21648455
0.60746223 0.082642764 0.21630168
0.60792845 0.081574023 0.21611872
0.6075505 0.081094839 0.21609953
0.60717255 0.080615647 0.21608034
0.60763603 0.079543553 0.21589728
0.60725743 0.07906352 0.21587805
0.60687882 0.078583486 0.21585883
0.60650021 0.078103453 0.21583959
0.60612154 0.077623419 0.21582037
0.60574293 0.077143386 0.21580115
0.60536432 0.076663353 0.21578193
0.60498571 0.076183319 0.2157627
0.60460711 0.075703286 0.21574348
0.60506392 0.074622728 0.21556006
0.62212175 0.1049694 0.21692036
0.62174577 0.10449275 0.21690127
0.62049806 0.10456976 0.21704549
0.62012279 0.10409396 0.21702643
0.61974752 0.10361816 0.21700738
0.61937225 0.10314236 0.21698833
0.61812782 0.1032236 0.2171327
0.61688471 0.10330656 0.21727718
0.61651075 0.10283245 0.2172582
0.61526972 0.10291792 0.21740276
0.61489642 0.10244466 0.2173838
0.61452317 0.1019714 0.21736485
0.61414987 0.10149814 0.21734589
0.61377662 0.10102488 0.21732694
0.61340332 0.10055162 0.21730798
0.61303008 0.10007836 0.21728905
0.61351925 0.099039592 0.21710631
0.61314529 0.098565489 0.21708733
0.61277139 0.098091379 0.21706833
0.61239743 0.097617276 0.21704935
0.61202347 0.097143166 0.21703036
0.61164957 0.096669063 0.21701138
0.61127561 0.096194953 0.21699239
0.61090165 0.095720842 0.21697341
0.61052775 0.09524674 0.21695442
0.61015379 0.094772629 0.21693544
0.60977983 0.094298519 0.21691644
0.60940593 0.093824416 0.21689746
0.60903198 0.093350306 0.21687847
0.60865802 0.092876203 0.21685949
0.60828412 0.092402093 0.21684051
0.60791016 0.09192799 0.21682152
0.6075362 0.09145388 0.21680254
0.6071623 0.090979777 0.21678355
0.60678834 0.090505667 0.21676457
0.60641438 0.090031557 0.21674557
0.60604048 0.089557454 0.21672659
0.60651499 0.08850003 0.21654309
0.60614038 0.088025078 0.21652406
0.60576576 0.087550119 0.21650505
0.60623759 0.086489342 0.21632145
0.60670805 0.085426874 0.21613777
0.6071772 0.084362708 0.21595402
0.60680062 0.083885215 0.2159349
0.60726774 0.082818508 0.21575105
0.60773361 0.08175008 0.21556711
0.60735565 0.081270888 0.21554793
0.60781944 0.080199957 0.2153639
0.60744083 0.079719923 0.21534468
0.60706222 0.07923989 0.21532546
0.60668361 0.078759857 0.21530624
0.606305 0.078279823 0.21528701
0.60592639 0.077799782 0.21526779
0.60554779 0.077319756 0.21524857
0.60516918 0.076839723 0.21522935
0.60479051 0.076359682 0.21521012
0.6044119 0.075879656 0.2151909
0.60403329 0.075399615 0.21517168
0.62280071 0.10459287 0.21620747
0.62155199 0.10466787 0.2163526
0.62204748 0.10363789 0.21616922
0.62080008 0.10371458 0.21631442
0.61955404 0.10379297 0.21645968
0.61917877 0.10331716 0.21644062
0.6179347 0.10339809 0.21658598
0.61669195 0.10348075 0.21673143
0.61631799 0.10300664 0.21671245
0.61507726 0.1030918 0.21685798
0.61470401 0.10261854 0.21683903
0.61433071 0.10214528 0.21682008
0.61395746 0.10167202 0.21680112
0.61358416 0.10119876 0.21678217
0.61321092 0.10072549 0.21676321
0.61283767 0.10025223 0.21674427
0.61332649 0.099213779 0.21656056
0.61295253 0.098739676 0.21654157
0.61257857 0.098265566 0.21652259
0.61220467 0.097791463 0.21650359
0.61183071 0.097317353 0.21648461
0.61145675 0.096843243 0.21646562
0.61108285 0.09636914 0.21644664
0.61070889 0.09589503 0.21642765
0.61033493 0.095420919 0.21640867
0.60996103 0.094946817 0.21638969
0.60958707 0.094472706 0.2163707
0.60921311 0.093998604 0.2163517
0.60883921 0.093524493 0.21633272
0.60846525 0.09305039 0.21631373
0.60809129 0.09257628 0.21629475
0.60771739 0.092102177 0.21627577
0.60734344 0.091628067 0.21625678
0.60696948 0.091153957 0.2162378
0.60659558 0.090679854 0.21621881
0.60622162 0.090205744 0.21619983
0.60584766 0.089731634 0.21618083
0.60632187 0.088674523 0.21599637
0.60594726 0.088199571 0.21597734
0.60557264 0.087724619 0.21595833
0.60604411 0.086664148 0.21577375
0.60651428 0.085601985 0.21558909
0.60698307 0.084538139 0.21540436
0.60660642 0.084060647 0.21538524
0.60707325 0.082994252 0.21520042
0.60753876 0.08192613 0.21501552
0.60716081 0.081446946 0.21499632
0.60762423 0.080376312 0.21481134
0.60724562 0.079896286 0.21479212
0.60686702 0.079416253 0.21477289
0.60648841 0.078936212 0.21475367
0.6061098 0.078456186 0.21473445
0.60573119 0.077976145 0.21471523
0.60535258 0.077496111 0.21469599
0.60497397 0.077016085 0.21467677
0.60459536 0.076536044 0.21465755
0.60421675 0.076056011 0.21463832
0.60383815 0.075575978 0.2146191
0.62385631 0.10469531 0.2155118
0.62173408 0.10531964 0.21582299
0.62222993 0.10429081 0.2156387
0.62185335 0.10381332 0.21561956
0.6206063 0.1038897 0.21576574
0.62023032 0.10341305 0.21574666
0.6189853 0.10349198 0.21589293
0.61774158 0.10357259 0.21603924
0.61649913 0.10365494 0.21618567
0.61612523 0.10318083 0.21616669
0.61488485 0.10326567 0.2163132
0.61451155 0.10279241 0.21629424
0.61413831 0.10231915 0.21627529
0.613765 0.10184589 0.21625634
0.61339176 0.10137263 0.21623738
0.61301845 0.10089937 0.21621844
0.61264521 0.10042611 0.21619949
0.61313367 0.099387966 0.2160148
0.61275977 0.098913863 0.21599582
0.61238581 0.098439753 0.21597683
0.61201185 0.097965643 0.21595785
0.61163795 0.09749154 0.21593885
0.61126399 0.09701743 0.21591987
0.61089003 0.09654332 0.21590088
0.61051613 0.096069217 0.2158819
0.61014217 0.095595106 0.21586291
0.60976821 0.095121004 0.21584393
0.60939431 0.094646893 0.21582495
0.60902035 0.094172791 0.21580596
0.60864639 0.09369868 0.21578698
0.60827249 0.093224578 0.21576798
0.60789853 0.092750467 0.215749
0.60752457 0.092276357 0.21573001
0.60715067 0.091802254 0.21571103
0.60677671 0.091328144 0.21569204
0.60640275 0.090854034 0.21567306
0.60602885 0.090379931 0.21565408
0.6056549 0.089905821 0.21563509
0.60612875 0.088849023 0.21544963
0.60575414 0.088374071 0.21543062
0.60537952 0.087899119 0.21541159
0.60585064 0.086838961 0.21522604
0.60632044 0.085777111 0.21504042
0.60678887 0.084713571 0.21485472
0.60641229 0.084236078 0.21483558
0.60687876 0.083169989 0.2146498
0.60734391 0.082102187 0.2144639
0.60696596 0.081622995 0.21444473
0.60742909 0.080552675 0.21425876
0.60705048 0.080072641 0.21423954
0.60667187 0.079592615 0.21422032
0.60629326 0.079112574 0.21420109
0.60591459 0.078632541 0.21418187
0.60553598 0.078152508 0.21416265
0.60515738 0.077672474 0.21414343
0.60477877 0.077192441 0.2141242
0.60440016 0.076712407 0.21410498
0.60402155 0.076232374 0.21408576
0.60364294 0.07575234 0.21406654
0.62278903 0.10542123 0.21512729
0.62241238 0.10494374 0.21510816
0.6220358 0.10446624 0.21508904
0.62165916 0.10398874 0.21506992
0.62041247 0.10406481 0.21521707
0.62003654 0.10358817 0.21519798
0.61879182 0.10366678 0.21534522
0.61754847 0.10374708 0.21549252
0.61630636 0.10382912 0.2156399
0.6159324 0.10335501 0.21562092
0.61469239 0.10343955 0.21576841
0.61431915 0.10296629 0.21574946
0.61394584 0.10249303 0.2157305
0.6135726 0.10201976 0.21571155
0.61319929 0.10154651 0.21569261
0.61282605 0.10107325 0.21567366
0.61245275 0.10059998 0.2156547
0.61294091 0.099562153 0.21546903
0.61256695 0.09908805 0.21545005
0.61219305 0.09861394 0.21543106
0.61181909 0.098139837 0.21541208
0.61144513 0.097665727 0.2153931
0.61107123 0.097191624 0.21537411
0.61069727 0.096717514 0.21535513
0.61032331 0.096243404 0.21533613
0.60994941 0.095769301 0.21531714
0.60957545 0.095295191 0.21529816
0.60920149 0.094821081 0.21527918
0.60882759 0.094346978 0.21526019
0.60845363 0.093872868 0.21524121
0.60807967 0.093398765 0.21522222
0.60770577 0.092924654 0.21520324
0.60733181 0.092450552 0.21518424
0.60695785 0.091976441 0.21516526
0.60658395 0.091502339 0.21514627
0.60620999 0.091028228 0.21512729
0.60668486 0.089973427 0.21494095
0.60631025 0.089498475 0.21492194
0.60593563 0.089023516 0.21490291
0.60556102 0.088548563 0.21488389
0.6051864 0.088073611 0.21486486
0.60565722 0.087013766 0.21467833
0.60612667 0.08595223 0.21449174
0.60659474 0.084889002 0.21430506
0.60621816 0.084411509 0.21428594
0.60668427 0.083345734 0.21409917
0.60714906 0.082278237 0.21391231
0.60677111 0.081799053 0.21389312
0.60723388 0.080729038 0.2137062
0.60685527 0.080249004 0.21368697
0.60647666 0.079768971 0.21366775
0.60609806 0.079288937 0.21364853
0.60571945 0.078808904 0.21362931
0.60534084 0.07832887 0.21361007
0.60496223 0.077848837 0.21359085
0.60458362 0.077368803 0.21357162
0.60420495 0.07688877 0.2135524
0.60382634 0.076408736 0.21353318
0.60344774 0.075928703 0.21351396
0.62259483 0.10559666 0.21457763
0.62221825 0.10511917 0.21455851
0.62271273 0.10409011 0.21437223
0.62233543 0.10361177 0.21435307
0.62021869 0.10423993 0.21466839
0.61984271 0.10376328 0.2146493
0.61859834 0.10384159 0.21479751
0.61735535 0.10392158 0.21494579
0.6161136 0.10400331 0.21509415
0.61573964 0.1035292 0.21507517
0.61449999 0.10361342 0.21522364
0.61412668 0.10314016 0.21520469
0.61375344 0.1026669 0.21518573
0.61338013 0.10219364 0.21516678
0.61300689 0.10172038 0.21514784
0.61263365 0.10124712 0.21512888
0.61226034 0.10077386 0.21510993
0.61274815 0.09973634 0.21492328
0.61237419 0.099262238 0.21490429
0.61200029 0.098788127 0.21488531
0.61162633 0.098314025 0.21486633
0.61125237 0.097839914 0.21484734
0.61087847 0.097365804 0.21482836
0.61050451 0.096891701 0.21480937
0.61013055 0.096417591 0.21479039
0.60975659 0.095943481 0.21477139
0.60938269 0.095469378 0.21475241
0.60900873 0.094995268 0.21473342
0.60863483 0.094521165 0.21471444
0.60826087 0.094047055 0.21469545
0.60788691 0.093572952 0.21467647
0.60751295 0.093098842 0.21465749
0.60713905 0.092624739 0.2146385
0.60676509 0.092150629 0.2146195
0.60639119 0.091676518 0.21460052
0.6068663 0.09062288 0.21441324
0.60649168 0.090147927 0.21439421
0.60611713 0.089672975 0.2143752
0.60574251 0.089198016 0.21435617
0.6053679 0.088723063 0.21433716
0.60583901 0.087664373 0.21414968
0.60630876 0.086603992 0.21396215
0.60593283 0.086127348 0.21394306
0.60640061 0.085064434 0.2137554
0.60602397 0.084586941 0.21373628
0.60648978 0.083521478 0.21354854
0.60695422 0.082454287 0.21336071
0.60741729 0.081385441 0.21317282
0.60703868 0.080905408 0.2131536
0.60666007 0.080425374 0.21313438
0.60628146 0.079945341 0.21311516
0.60590285 0.079465307 0.21309593
0.60552424 0.078985274 0.21307671
0.60514563 0.07850524 0.21305749
0.60476702 0.078025207 0.21303827
0.60438842 0.077545173 0.21301904
0.60400981 0.07706514 0.21299982
0.6036312 0.076585107 0.2129806
0.60325253 0.076105073 0.21296138
0.60287392 0.07562504 0.21294215
0.6224007 0.10577209 0.21402797
0.62202406 0.1052946 0.21400885
0.62251824 0.10426585 0.2138216
0.62214094 0.1037875 0.21380246
0.62002486 0.10441505 0.21411972
0.61964893 0.10393841 0.21410063
0.61840487 0.1040164 0.2142498
0.61716223 0.10409608 0.21439907
0.61592084 0.1041775 0.21454841
0.61554688 0.10370339 0.21452941
0.61430752 0.1037873 0.21467885
0.61306953 0.10387291 0.21482836
0.61356097 0.10284077 0.21464095
0.61318773 0.10236751 0.21462201
0.61281443 0.10189426 0.21460305
0.61244118 0.101421 0.2145841
0.61206794 0.10094774 0.21456514
0.61255538 0.099910527 0.21437754
0.61218143 0.099436425 0.21435854
0.61180747 0.098962314 0.21433955
0.61143357 0.098488204 0.21432057
0.61105961 0.098014101 0.21430159
0.61068565 0.097539991 0.2142826
0.61031175 0.097065881 0.21426362
0.60993779 0.096591778 0.21424463
0.60956383 0.096117668 0.21422565
0.60918993 0.095643565 0.21420665
0.60881597 0.095169455 0.21418767
0.60844201 0.094695352 0.21416868
0.60806811 0.094221242 0.2141497
0.60769415 0.093747139 0.21413071
0.60732019 0.093273029 0.21411173
0.60694629 0.092798918 0.21409275
0.60657233 0.092324816 0.21407376
0.60619837 0.091850705 0.21405478
0.60667318 0.09079738 0.21386652
0.60629857 0.09032242 0.21384749
0.60592401 0.089847468 0.21382847
0.6055494 0.089372508 0.21380946
0.60602081 0.08831498 0.21362104
0.60564554 0.087839186 0.21360199
0.60611498 0.086779118 0.21341348
0.605739 0.086302467 0.21339439
0.60620642 0.085239865 0.21320575
0.60582983 0.084762372 0.21318664
0.60629523 0.083697215 0.21299793
0.60675937 0.082630336 0.21280912
0.60722214 0.081561804 0.21262026
0.60684353 0.08108177 0.21260104
0.60646492 0.080601737 0.21258181
0.60608631 0.080121703 0.21256259
0.60570765 0.07964167 0.21254337
0.60532904 0.079161637 0.21252415
0.60495043 0.078681603 0.21250492
0.60457182 0.07820157 0.2124857
0.60419321 0.077721536 0.21246646
0.6038146 0.077241503 0.21244724
0.60343599 0.076761469 0.21242802
0.60305738 0.076281436 0.2124088
0.60267878 0.075801402 0.21238957
0.62220657 0.10594752 0.21347834
0.62182993 0.10547002 0.21345921
0.62232375 0.10444159 0.21327098
0.62194645 0.10396325 0.21325181
0.61983103 0.10459017 0.21357104
0.6194551 0.10411353 0.21355195
0.61821145 0.10419121 0.21370211
0.61696911 0.10427058 0.21385233
0.61572802 0.10435168 0.21400265
0.61535412 0.10387757 0.21398367
0.61325008 0.10451888 0.21430346
0.61287743 0.10404647 0.21428455
0.61336857 0.10301465 0.21409619
0.61299527 0.10254139 0.21407723
0.61262202 0.10206813 0.21405828
0.61224878 0.10159487 0.21403933
0.61187547 0.1011216 0.21402037
0.61236256 0.10008471 0.21383178
0.61198866 0.099610604 0.2138128
0.6116147 0.099136502 0.2137938
0.61124074 0.098662391 0.21377482
0.61086684 0.098188281 0.21375583
0.61049289 0.097714178 0.21373685
