# .PCD v0.7 - Point Cloud Data file format
VERSION 0.7
FIELDS x y z
SIZE 4 4 4
TYPE F F F
COUNT 1 1 1
WIDTH 1378
HEIGHT 1
VIEWPOINT 0 0 0 1 0 0 0
POINTS 1378
DATA ascii
0.47119132 -0.1408724 0.036727894
0.47240552 -0.14011149 0.03712086
0.4727152 -0.13910541 0.037137039
0.47302487 -0.13809934 0.037153222
0.47333455 -0.13709326 0.037169401
0.47364423 -0.13608718 0.03718558
0.4739539 -0.13508111 0.037201762
0.47336125 -0.13382263 0.036841273
0.47367123 -0.13281552 0.036857471
0.47398123 -0.13180842 0.036873665
0.47429124 -0.13080131 0.036889862
0.47460121 -0.1297942 0.03690606
0.47491121 -0.12878709 0.036922257
0.47522119 -0.12777998 0.036938455
0.4746311 -0.12651323 0.036578082
0.4749414 -0.12550509 0.036594298
0.47435218 -0.12423522 0.036233976
0.47376367 -0.1229633 0.035873689
0.47317579 -0.12168932 0.035513449
0.47258857 -0.12041327 0.035153229
0.47200197 -0.11913515 0.034793042
0.47141594 -0.11785495 0.034432884
0.46993306 -0.11630479 0.033696346
0.46845141 -0.11475047 0.032959856
0.46786797 -0.11346201 0.032599837
0.46728519 -0.11217148 0.032239862
0.46670306 -0.11087888 0.031879906
0.46522552 -0.10931113 0.031143634
0.46554062 -0.10828748 0.031160098
0.44367081 -0.18979754 0.029955447
0.44398493 -0.18877697 0.02997186
0.44429907 -0.18775642 0.029988274
0.44553274 -0.18693134 0.030383324
0.44676581 -0.18610832 0.030778341
0.44891721 -0.1854849 0.031551961
0.44923007 -0.18446848 0.031568307
0.45046121 -0.18365167 0.031963225
0.45260975 -0.18303758 0.032736693
0.45475698 -0.18242759 0.033510081
0.45598558 -0.18161905 0.033904865
0.45721352 -0.18081257 0.034299616
0.4584409 -0.18000817 0.034694362
0.45966759 -0.17920583 0.035089049
0.4599776 -0.17819871 0.035105247
0.46120334 -0.17739949 0.035499882
0.46151301 -0.1763934 0.035516061
0.46182269 -0.17538734 0.03553224
0.46213233 -0.17438126 0.035548422
0.46244201 -0.17337517 0.035564601
0.46275169 -0.17236909 0.03558078
0.46306136 -0.17136303 0.035596963
0.46428457 -0.17057206 0.035991464
0.46459392 -0.16956702 0.036007628
0.46307752 -0.16812761 0.035267211
0.46338749 -0.1671205 0.035283409
0.46460974 -0.16633265 0.035677861
0.46491939 -0.16532657 0.035694044
0.46522906 -0.16432048 0.035710223
0.46645004 -0.16353676 0.036104608
0.46858138 -0.1629785 0.036877178
0.4688901 -0.16197552 0.036893308
0.47010916 -0.16119799 0.037287597
0.47041756 -0.16019605 0.037303708
0.47072595 -0.15919411 0.03731982
0.47012499 -0.15796362 0.03695783
0.46952459 -0.15673104 0.036595855
0.46983361 -0.15572703 0.036612004
0.47014266 -0.15472303 0.036628149
0.47045168 -0.15371902 0.036644299
0.47166857 -0.15294875 0.037038483
0.47197729 -0.15194577 0.037054613
0.47228602 -0.1509428 0.03707074
0.47168782 -0.14970298 0.036708884
0.47199687 -0.14869899 0.036725033
0.47230589 -0.14769498 0.036741178
0.47261494 -0.14669096 0.036757324
0.47292396 -0.14568695 0.036773473
0.47323301 -0.14468294 0.036789618
0.47354206 -0.14367893 0.036805768
0.47475573 -0.142919 0.037199784
0.47506446 -0.14191604 0.037215915
0.47537318 -0.14091305 0.037232045
0.4756819 -0.13991009 0.037248176
0.47599062 -0.1389071 0.037264306
0.47629935 -0.13790414 0.037280437
0.47660807 -0.13690116 0.037296567
0.47601435 -0.13564686 0.036934942
0.47632337 -0.13464287 0.036951087
0.47663242 -0.13363886 0.036967237
0.47604004 -0.13238044 0.036605678
0.47634938 -0.1313754 0.036621843
0.47665873 -0.13037036 0.036638003
0.47696808 -0.12936532 0.036654167
0.47637728 -0.12810174 0.036292709
0.47578713 -0.12683609 0.035931282
0.47609714 -0.12582898 0.035947479
0.47550792 -0.12456024 0.0355861
0.47491929 -0.1232894 0.035224728
0.47433135 -0.12201652 0.034863416
0.47374406 -0.12074157 0.034502141
0.47315741 -0.11946455 0.034140881
0.47167373 -0.11791863 0.033402167
0.47019136 -0.1163686 0.032663517
0.46871024 -0.11481442 0.031924922
0.46812707 -0.11352602 0.031563859
0.46754456 -0.11223555 0.031202832
0.46606666 -0.11067105 0.030464416
0.46548566 -0.1093754 0.030103456
0.46580076 -0.10835174 0.03011992
0.44300991 -0.18966931 0.028538661
0.44332436 -0.18864773 0.028555091
0.44455841 -0.18782049 0.028951244
0.44579184 -0.18699536 0.029347334
0.44702464 -0.18617226 0.02974342
0.44917554 -0.18554872 0.030519133
0.44948837 -0.1845323 0.03053548
0.45071927 -0.18371543 0.03093145
0.45286727 -0.18310119 0.031707015
0.45501396 -0.18249108 0.032482494
0.45624229 -0.18168247 0.032878332
0.45747 -0.18087593 0.03327414
0.45869711 -0.18007147 0.033669941
0.45992354 -0.17926906 0.034065679
0.46114933 -0.17846873 0.034461387
0.46237451 -0.17767045 0.034857057
0.46359903 -0.17687425 0.035252698
0.46390805 -0.17587024 0.035268843
0.4642171 -0.17486623 0.035284992
0.46544039 -0.17407419 0.035680581
0.46574911 -0.17307121 0.035696708
0.46605784 -0.17206824 0.035712838
0.46727979 -0.17128031 0.036108345
0.46758819 -0.17027837 0.03612446
0.46698397 -0.16905932 0.03576123
0.4672927 -0.16805634 0.03577736
0.4685134 -0.16727254 0.0361728
0.46882179 -0.1662706 0.036188915
0.46913019 -0.16526866 0.036205027
0.47034961 -0.164489 0.0366004
0.47156841 -0.16371141 0.036995742
0.47278664 -0.16293591 0.037391063
0.47309408 -0.16193707 0.037407126
0.47340152 -0.16093823 0.03742319
0.47370896 -0.15993939 0.037439253
0.47310722 -0.15871204 0.037076142
0.47341499 -0.15771218 0.037092224
0.47372276 -0.15671231 0.037108302
0.47403052 -0.15571244 0.037124384
0.47343042 -0.15447994 0.03676137
0.47464603 -0.15371269 0.037156545
0.4749538 -0.15271282 0.037172627
0.47526157 -0.15171294 0.037188705
0.47466275 -0.15047631 0.036825757
0.47497085 -0.14947541 0.036841854
0.47527891 -0.1484745 0.036857955
0.47649261 -0.14771345 0.037253026
0.47680038 -0.14671358 0.037269108
0.47710815 -0.1457137 0.037285186
0.47741592 -0.14471383 0.037301268
0.47772369 -0.14371397 0.037317351
0.4771274 -0.14246906 0.036954537
0.4774355 -0.14146815 0.036970634
0.47774357 -0.14046724 0.036986731
0.47805166 -0.13946635 0.037002828
0.47835973 -0.13846543 0.037018925
0.47866783 -0.13746452 0.037035022
0.47807378 -0.13621239 0.036672324
0.47838217 -0.13521045 0.036688436
0.47869059 -0.13420852 0.036704551
0.47809783 -0.13295223 0.03634192
0.47840655 -0.13194926 0.036358051
0.47871527 -0.13094628 0.036374182
0.47812372 -0.12968586 0.036011603
0.47753286 -0.12842338 0.035649072
0.47694266 -0.12715884 0.035286572
0.47635308 -0.12589221 0.034924109
0.47576413 -0.12462353 0.034561679
0.47517577 -0.12335276 0.034199253
0.4745881 -0.12207995 0.033836886
0.47400108 -0.12080505 0.033474557
0.47341466 -0.1195281 0.033112258
0.47193152 -0.11798232 0.032371432
0.47044969 -0.11643241 0.031630691
0.46896908 -0.11487836 0.030889999
0.46838617 -0.11359003 0.030527869
0.46690786 -0.11202876 0.029787309
0.46632656 -0.11073525 0.029425278
0.46574584 -0.10943967 0.029063279
0.46606091 -0.10841601 0.029079743
0.40917161 -0.18598944 0.013740802
0.41225946 -0.18550114 0.014900333
0.41258439 -0.18444543 0.014917312
0.44234955 -0.18954122 0.027119797
0.44358397 -0.18871187 0.027517023
0.44481778 -0.18788457 0.027914215
0.44605094 -0.18705936 0.028311359
0.44728348 -0.1862362 0.028708484
0.44943383 -0.18561253 0.029486306
0.45066476 -0.18479456 0.029883347
0.4509773 -0.18377918 0.029899677
0.45312479 -0.18316482 0.030677333
0.45527095 -0.18255457 0.031454924
0.45649904 -0.1817459 0.031851817
0.45772648 -0.18093929 0.032248676
0.45895332 -0.18013477 0.032645516
0.46017951 -0.17933229 0.033042312
0.46140504 -0.1785319 0.033439055
0.46262991 -0.17773356 0.033835784
0.46385416 -0.17693728 0.034232479
0.46507785 -0.17614309 0.034629151
0.46538657 -0.17514013 0.034645282
0.46660924 -0.17434904 0.035041891
0.46783125 -0.17355999 0.035438471
0.46813935 -0.1725591 0.035454568
0.46936041 -0.17177317 0.03585108
0.46966818 -0.1707733 0.035867158
0.46997595 -0.16977341 0.03588324
0.47028372 -0.16877355 0.035899322
0.47150326 -0.1679928 0.036295779
0.4718107 -0.16699398 0.036311843
0.47211814 -0.16599514 0.036327906
0.47333634 -0.1652185 0.036724284
0.47364348 -0.16422071 0.036740333
0.47486073 -0.16344719 0.037136659
0.47516754 -0.16245042 0.037152689
0.47547433 -0.16145365 0.037168719
0.47578114 -0.16045688 0.037184753
0.47517911 -0.15923168 0.036820568
0.47548622 -0.15823388 0.036836613
0.47579336 -0.15723607 0.036852662
0.47610047 -0.15623827 0.03686871
0.47550002 -0.15500791 0.036504608
0.47671473 -0.15424266 0.036900803
0.47702187 -0.15324485 0.036916852
0.47732899 -0.15224706 0.036932897
0.4776361 -0.15124924 0.036948945
0.47703725 -0.15001372 0.036584929
0.47734469 -0.14901488 0.036600992
0.4785575 -0.14825584 0.036997087
0.47886461 -0.14725803 0.037013132
0.47917175 -0.14626023 0.037029181
0.47947887 -0.14526242 0.037045226
0.47978601 -0.14426461 0.037061274
0.47918937 -0.14302185 0.036697373
0.47949681 -0.14202301 0.036713436
0.47980425 -0.14102417 0.0367295
0.48011169 -0.14002533 0.036745563
0.48041913 -0.13902649 0.03676163
0.47982436 -0.13777751 0.036397811
0.48013213 -0.13677764 0.036413893
0.47953835 -0.13552555 0.036050156
0.47984642 -0.13452466 0.036066253
0.47925362 -0.13326947 0.035702553
0.47956201 -0.13226753 0.035718665
0.47897014 -0.13100925 0.035355013
0.47837886 -0.1297489 0.03499138
0.4777883 -0.12848647 0.034627795
0.47719833 -0.127222 0.034264244
0.47660902 -0.12595545 0.033900741
0.47602034 -0.12468683 0.033537254
0.47543225 -0.12341612 0.033173788
0.47484484 -0.12214337 0.032810371
0.47425807 -0.12086855 0.032446984
0.47367194 -0.11959165 0.032083634
0.47218931 -0.118046 0.031340715
0.47070798 -0.11649623 0.030597864
0.46922791 -0.1149423 0.029855063
0.46864527 -0.11365404 0.029491894
0.46716747 -0.11209289 0.028749241
0.46569091 -0.11052759 0.028006624
0.46511081 -0.10923105 0.027643587
0.46542621 -0.10820637 0.027660068
0.4094407 -0.18605591 0.012664899
0.41252774 -0.18556742 0.013827578
0.4128527 -0.18451172 0.013844557
0.44260943 -0.18960543 0.026080659
0.4438436 -0.188776 0.026478939
0.44507715 -0.18794864 0.026877185
0.44631004 -0.18712337 0.027275383
0.44754231 -0.18630014 0.027673563
0.44969216 -0.18567635 0.028453479
0.45092282 -0.18485831 0.028851574
0.45123535 -0.18384293 0.028867904
0.45338231 -0.18322843 0.029647669
0.45552796 -0.18261807 0.030427353
0.45675579 -0.18180932 0.030825285
0.45798296 -0.18100265 0.031223198
0.45920953 -0.18019806 0.031621095
0.46043545 -0.17939553 0.032018941
0.46166071 -0.17859507 0.032416742
0.46288535 -0.17779666 0.032814521
0.46410933 -0.17700031 0.033212256
0.46533275 -0.17620607 0.033609986
0.46655548 -0.17541388 0.034007654
0.46777755 -0.17462374 0.034405299
0.468999 -0.17383569 0.034802899
0.46930677 -0.17283581 0.034818981
0.47052732 -0.17205086 0.035216559
0.47083476 -0.17105204 0.035232626
0.4711422 -0.1700532 0.035248689
0.47236142 -0.16927236 0.035646185
0.47358 -0.16849363 0.036043637
0.47388682 -0.16749685 0.036059666
0.4741936 -0.16650008 0.036075696
0.47450042 -0.16550331 0.03609173
0.47480723 -0.16450654 0.03610776
0.47602391 -0.16373399 0.036505125
0.4763304 -0.16273825 0.036521137
0.47663689 -0.16174251 0.036537152
0.47694337 -0.16074678 0.036553167
0.47634128 -0.15952268 0.03618791
0.47664809 -0.15852591 0.036203943
0.47695488 -0.15752915 0.036219973
0.47726169 -0.15653238 0.036236003
0.47756851 -0.15553561 0.036252033
0.47787532 -0.15453884 0.036268063
0.47818214 -0.15354207 0.036284093
0.47848892 -0.1525453 0.036300123
0.47879574 -0.15154852 0.036316156
0.47910255 -0.15055175 0.036332186
0.47850394 -0.14931628 0.03596713
0.47971615 -0.14855821 0.036364246
0.48002297 -0.14756145 0.036380276
0.48032978 -0.14656468 0.036396306
0.4806366 -0.14556791 0.03641234
0.48094341 -0.14457113 0.03642837
0.48034671 -0.14332946 0.03606341
0.48065382 -0.14233166 0.036079459
0.48096097 -0.14133385 0.036095504
0.48126808 -0.14033605 0.036111552
0.48157522 -0.13933824 0.036127601
0.48098043 -0.13809037 0.035762727
0.48128787 -0.13709153 0.035778791
0.480694 -0.13584054 0.035413954
0.48010081 -0.1345875 0.035049181
0.47950825 -0.13333239 0.034684423
0.47981665 -0.13233045 0.034700539
0.47922504 -0.13107222 0.034335848
0.47863403 -0.12981193 0.033971161
0.47804371 -0.12854958 0.033606537
0.47745401 -0.12728517 0.033241931
0.47686496 -0.12601867 0.032877371
0.47627655 -0.12475012 0.032512832
0.47568873 -0.12347949 0.032148313
0.47510156 -0.12220679 0.031783838
0.47451505 -0.12093204 0.031419415
0.4739292 -0.11965521 0.031055007
0.4724471 -0.11810969 0.030309981
0.47096631 -0.11656004 0.029565036
0.46948674 -0.11500625 0.028820142
0.46800852 -0.11344834 0.028075332
0.4674271 -0.11215703 0.027711157
0.46595106 -0.11059187 0.026966447
0.46537122 -0.10929539 0.026602358
0.46479204 -0.10799685 0.0262383
0.40970978 -0.1861224 0.011588996
0.41095585 -0.18525364 0.011988962
0.41128141 -0.18419586 0.012005974
0.44194978 -0.1894775 0.02465863
0.44318408 -0.188647 0.025057981
0.44441769 -0.18781856 0.025457283
0.44656914 -0.18718739 0.026239408
0.44780114 -0.1863641 0.026638629
0.44995046 -0.18574016 0.027420651
0.45118088 -0.18492205 0.027819788
0.45149341 -0.18390667 0.027836118
0.45363984 -0.18329205 0.028617989
0.45578495 -0.18268155 0.029399782
0.4570125 -0.18187274 0.029798768
0.45823941 -0.18106602 0.030197723
0.45946574 -0.18026136 0.030596672
0.46069139 -0.17945875 0.030995574
0.46191639 -0.17865823 0.031394426
0.46314076 -0.17785975 0.031793248
0.4643645 -0.17706336 0.032192051
0.46558765 -0.17626904 0.032590818
0.46681011 -0.17547679 0.032989539
0.46803191 -0.1746866 0.033388242
0.46925309 -0.17389846 0.033786897
0.47047371 -0.17311242 0.034185532
0.47078115 -0.17211358 0.034201596
0.47200075 -0.17133063 0.034600183
0.47230786 -0.17033282 0.034616228
0.47352651 -0.16955297 0.035014749
0.4747445 -0.16877519 0.035413239
0.47505102 -0.16777945 0.03542925
0.4753575 -0.16678371 0.035445265
0.47566399 -0.16578798 0.03546128
0.47597048 -0.16479224 0.035477296
0.47627696 -0.1637965 0.035493307
0.47658345 -0.16280077 0.035509322
0.47688994 -0.16180503 0.035525337
0.47719643 -0.16080929 0.035541348
0.47750291 -0.15981355 0.035557363
0.4778094 -0.15881781 0.035573378
0.47811592 -0.15782209 0.03558939
0.4784224 -0.15682635 0.035605405
0.47872889 -0.15583061 0.03562142
0.47903538 -0.15483488 0.035637431
0.47843543 -0.15360464 0.035271239
0.47874224 -0.15260787 0.035287268
0.47904906 -0.1516111 0.035303298
0.47935587 -0.15061434 0.035319328
0.47966269 -0.14961757 0.035335358
0.47996947 -0.1486208 0.035351392
0.48027629 -0.14762403 0.035367422
0.4805831 -0.14662725 0.035383452
0.48088992 -0.14563048 0.035399482
0.4811967 -0.14463371 0.035415512
0.48150352 -0.14363694 0.035431542
0.48090741 -0.1423943 0.035065547
0.48121455 -0.14139649 0.035081595
0.48152167 -0.1403987 0.035097644
0.48182878 -0.13940088 0.035113689
0.48123428 -0.13815308 0.034747764
0.48154172 -0.13715424 0.034763828
0.48094809 -0.13590331 0.034397952
0.48035517 -0.13465033 0.034032121
0.47976288 -0.13339528 0.033666313
0.48007128 -0.13239335 0.033682425
0.47947994 -0.1311352 0.033316679
0.4788892 -0.12987496 0.032950953
0.47829914 -0.12861268 0.03258526
0.47770971 -0.12734833 0.032219615
0.47712091 -0.1260819 0.031854004
0.47653276 -0.12481342 0.031488411
0.47594517 -0.12354285 0.031122835
0.47535831 -0.12227022 0.030757323
0.47477207 -0.12099553 0.030391842
0.47418645 -0.11971877 0.030026382
0.47270486 -0.11817338 0.029279262
0.47122464 -0.11662386 0.028532209
0.46974558 -0.11507019 0.027785208
0.46826789 -0.11351241 0.027038302
0.46679145 -0.11195049 0.026291449
0.46531624 -0.11038441 0.025544645
0.464737 -0.10908698 0.025179531
0.46505272 -0.10806125 0.025196029
0.44129074 -0.18934974 0.023234494
0.44252503 -0.18851812 0.023634901
0.44467729 -0.18788269 0.024419202
0.44591001 -0.18705624 0.02481954
0.44806001 -0.18642804 0.025603708
0.45020878 -0.18580398 0.026387824
0.45143893 -0.18498582 0.026788015
0.45175147 -0.18397042 0.026804345
0.45389739 -0.18335567 0.027588312
0.45604196 -0.18274504 0.028372211
0.45726925 -0.18193617 0.028772237
0.45849589 -0.18112938 0.02917226
0.45972195 -0.18032466 0.029572248
0.46094733 -0.17952198 0.02997219
0.46217209 -0.1787214 0.030372098
0.46339619 -0.17792286 0.030771973
0.46461964 -0.17712639 0.031171829
0.46584255 -0.17633201 0.031571638
0.46706474 -0.17553969 0.031971429
0.46828628 -0.17474943 0.032371171
0.46950722 -0.17396124 0.03277088
0.47072756 -0.17317514 0.03317057
0.471035 -0.17217629 0.033186633
0.47225434 -0.17139328 0.033586256
0.47256145 -0.17039548 0.033602305
0.47377983 -0.16961555 0.034001879
0.47499758 -0.1688377 0.034401421
0.47530407 -0.16784197 0.034417436
0.47561055 -0.16684623 0.034433451
0.47591704 -0.16585049 0.034449462
0.47622353 -0.16485475 0.034465477
0.47653002 -0.16385902 0.034481492
0.4768365 -0.16286328 0.034497507
0.47714299 -0.16186754 0.034513518
0.47744948 -0.16087182 0.034529533
0.47775599 -0.15987608 0.034545548
0.47806248 -0.15888034 0.03456156
0.47836897 -0.1578846 0.034577575
0.47867545 -0.15688886 0.03459359
0.47898194 -0.15589313 0.034609601
0.47928843 -0.15489739 0.034625616
0.47868878 -0.15366723 0.034258366
0.47899556 -0.15267046 0.034274399
0.47930238 -0.15167369 0.034290429
0.47960919 -0.15067692 0.034306459
0.47991601 -0.14968014 0.034322489
0.48022279 -0.14868337 0.034338519
0.48052961 -0.1476866 0.034354549
0.48083642 -0.14668983 0.034370583
0.48114324 -0.14569306 0.034386612
0.48145005 -0.1446963 0.034402642
0.48175684 -0.14369953 0.034418672
0.481161 -0.14245695 0.034051623
0.48146811 -0.14145914 0.034067672
0.48177525 -0.14046134 0.034083717
0.48208237 -0.13946353 0.034099765
0.48148811 -0.1382158 0.033732798
0.48179558 -0.13721696 0.033748861
0.48120221 -0.13596609 0.033381931
0.48060954 -0.13471317 0.03301505
0.48001751 -0.1334582 0.032648202
0.48032591 -0.13245626 0.032664314
0.47973484 -0.13119817 0.032297499
0.47914433 -0.12993801 0.031930733
0.47855455 -0.12867577 0.031563986
0.47796538 -0.1274115 0.031197287
0.47737685 -0.12614514 0.03083062
0.47678897 -0.12487672 0.030463986
0.47620165 -0.1236062 0.030097373
0.47561505 -0.12233365 0.029730791
0.47502905 -0.12105902 0.029364271
0.4744437 -0.11978232 0.028997757
0.47296265 -0.11823706 0.028248528
0.47148293 -0.11668768 0.027499381
0.47000444 -0.11513413 0.026750287
0.46852726 -0.11357648 0.026001273
0.46705133 -0.1120147 0.025252311
0.46557665 -0.11044875 0.024503414
0.46410328 -0.10887869 0.023754586
0.46352527 -0.10757821 0.023388483
0.42752695 -0.094215095 0.0077348226
0.42785636 -0.093144909 0.0077520339
0.42640018 -0.091519013 0.0070041171
0.42405277 -0.08961007 0.0058736908
0.42259946 -0.087974861 0.005125938
0.44063222 -0.18922211 0.021808265
0.44186655 -0.18838939 0.022209743
0.44401863 -0.1877528 0.022996167
0.44616938 -0.18712032 0.02378251
0.44740117 -0.18629588 0.02418384
0.44954973 -0.18567066 0.024970081
0.45169696 -0.18504956 0.025756242
0.4520095 -0.18403418 0.025772572
0.45415491 -0.18341929 0.026558632
0.45629895 -0.18280853 0.02734464
0.45752597 -0.18199959 0.02774572
0.45875236 -0.18119274 0.028146783
0.45997816 -0.18038794 0.028547827
0.46120328 -0.17958522 0.028948821
0.46242777 -0.17878456 0.029349783
0.4636516 -0.17798597 0.029750712
0.4648748 -0.17718942 0.030151609
0.46609744 -0.17639498 0.030552471
0.46731937 -0.1756026 0.030953301
0.46854067 -0.17481227 0.031354111
0.46976131 -0.17402402 0.031754859
0.47098139 -0.17323785 0.032155603
0.47128883 -0.17223901 0.032171667
0.47250789 -0.17145592 0.032572348
0.47281504 -0.17045812 0.032588392
0.47403315 -0.16967814 0.032989025
0.47525063 -0.16890022 0.03338962
0.47555712 -0.16790448 0.033405636
0.47586361 -0.16690874 0.033421647
0.47617009 -0.165913 0.033437662
0.47647658 -0.16491728 0.033453677
0.47678307 -0.16392154 0.033469688
0.47708955 -0.16292579 0.033485703
0.47739604 -0.16193007 0.033501718
0.47770253 -0.16093433 0.033517729
0.47800905 -0.15993859 0.033533745
0.47831553 -0.15894285 0.03354976
0.47862202 -0.15794711 0.033565771
0.47892851 -0.15695138 0.033581786
0.47923499 -0.15595564 0.033597801
0.47954148 -0.1549599 0.033613816
0.47894207 -0.15372981 0.033245511
0.47924888 -0.15273304 0.033261541
0.4795557 -0.15173627 0.033277571
0.47986251 -0.15073951 0.033293601
0.48016933 -0.14974272 0.033309635
0.48047611 -0.14874595 0.033325665
0.48078293 -0.14774919 0.033341695
0.48108974 -0.14675242 0.033357725
0.48139656 -0.14575565 0.033373754
0.48170334 -0.14475888 0.033389784
0.48201016 -0.14376211 0.033405818
0.48141459 -0.14251959 0.033037715
0.4817217 -0.14152178 0.033053759
0.48202884 -0.14052399 0.033069808
0.48233595 -0.13952619 0.033085853
0.48174196 -0.1382785 0.032717835
0.48204941 -0.13727966 0.032733899
0.48145631 -0.13602887 0.032365914
0.4808639 -0.13477601 0.03199799
0.48027214 -0.13352109 0.031630073
0.48058054 -0.13251916 0.031646188
0.47998974 -0.13126114 0.031278335
0.4793995 -0.13000104 0.030910512
0.47880998 -0.12873888 0.030542726
0.47822106 -0.12747467 0.030174972
0.47763279 -0.12620836 0.029807251
0.47704518 -0.12494001 0.029439563
0.47645813 -0.12366956 0.029071895
0.47587177 -0.12239707 0.028704274
0.47528607 -0.12112251 0.0283367
0.47470096 -0.11984587 0.027969146
0.47322044 -0.11830074 0.027217809
0.47174126 -0.11675149 0.026466554
0.47026327 -0.11519808 0.025715351
0.4687866 -0.11364055 0.024964243
0.46731123 -0.1120789 0.024213187
0.46583706 -0.11051308 0.023462182
0.46436423 -0.10894315 0.02271126
0.46378648 -0.10764274 0.022344088
0.42779893 -0.094282284 0.006647367
0.42812833 -0.093212105 0.0066645783
0.4266727 -0.091586336 0.0059145535
0.43997422 -0.1890946 0.020379927
0.44212696 -0.18845372 0.021168511
0.44427851 -0.18781701 0.021957029
0.44551101 -0.1869894 0.022359477
0.44766027 -0.1863599 0.023147864
0.4498083 -0.18573453 0.023936214
0.45195502 -0.18511331 0.024724469
0.45226756 -0.18409793 0.024740798
0.45441243 -0.18348292 0.025528967
0.45655596 -0.18287203 0.026317054
0.45778272 -0.18206303 0.026719203
0.45900884 -0.1812561 0.02712132
0.46023437 -0.18045124 0.027523404
0.46145922 -0.17964844 0.027925452
0.46268344 -0.17884773 0.028327456
0.46390703 -0.17804906 0.028729439
0.46512997 -0.17725246 0.029131388
0.46635234 -0.17645796 0.029533304
0.467574 -0.17566551 0.029935189
0.46879503 -0.17487511 0.030337038
0.47001544 -0.17408679 0.03073884
0.47123525 -0.17330056 0.031140639
0.47154269 -0.17230171 0.031156704
0.47276148 -0.17151856 0.031558435
0.47306862 -0.17052077 0.031574484
0.47428647 -0.16974072 0.031976152
0.47550368 -0.16896273 0.032377806
0.47581017 -0.16796699 0.032393817
0.47611666 -0.16697127 0.032409832
0.47642314 -0.16597553 0.032425847
0.47672963 -0.16497979 0.032441858
0.47703612 -0.16398405 0.032457873
0.47734261 -0.16298832 0.032473888
0.47764912 -0.16199258 0.0324899
0.47795561 -0.16099684 0.032505915
0.4782621 -0.1600011 0.03252193
0.47856858 -0.15900537 0.032537941
0.47887507 -0.15800963 0.032553956
0.47918156 -0.15701389 0.032569971
0.47948804 -0.15601815 0.032585982
0.47979453 -0.15502243 0.032601997
0.47919539 -0.1537924 0.032232642
0.4795022 -0.15279563 0.032248672
0.47980902 -0.15179884 0.032264702
0.48011583 -0.15080208 0.032280732
0.48042265 -0.14980531 0.032296762
0.48072943 -0.14880854 0.032312792
0.48103625 -0.14781177 0.032328825
0.48134306 -0.146815 0.032344855
0.48164988 -0.14581823 0.032360885
0.48195666 -0.14482145 0.032376915
0.48226348 -0.14382468 0.032392945
0.48166814 -0.14258224 0.032023802
0.48197529 -0.14158444 0.032039851
0.4822824 -0.14058663 0.032055896
0.48258954 -0.13958883 0.032071944
0.48199582 -0.13834122 0.031702869
0.48230326 -0.13734238 0.031718936
0.48171043 -0.13609163 0.031349894
0.48111829 -0.13483886 0.030980919
0.48052678 -0.13358401 0.03061196
0.48083517 -0.13258207 0.030628074
0.48024464 -0.13132411 0.030259168
0.47965467 -0.13006407 0.029890291
0.47906539 -0.12880199 0.02952145
0.47847676 -0.12753783 0.029152643
0.47788876 -0.12627161 0.028783882
0.47730139 -0.12500331 0.028415142
0.47671461 -0.12373292 0.028046433
0.47612852 -0.1224605 0.027677758
0.47554305 -0.121186 0.027309116
0.47495824 -0.11990944 0.026940521
0.47347823 -0.11836443 0.02618709
0.47199956 -0.11681531 0.025433727
0.47052211 -0.11526202 0.02468043
0.46904597 -0.11370463 0.023927214
0.46667656 -0.1118726 0.02278926
0.46520332 -0.1103059 0.022036178
0.46373132 -0.10873505 0.02128318
0.46315408 -0.10743365 0.020914955
0.44023514 -0.18915907 0.019336602
0.44146928 -0.18832518 0.019740188
0.44362056 -0.18768728 0.020530831
0.44485316 -0.18685858 0.020934353
0.44700223 -0.18622792 0.021724863
0.45006689 -0.18579841 0.022902332
0.45221308 -0.18517706 0.023692695
0.45252562 -0.18416168 0.023709025
0.45466995 -0.18354653 0.024499288
0.45681295 -0.18293551 0.025289483
0.45803946 -0.18212645 0.025692673
0.45926529 -0.18131946 0.026095843
0.46049058 -0.18051454 0.026498981
0.46171519 -0.17971167 0.026902085
0.46293914 -0.1789109 0.027305141
0.46416244 -0.17811216 0.027708178
0.46538514 -0.1773155 0.028111167
0.46660721 -0.17652093 0.028514139
0.46782863 -0.17572841 0.028917076
0.46904939 -0.17493795 0.029319966
0.47026953 -0.17414957 0.029722823
0.47148907 -0.17336327 0.030125676
0.47179654 -0.17236443 0.030141739
0.47301507 -0.17158121 0.030544527
0.47332218 -0.17058341 0.030560574
0.47453979 -0.16980329 0.030963298
0.47575673 -0.16902526 0.031365987
0.47606322 -0.16802952 0.031382002
0.47636971 -0.16703378 0.031398017
0.4766762 -0.16603804 0.031414028
0.47698268 -0.16504231 0.031430043
0.4772892 -0.16404657 0.031446058
0.47759569 -0.16305083 0.03146207
0.47790217 -0.16205509 0.031478085
0.47820866 -0.16105936 0.0314941
0.47851515 -0.16006362 0.031510111
0.47882164 -0.15906788 0.031526126
0.47912812 -0.15807214 0.031542141
0.47943461 -0.15707642 0.031558152
0.4797411 -0.15608068 0.031574167
0.48004758 -0.15508494 0.031590182
0.47944871 -0.15385497 0.031219784
0.47975552 -0.1528582 0.031235816
0.48006234 -0.15186143 0.031251848
0.48036915 -0.15086466 0.031267878
0.48067594 -0.14986789 0.031283908
0.48098275 -0.14887112 0.031299938
0.48128957 -0.14787436 0.031315967
0.48159638 -0.14687757 0.031331997
0.4819032 -0.1458808 0.031348027
0.48220998 -0.14488403 0.031364061
0.4825168 -0.14388727 0.031380091
0.48192173 -0.14264488 0.031009892
0.48222888 -0.14164709 0.031025941
0.48253599 -0.14064927 0.031041987
0.48284313 -0.13965148 0.031058034
0.48224965 -0.13840392 0.030687906
0.48255709 -0.13740508 0.030703969
0.48196453 -0.13615441 0.030333877
0.48137265 -0.1349017 0.029963845
0.48078141 -0.13364691 0.029593848
0.4810898 -0.13264497 0.029609961
0.48049954 -0.13138708 0.029240001
0.47990984 -0.1301271 0.02887007
0.47932082 -0.12886508 0.02850019
0.47873244 -0.127601 0.028130328
0.47814471 -0.12633483 0.027760513
0.4775576 -0.12506661 0.027390718
0.47697106 -0.12379628 0.027020955
0.47638524 -0.12252392 0.026651226
0.47580004 -0.12124949 0.026281545
0.47521549 -0.11997299 0.025911897
0.47373602 -0.11842811 0.025156358
0.47225788 -0.11687912 0.024400899
0.47078094 -0.11532597 0.023645494
0.46841079 -0.11349931 0.022504324
0.46693671 -0.11193687 0.021749083
0.465464 -0.11037029 0.020993894
0.46399251 -0.10879958 0.0202388
0.46252227 -0.10722473 0.019483741
0.43957794 -0.18903175 0.017905114
0.44172996 -0.18838958 0.018697917
0.44296318 -0.1875577 0.019102527
0.44511306 -0.18692279 0.019895215
0.44726157 -0.18629199 0.020687833
0.45032546 -0.18586229 0.021868452
0.45247111 -0.18524081 0.022660907
0.45278364 -0.18422543 0.022677237
0.45492747 -0.18361016 0.023469608
0.45706993 -0.182999 0.024261912
0.45829618 -0.18218987 0.024666157
0.45952177 -0.18138282 0.025070366
0.46074679 -0.18057783 0.025474573
0.46197113 -0.17977491 0.025878716
0.46319482 -0.17897405 0.026282826
0.46441787 -0.17817526 0.026686903
0.46564028 -0.17737854 0.027090946
0.46686211 -0.1765839 0.027494973
0.46808326 -0.17579132 0.027898949
0.46930376 -0.1750008 0.028302908
0.47052363 -0.17421235 0.028706819
0.47174293 -0.17342597 0.029110711
0.47205037 -0.17242713 0.029126775
0.47326866 -0.17164385 0.029530602
0.47357577 -0.17064606 0.029546648
0.47479311 -0.16986588 0.029950427
0.47600979 -0.16908777 0.03035417
0.47631627 -0.16809203 0.030370185
0.47662276 -0.1670963 0.030386198
0.47692928 -0.16610056 0.030402213
0.47723576 -0.16510482 0.030418226
0.47754225 -0.16410908 0.03043424
0.47784874 -0.16311336 0.030450255
0.47815523 -0.16211762 0.030466268
0.47846171 -0.16112188 0.030482281
0.4787682 -0.16012613 0.030498296
0.47907469 -0.15913041 0.030514309
0.47938117 -0.15813467 0.030530324
0.47968766 -0.15713893 0.030546337
0.47999418 -0.15614319 0.030562351
0.48030066 -0.15514746 0.030578366
0.47970203 -0.15391755 0.030206915
0.48000884 -0.15292078 0.030222945
0.48031566 -0.15192401 0.030238975
0.48062247 -0.15092725 0.030255007
0.48092929 -0.14993048 0.030271037
0.48123607 -0.14893371 0.030287066
0.48154289 -0.14793694 0.030303096
0.4818497 -0.14694016 0.030319128
0.48215652 -0.14594339 0.030335158
0.4824633 -0.14494662 0.030351188
0.48277012 -0.14394985 0.03036722
0.48217532 -0.14270753 0.029995969
0.48248246 -0.14170973 0.030012015
0.48278958 -0.14071193 0.030028062
0.48309669 -0.13971412 0.03004411
0.4825035 -0.13846664 0.029672941
0.48281094 -0.1374678 0.029689005
0.48221862 -0.13621719 0.029317873
0.48162702 -0.13496454 0.028946787
0.48103604 -0.13370982 0.028575722
0.48134446 -0.13270788 0.028591836
0.48075444 -0.13145006 0.028220834
0.48016497 -0.13019015 0.027849851
0.47957623 -0.12892818 0.027478915
0.47898811 -0.12766415 0.027108014
0.47840065 -0.12639806 0.026737144
0.47781381 -0.12512989 0.02636631
0.47722754 -0.12385964 0.025995478
0.47664198 -0.12258735 0.025624709
0.47605705 -0.12131298 0.025253974
0.47547275 -0.12003654 0.024883272
0.47399381 -0.1184918 0.024125639
0.47251618 -0.11694293 0.023368072
0.47014517 -0.11512163 0.022223642
0.46867043 -0.11356346 0.02146624
0.46719688 -0.11200114 0.020708891
0.46483102 -0.1101633 0.019564742
0.46336034 -0.10859167 0.018807542
0.46278399 -0.10728938 0.018437255
0.43983912 -0.18909629 0.016860735
0.44107306 -0.18826123 0.017266449
0.44322363 -0.18762204 0.018061295
0.44537294 -0.186987 0.018856091
0.44752094 -0.18635607 0.019650806
0.44966766 -0.18572928 0.020445438
0.45181319 -0.18510664 0.021240033
0.45212606 -0.18409023 0.02125638
0.45426959 -0.18347377 0.022050861
0.45641193 -0.18286148 0.022845291
0.45855293 -0.1822533 0.023639625
0.45977825 -0.18144618 0.024044903
0.46100301 -0.18064113 0.024450149
0.46222708 -0.17983814 0.024855347
0.46345049 -0.17903723 0.025260497
0.46467328 -0.17823836 0.025665628
0.46589544 -0.17744157 0.02607074
0.46711701 -0.17664687 0.026475806
0.46833789 -0.17585422 0.026880836
0.46955815 -0.17506364 0.027285835
0.47077775 -0.17427512 0.0276908
0.47199678 -0.17348869 0.028095746
0.47230422 -0.17248985 0.02811181
0.47352225 -0.17170651 0.028516691
0.47382936 -0.1707087 0.028532738
0.47504643 -0.16992846 0.028937571
0.47626284 -0.16915028 0.029342368
0.47656932 -0.16815455 0.029358383
0.47687584 -0.16715881 0.029374396
0.47718233 -0.16616307 0.029390411
0.47748882 -0.16516733 0.029406425
0.4777953 -0.16417161 0.029422438
0.47810179 -0.16317587 0.029438453
0.47840828 -0.16218013 0.029454466
0.47871476 -0.1611844 0.029470479
0.47902125 -0.16018866 0.029486494
0.47932774 -0.15919292 0.029502507
0.47963423 -0.15819718 0.029518522
0.47994074 -0.15720144 0.029534535
0.48024723 -0.15620571 0.029550549
0.48055372 -0.15520997 0.029566564
0.47995535 -0.15398014 0.029194059
0.48026216 -0.15298337 0.029210089
0.48056898 -0.1519866 0.029226119
0.48087579 -0.15098983 0.02924215
0.48118258 -0.14999305 0.02925818
0.48148939 -0.14899628 0.02927421
0.48179621 -0.14799951 0.029290242
0.48210302 -0.14700274 0.029306272
0.48240983 -0.14600597 0.029322302
0.48271662 -0.1450092 0.029338332
0.48302343 -0.14401244 0.029354364
0.48242891 -0.14277019 0.028982058
0.48273602 -0.14177237 0.028998105
0.48304316 -0.14077458 0.029014152
0.48335028 -0.13977677 0.0290302
0.48275733 -0.13852935 0.028657977
0.4830648 -0.13753051 0.028674042
0.48247275 -0.13627997 0.028301854
0.48188138 -0.13502738 0.027929716
0.48129067 -0.13377273 0.02755761
0.48159909 -0.13277079 0.027573723
0.48100933 -0.13151303 0.027201667
0.48042014 -0.13025318 0.026829645
0.47983167 -0.12899129 0.026457641
0.47924381 -0.12772733 0.026085684
0.47865659 -0.1264613 0.025713775
0.47807002 -0.12519319 0.025341887
0.47748402 -0.123923 0.024970016
0.47689873 -0.12265077 0.024598178
0.47631404 -0.12137647 0.024226403
0.47483471 -0.11983497 0.023466626
0.4742516 -0.11855549 0.023094906
0.47277451 -0.11700675 0.022335246
0.47040427 -0.11518563 0.021187667
0.46893004 -0.1136276 0.020428171
0.46745703 -0.1120654 0.019668713
0.46509194 -0.11022776 0.018521415
0.4636218 -0.10865626 0.017762108
0.46304572 -0.10735404 0.017390767
0.43918264 -0.18896915 0.0154261
0.44133401 -0.18832569 0.016223108
0.44256702 -0.18749265 0.016629843
0.4447161 -0.18685643 0.017426748
0.44778031 -0.18642014 0.018613776
0.44992653 -0.18579322 0.019410517
0.45207149 -0.18517046 0.020207206
0.45238435 -0.18415403 0.020223552
0.45452738 -0.18353745 0.021020142
0.45666918 -0.18292503 0.021816665
0.45880964 -0.18231672 0.022613108
0.46003473 -0.18150954 0.023019426
0.46125922 -0.18070443 0.023425726
0.46248302 -0.17990136 0.023831978
0.4637062 -0.17910038 0.024238182
0.46492872 -0.17830147 0.024644367
0.46615061 -0.17750461 0.025050519
0.46737191 -0.17670985 0.025456639
0.46859252 -0.17591713 0.025862724
0.46981251 -0.17512648 0.026268777
0.47103184 -0.17433789 0.026674781
0.47225061 -0.1735514 0.027080782
0.47255805 -0.17255256 0.027096845
0.4737758 -0.17176916 0.027502781
0.47408295 -0.17077135 0.027518829
0.47529975 -0.16999105 0.0279247
0.47651592 -0.1692128 0.028330553
0.47682241 -0.16821706 0.028346566
0.47712889 -0.16722132 0.02836258
0.47743538 -0.1662256 0.028378595
0.47774187 -0.16522986 0.028394608
0.47804835 -0.16423412 0.028410623
0.47835484 -0.16323838 0.028426636
0.47866133 -0.16224265 0.028442649
0.47896782 -0.16124691 0.028458664
0.4792743 -0.16025117 0.028474677
0.47958082 -0.15925543 0.028490691
0.47988731 -0.1582597 0.028506706
0.48019379 -0.15726396 0.028522719
0.48050028 -0.15626822 0.028538734
0.47990188 -0.15503949 0.028165158
0.48020867 -0.15404272 0.028181188
0.48051548 -0.15304595 0.028197218
0.48082229 -0.15204917 0.02821325
0.48112911 -0.1510524 0.028229279
0.48143589 -0.15005563 0.028245309
0.48174271 -0.14905886 0.028261341
0.48204952 -0.1480621 0.028277371
0.48235634 -0.14706533 0.028293401
0.48266315 -0.14606856 0.028309431
0.48296994 -0.14507177 0.028325463
0.48327675 -0.14407501 0.028341493
0.4826825 -0.14283283 0.027968148
0.48298961 -0.14183502 0.027984194
0.48329675 -0.14083722 0.028000241
0.48360386 -0.13983941 0.02801629
0.48301119 -0.13859206 0.027643014
0.48331863 -0.13759322 0.027659077
0.48272684 -0.13634275 0.027285835
0.48213577 -0.13509022 0.026912658
0.4815453 -0.13383563 0.026539497
0.48185372 -0.13283369 0.026555611
0.4812642 -0.131576 0.026182501
0.48067531 -0.13031621 0.025809424
0.48008707 -0.12905438 0.025436381
0.47949949 -0.12779048 0.025063369
0.47891253 -0.12652452 0.024690408
0.47832623 -0.12525649 0.024317464
0.4777405 -0.12398637 0.023944538
0.47715545 -0.1227142 0.023571661
0.47657105 -0.12143996 0.023198832
0.47509223 -0.11989859 0.022436947
0.47450939 -0.11861917 0.022064187
0.4730328 -0.11707056 0.021302419
0.47066337 -0.11524965 0.020151692
0.46918967 -0.11369173 0.019390088
0.46771717 -0.11212967 0.018628536
0.46535289 -0.11029223 0.017478077
0.46388325 -0.10872085 0.016716687
0.46241498 -0.10714537 0.015955351
0.43852675 -0.18884216 0.013989358
0.44067791 -0.18819755 0.014788491
0.4428277 -0.18755706 0.015587556
0.44497624 -0.1869207 0.016386556
0.44712359 -0.18628851 0.017185504
0.45018536 -0.18585716 0.018375581
0.45232981 -0.18523426 0.019174393
0.45355779 -0.18441668 0.019581918
0.45478517 -0.18360114 0.019989409
0.45692644 -0.1829886 0.02078804
0.45906639 -0.18238015 0.021586591
0.46029121 -0.1815729 0.02199395
0.46151543 -0.18076773 0.022401303
0.46273896 -0.1799646 0.02280861
0.46396187 -0.17916355 0.023215868
0.46518412 -0.17836456 0.023623092
0.46640575 -0.17756765 0.0240303
0.46762681 -0.17677282 0.024437472
0.46884716 -0.17598003 0.024844611
0.47006688 -0.17518932 0.025251703
0.47128597 -0.17440067 0.025658762
0.47159374 -0.1734008 0.025674842
0.47281191 -0.17261527 0.026081881
0.47402939 -0.1718318 0.026488857
0.47433653 -0.170834 0.026504904
0.47555307 -0.17005363 0.026911829
0.47676897 -0.16927531 0.027318737
0.47707546 -0.16827957 0.02733475
0.47738194 -0.16728385 0.027350765
0.47768843 -0.16628811 0.027366778
0.47799492 -0.16529237 0.027382791
0.47830141 -0.16429664 0.027398806
0.47860789 -0.1633009 0.027414819
0.47891438 -0.16230516 0.027430834
0.47922087 -0.16130942 0.027446847
0.47952738 -0.16031368 0.027462861
0.47983387 -0.15931796 0.027478876
0.48014036 -0.15832222 0.027494889
0.48044685 -0.15732647 0.027510902
0.47984838 -0.15609884 0.027136257
0.4801552 -0.15510207 0.027152287
0.48046198 -0.15410531 0.027168317
0.4807688 -0.15310854 0.027184349
0.48107561 -0.15211175 0.027200378
0.48138243 -0.15111499 0.027216408
0.48168921 -0.15011822 0.02723244
0.48199603 -0.14912145 0.02724847
0.48230284 -0.14812468 0.0272645
0.48260966 -0.14712791 0.02728053
0.48291647 -0.14613114 0.027296562
0.48322326 -0.14513436 0.027312592
0.48353007 -0.14413759 0.027328622
0.48293608 -0.14289548 0.026954222
0.4832432 -0.14189766 0.026970271
0.48355031 -0.14089987 0.026986318
0.48385745 -0.13990206 0.027002364
0.48326504 -0.13865477 0.026628049
0.48357248 -0.13765593 0.026644113
0.48298097 -0.13640553 0.026269818
0.48239014 -0.13515307 0.025895584
0.48179993 -0.13389854 0.025521385
0.48210835 -0.1328966 0.025537498
0.4815191 -0.13163897 0.025163334
0.48093045 -0.13037926 0.024789203
0.48034251 -0.12911749 0.024415106
0.47975516 -0.12785365 0.024041055
0.47916847 -0.12658775 0.023667039
0.47858244 -0.12531978 0.023293041
0.47799698 -0.12404973 0.022919061
0.47741219 -0.12277763 0.022545144
0.47682804 -0.12150345 0.022171261
0.47534978 -0.11996222 0.021407269
0.47387272 -0.11841682 0.020643355
0.47239697 -0.11686732 0.019879511
0.47092247 -0.11531366 0.019115716
0.46855578 -0.11348674 0.017961957
0.46708414 -0.11192378 0.017198313
0.46472096 -0.11008549 0.016044723
0.46325219 -0.10851322 0.015281242
0.46178472 -0.10693683 0.014517829
0.43878847 -0.18890682 0.01294287
0.44002226 -0.18806952 0.013351765
0.44308838 -0.18762146 0.014545271
0.44523641 -0.18698497 0.015346379
0.4473832 -0.18635264 0.01614742
0.44952866 -0.18572442 0.016948394
0.45167294 -0.18510036 0.017749304
0.45381585 -0.18448043 0.018550145
0.45412838 -0.18346505 0.018566474
0.45626947 -0.18285131 0.019367218
0.45840919 -0.18224172 0.020167878
0.45963407 -0.18143336 0.020576321
0.46085829 -0.18062708 0.020984717
0.46208194 -0.17982288 0.021393094
0.46330491 -0.17902072 0.021801423
0.46452722 -0.17822064 0.022209719
0.46574891 -0.17742263 0.022617996
0.46696997 -0.17662667 0.023026224
0.46819043 -0.17583281 0.023434436
0.46941018 -0.17504101 0.023842599
0.47062933 -0.17425126 0.024250742
0.47184783 -0.17346358 0.024658825
0.47306576 -0.17267798 0.025066918
0.4733732 -0.17167915 0.025082981
0.47459009 -0.17089665 0.025490994
0.47580639 -0.1701162 0.025898974
0.47702202 -0.16933784 0.02630692
0.47732851 -0.1683421 0.026322935
0.477635 -0.16734636 0.026338948
0.47794148 -0.16635062 0.026354961
0.47824797 -0.16535489 0.026370976
0.47855446 -0.16435915 0.026386989
0.47886094 -0.16336341 0.026403002
0.47916746 -0.16236769 0.026419017
0.47947395 -0.16137195 0.026435031
0.47978044 -0.16037621 0.026451046
0.48008692 -0.15938047 0.026467059
0.48039341 -0.15838473 0.026483072
0.4806999 -0.157389 0.026499087
0.4801017 -0.15616143 0.026123401
0.47950414 -0.15493177 0.025747748
0.47981125 -0.15393397 0.025763795
0.48011839 -0.15293616 0.025779841
0.48042551 -0.15193836 0.025795888
0.48073265 -0.15094055 0.025811937
0.48103976 -0.14994276 0.025827983
0.48134691 -0.14894494 0.02584403
0.48165402 -0.14794715 0.025860077
0.48196113 -0.14694934 0.025876125
0.48226827 -0.14595154 0.025892172
0.48257539 -0.14495373 0.025908219
0.48288253 -0.14395593 0.025924265
0.48318964 -0.14295812 0.025940312
0.48349679 -0.14196031 0.025956361
0.4838039 -0.14096251 0.025972407
0.48411104 -0.1399647 0.025988454
0.48351887 -0.13871749 0.025613084
0.48292729 -0.13746817 0.025237719
0.48323506 -0.13646829 0.025253799
0.4826445 -0.13521591 0.024878526
0.48205459 -0.13396144 0.024503257
0.48236299 -0.1329595 0.024519371
0.481774 -0.13170193 0.024144167
0.48118562 -0.13044229 0.023768982
0.48059791 -0.12918058 0.023393845
0.48001087 -0.12791681 0.023018727
0.47942442 -0.12665099 0.022643656
0.47883865 -0.12538308 0.022268618
0.47825342 -0.12411309 0.021893598
0.47766891 -0.12284105 0.021518627
0.47708505 -0.12156694 0.021143675
0.47560731 -0.12002584 0.020377604
0.47413075 -0.11848057 0.019611582
0.47265556 -0.1169312 0.018845629
0.47028801 -0.11510964 0.01768861
0.46881568 -0.11355095 0.016922833
0.46734455 -0.11198811 0.016157081
0.46498218 -0.11015002 0.015000342
0.46262163 -0.10830571 0.013843703
0.46204698 -0.10700162 0.013469233
0.43813336 -0.18878002 0.011502979
0.44028372 -0.1881341 0.012306331
0.44334906 -0.18768586 0.013502999
0.44549656 -0.18704924 0.014306201
0.44764283 -0.18641677 0.015109337
0.44978777 -0.18578844 0.015912404
0.45193151 -0.18516424 0.016715437
0.45407391 -0.18454418 0.017518371
0.45438644 -0.1835288 0.017534701
0.45652699 -0.18291494 0.018337538
0.45866621 -0.18230522 0.019140307
0.45989081 -0.18149678 0.019549791
0.46111476 -0.18069044 0.019959254
0.46233815 -0.17988618 0.020368671
0.46356085 -0.17908394 0.020778054
0.46478289 -0.17828381 0.021187404
0.46600431 -0.17748573 0.02159672
0.4672251 -0.17668971 0.022006005
0.4684453 -0.17589578 0.022415269
0.46966481 -0.1751039 0.022824487
0.4708837 -0.1743141 0.023233671
0.47119179 -0.17331319 0.023249768
0.4724097 -0.17252648 0.023658901
0.47362703 -0.17174186 0.024068017
0.47484368 -0.17095929 0.024477083
0.47605971 -0.17017879 0.024886103
0.47636652 -0.16918202 0.024902133
0.47667331 -0.16818525 0.024918163
0.47698012 -0.16718848 0.024934195
0.47728693 -0.16619171 0.024950225
0.47759375 -0.16519493 0.024966255
0.47790056 -0.16419816 0.024982287
0.47820735 -0.16320139 0.024998317
0.47851416 -0.16220462 0.025014346
0.47882098 -0.16120785 0.025030378
0.47912779 -0.16021109 0.025046408
0.47943458 -0.15921432 0.025062438
0.47974139 -0.15821753 0.025078468
0.48004821 -0.15722077 0.0250945
0.48035502 -0.156224 0.02511053
0.47975773 -0.15499441 0.024733838
0.48006484 -0.15399662 0.024749884
0.48037195 -0.15299881 0.024765931
0.48067909 -0.15200101 0.02478198
0.48098621 -0.1510032 0.024798026
0.48129335 -0.1500054 0.024814073
0.48160046 -0.14900759 0.02483012
0.48190761 -0.14800979 0.024846166
0.48221472 -0.14701198 0.024862215
0.48252186 -0.14601418 0.024878262
0.48282897 -0.14501637 0.024894308
0.48313612 -0.14401858 0.024910355
0.48344323 -0.14302076 0.024926404
0.48375034 -0.14202297 0.02494245
0.48405749 -0.14102516 0.024958497
0.4843646 -0.14002736 0.024974544
0.48377272 -0.13878019 0.02459812
0.48318142 -0.13753095 0.024221715
0.48348919 -0.13653107 0.024237795
0.48289886 -0.13527875 0.023861453
0.48230922 -0.13402435 0.023485145
0.48261762 -0.13302241 0.023501258
0.4820289 -0.1317649 0.023125
0.48144078 -0.13050532 0.022748761
0.48085335 -0.12924369 0.02237257
0.48026654 -0.12797998 0.021996412
0.47968039 -0.12671421 0.021620287
0.47909486 -0.12544638 0.021244194
0.4785099 -0.12417645 0.020868136
0.47792566 -0.12290447 0.020492097
0.47644746 -0.1213666 0.019723866
0.47586483 -0.12008946 0.019347925
0.47438881 -0.11854433 0.018579809
0.47202048 -0.11672813 0.017419545
0.47054738 -0.1151737 0.01665158
0.46907556 -0.11361516 0.015883697
0.46671233 -0.11178241 0.014723712
0.464351 -0.10994346 0.013563826
0.46199161 -0.10809833 0.012404055
0.46052584 -0.10652013 0.011636473
0.43656215 -0.18846196 0.009666523
0.43962893 -0.18800628 0.010866457
0.4426938 -0.1875568 0.01206629
0.44484109 -0.18691902 0.012871617
0.44790247 -0.18648092 0.014071253
0.45004687 -0.18585245 0.01487643
0.45219007 -0.18522812 0.015681555
0.45433193 -0.18460792 0.016486598
0.45464447 -0.18359254 0.016502928
0.45678452 -0.18297856 0.017307859
0.45892319 -0.1823687 0.018112736
0.46014753 -0.18156022 0.018523274
0.46137124 -0.1807538 0.018933777
0.46259436 -0.17994946 0.019344248
0.46381679 -0.17914718 0.019754685
0.4650386 -0.17834698 0.02016509
0.46625975 -0.17754883 0.020575445
0.4665691 -0.17654379 0.020591609
0.46778929 -0.17574874 0.021001931
0.46900892 -0.17495577 0.021412233
0.47022787 -0.17416488 0.021822488
0.47144616 -0.17337602 0.022232695
0.47266382 -0.17258926 0.022642883
0.47388089 -0.17180458 0.023053052
0.47509727 -0.17102194 0.023463173
0.47631302 -0.17024137 0.023873247
0.47661984 -0.1692446 0.023889277
0.47692662 -0.16824783 0.023905307
0.47723344 -0.16725107 0.023921339
0.47754025 -0.16625428 0.023937369
0.47784707 -0.16525751 0.023953399
0.47815385 -0.16426075 0.02396943
0.47846067 -0.16326398 0.02398546
0.47876748 -0.16226721 0.02400149
0.4790743 -0.16127044 0.024017522
0.47938111 -0.16027367 0.024033552
0.4796879 -0.1592769 0.024049582
0.47999471 -0.15828012 0.024065614
0.48030153 -0.15728335 0.024081644
0.47970417 -0.15605487 0.023703881
0.48001128 -0.15505706 0.023719927
0.48031843 -0.15405926 0.023735974
0.48062554 -0.15306145 0.023752021
0.48093268 -0.15206365 0.023768069
0.4812398 -0.15106584 0.023784116
0.48154694 -0.15006804 0.023800163
0.48185405 -0.14907023 0.023816209
0.48216116 -0.14807244 0.023832258
0.48246831 -0.14707462 0.023848305
0.48277542 -0.14607683 0.023864351
0.48308256 -0.14507902 0.023880398
0.48338968 -0.14408122 0.023896445
0.48369682 -0.14308341 0.023912493
0.48400393 -0.14208561 0.02392854
0.48431107 -0.1410878 0.023944587
0.48461819 -0.14009 0.023960633
0.48402655 -0.13884291 0.023583155
0.48343551 -0.13759372 0.023205696
0.48374328 -0.13659385 0.023221776
0.48315325 -0.13534158 0.02284438
0.48256385 -0.13408725 0.022467032
0.48197508 -0.13283086 0.022089705
0.4813869 -0.13157237 0.021712394
0.48079941 -0.13031183 0.021335132
0.48021254 -0.12904923 0.020957917
0.47962633 -0.12778455 0.020580722
0.47904074 -0.12651782 0.020203559
0.47845575 -0.12524898 0.019826429
0.47787145 -0.12397811 0.019449333
0.47728777 -0.12270517 0.01907227
0.47670475 -0.12143016 0.018695241
0.47522831 -0.11988826 0.017924953
0.47375318 -0.11834224 0.017154777
0.47227931 -0.11679207 0.016384624
0.46991372 -0.11496988 0.015221324
0.46844271 -0.11341041 0.014451348
0.46608061 -0.11157684 0.013288232
0.46372038 -0.10973705 0.012125215
0.46136206 -0.10789107 0.010962299
0.45989713 -0.10631196 0.010192625
0.45219561 -0.10280996 0.0066711614
0.43682468 -0.18852681 0.0086168731
0.43897465 -0.18787858 0.009424489
0.44203907 -0.18742788 0.010627487
0.4451015 -0.18698336 0.011830385
0.44724703 -0.1863496 0.012637754
0.44939125 -0.18571997 0.013445027
0.45153418 -0.18509446 0.014252247
0.4536759 -0.18447311 0.015059431
0.45398876 -0.18345669 0.015075778
0.45612854 -0.18284154 0.015882818
0.45826706 -0.18223053 0.01668982
0.45949146 -0.18142095 0.017101428
0.4607152 -0.18061343 0.017513003
0.46193835 -0.17980799 0.01792453
0.46316087 -0.17900461 0.018336039
0.46438274 -0.1782033 0.018747499
0.46560395 -0.17740406 0.019158941
0.46682453 -0.17660688 0.019570349
0.46804446 -0.17581177 0.01998171
0.46835351 -0.17480776 0.019997858
0.46957254 -0.17401578 0.020409197
0.47079089 -0.17322583 0.020820489
0.47200862 -0.17243797 0.021231718
0.47322568 -0.17165217 0.021642944
0.47444218 -0.17086844 0.022054151
0.47565797 -0.17008677 0.022465296
0.47687313 -0.16930719 0.022876421
0.47717994 -0.1683104 0.022892453
0.47748676 -0.16731364 0.022908483
0.47779357 -0.16631687 0.022924513
0.47810039 -0.1653201 0.022940543
0.47840717 -0.16432333 0.022956574
0.47871399 -0.16332656 0.022972604
0.4790208 -0.16232979 0.022988634
0.47932762 -0.16133302 0.023004666
0.4796344 -0.16033624 0.023020696
0.47994122 -0.15933947 0.023036726
0.4793435 -0.15811312 0.022657862
0.47965062 -0.15711533 0.022673909
0.47995776 -0.15611751 0.022689955
0.48026487 -0.15511972 0.022706002
0.48057202 -0.15412191 0.022722049
0.48087913 -0.15312411 0.022738097
0.48118627 -0.1521263 0.022754144
0.48149338 -0.1511285 0.022770191
0.4818005 -0.15013069 0.022786237
0.48210764 -0.14913288 0.022802286
0.48241475 -0.14813508 0.022818333
0.48272189 -0.14713728 0.022834379
0.48302901 -0.14613947 0.022850426
0.48333615 -0.14514166 0.022866474
