# .PCD v0.7 - Point Cloud Data file format
VERSION 0.7
FIELDS x y z
SIZE 4 4 4
TYPE F F F
COUNT 1 1 1
WIDTH 1379
HEIGHT 1
VIEWPOINT 0 0 0 1 0 0 0
POINTS 1379
DATA ascii
0.46521425 -0.18708909 0.042294167
0.46475756 -0.1876754 0.042284835
0.4643009 -0.18826173 0.042275503
0.46334255 -0.18795639 0.042602923
0.46288654 -0.18854187 0.042593602
0.46243054 -0.18912736 0.042584281
0.46197453 -0.18971284 0.042574964
0.46151853 -0.19029832 0.042565644
0.46056417 -0.18998785 0.042893149
0.46010882 -0.19057249 0.042883843
0.45915645 -0.19025947 0.043211386
0.45870176 -0.19084325 0.043202095
0.45775139 -0.19052769 0.043529678
0.45680228 -0.19021039 0.043857314
0.45585456 -0.18989143 0.044184953
0.45490813 -0.18957077 0.044512618
0.45445612 -0.19015113 0.04450338
0.45351169 -0.1898279 0.044831086
0.45256856 -0.18950295 0.045158844
0.45211786 -0.19008163 0.045149632
0.45117673 -0.18975416 0.045477405
0.45072669 -0.19033197 0.045468207
0.44978759 -0.19000193 0.045796022
0.4488498 -0.18967022 0.046123866
0.44840106 -0.19024634 0.046114694
0.44795236 -0.19082245 0.046105523
0.44750363 -0.19139858 0.046096355
0.44656917 -0.19106257 0.046424262
0.4461211 -0.19163786 0.046415105
0.44518858 -0.19129929 0.04674308
0.44425741 -0.19095904 0.047071055
0.44332758 -0.19061711 0.047399063
0.44239905 -0.19027345 0.047727093
0.44147182 -0.18992808 0.048055176
0.44054598 -0.18958102 0.048383266
0.43962142 -0.18923227 0.048711374
0.43869823 -0.18888183 0.049039517
0.43777636 -0.18852966 0.049367685
0.43685573 -0.18817577 0.049695902
0.4364143 -0.18874255 0.049686879
0.43549573 -0.18838613 0.050015111
0.43457851 -0.18802802 0.050343376
0.43322316 -0.18823241 0.050662685
0.43230921 -0.18787004 0.050991014
0.43187043 -0.18843339 0.050982047
0.43095845 -0.18806845 0.051310442
0.43004781 -0.18770184 0.051638838
0.4296104 -0.18826346 0.051629897
0.42870176 -0.18789431 0.051958334
0.42779446 -0.18752342 0.0522868
0.48289397 -0.12709822 0.050321244
0.48245323 -0.12766413 0.050312236
0.48365378 -0.1307282 0.049292736
0.48321101 -0.13129665 0.049283687
0.48331404 -0.13269952 0.048937786
0.48341572 -0.13410409 0.048591863
0.48297167 -0.13467425 0.048582785
0.48361519 -0.13691837 0.047899906
0.48371291 -0.13832805 0.047553897
0.48435175 -0.14057808 0.046870943
0.48498797 -0.14283156 0.046187911
0.48508039 -0.14424804 0.045841794
0.48517147 -0.14566623 0.045495655
0.48526123 -0.14708611 0.045149483
0.48534971 -0.14850774 0.044803262
0.48543683 -0.14993103 0.044457037
0.48606041 -0.15220064 0.043773774
0.48560706 -0.15278272 0.043764509
0.48569024 -0.15421115 0.04341818
0.48577207 -0.15564124 0.043071844
0.48585254 -0.15707305 0.042725485
0.48593169 -0.15850656 0.042379096
0.48547569 -0.15909202 0.042369775
0.48555285 -0.16052809 0.04202335
0.48562875 -0.16196588 0.041676871
0.48517141 -0.16255306 0.041667525
0.48524526 -0.16399337 0.041321028
0.4853178 -0.16543539 0.040974505
0.48485914 -0.16602427 0.040965132
0.48440048 -0.16661315 0.04095576
0.48447034 -0.16805856 0.040609181
0.48401102 -0.1686483 0.040599797
0.48355171 -0.16923803 0.040590409
0.4830924 -0.16982776 0.040581021
0.48263305 -0.1704175 0.040571634
0.48217374 -0.17100725 0.040562246
0.48171443 -0.17159696 0.040552858
0.48125511 -0.1721867 0.040543471
0.48079577 -0.17277643 0.040534083
0.48033646 -0.17336616 0.040524695
0.47987711 -0.17395592 0.040515307
0.4794178 -0.17454565 0.04050592
0.47895849 -0.17513539 0.040496532
0.47849917 -0.17572512 0.040487144
0.47803983 -0.17631485 0.040477756
0.47758052 -0.17690459 0.040468369
0.4771212 -0.17749432 0.040458981
0.47666189 -0.17808405 0.040449593
0.47620255 -0.17867377 0.040440205
0.4752273 -0.1783908 0.040768281
0.47476864 -0.17897969 0.040758904
0.47430998 -0.17956859 0.040749531
0.47385132 -0.18015747 0.040740158
0.47339267 -0.18074633 0.040730782
0.47293401 -0.18133523 0.040721409
0.47247535 -0.1819241 0.040712036
0.47201669 -0.182513 0.040702663
0.47155803 -0.18310188 0.040693287
0.47109938 -0.18369077 0.040683914
0.47064072 -0.18427964 0.040674541
0.4696734 -0.18398646 0.041002773
0.46921539 -0.1845745 0.040993415
0.46875742 -0.18516251 0.040984053
0.46829942 -0.18575056 0.040974692
0.46784142 -0.1863386 0.040965334
0.46687809 -0.18604031 0.041293651
0.46642074 -0.18662748 0.041284304
0.46596342 -0.18721467 0.041274957
0.46550608 -0.18780185 0.041265611
0.46454602 -0.18749927 0.041594017
0.46408936 -0.1880856 0.041584685
0.46363267 -0.18867195 0.04157535
0.4626753 -0.188366 0.041903786
0.4622193 -0.18895148 0.041894466
0.46176329 -0.18953696 0.041885149
0.46130729 -0.19012243 0.041875828
0.46085128 -0.19070791 0.041866507
0.45989788 -0.19039686 0.04219503
0.45894584 -0.1900841 0.042523574
0.45849115 -0.19066788 0.042514283
0.45754105 -0.19035257 0.042842872
0.45708704 -0.19093549 0.042833593
0.45613891 -0.19061761 0.043162242
0.45519215 -0.19029804 0.043490898
0.45424673 -0.18997677 0.04381958
0.45379469 -0.19055715 0.043810342
0.45285124 -0.19023335 0.044139065
0.45190907 -0.18990779 0.044467837
0.45145836 -0.19048645 0.044458624
0.45051822 -0.19015838 0.044787418
0.44957942 -0.1898286 0.045116235
0.44913003 -0.19040559 0.045107048
0.44868064 -0.19098257 0.045097865
0.44774449 -0.19064938 0.045426738
0.44729576 -0.1912255 0.045417566
0.4463616 -0.19088976 0.045746479
0.44591355 -0.19146504 0.045737322
0.44498131 -0.19112672 0.046066299
0.44405046 -0.19078672 0.046395279
0.44312093 -0.19044507 0.046724286
0.44219273 -0.19010165 0.047053318
0.44126579 -0.18975654 0.047382403
0.44034025 -0.18940973 0.047711492
0.43941602 -0.18906125 0.04804061
0.43849313 -0.18871106 0.048369754
0.43757156 -0.18835914 0.048698921
0.43665126 -0.18800551 0.049028143
0.43620983 -0.18857229 0.049019121
0.43529156 -0.18821612 0.049348354
0.43437463 -0.18785827 0.049677622
0.43301958 -0.18806291 0.049997933
0.43210596 -0.18770081 0.050327267
0.43166718 -0.18826415 0.050318297
0.4307555 -0.18789947 0.050647695
0.42984518 -0.18753311 0.050977096
0.42940775 -0.18809474 0.050968155
0.4284994 -0.18772584 0.051297594
0.42759243 -0.18735521 0.051627062
0.4271563 -0.18791516 0.051618151
0.42625123 -0.18754196 0.051947683
0.48313057 -0.12636231 0.049663499
0.48214167 -0.12609747 0.049992289
0.48224902 -0.12749413 0.04964548
0.4829019 -0.12972496 0.048960801
0.48300591 -0.13112588 0.048613925
0.48256317 -0.13169433 0.048604876
0.48266521 -0.1330978 0.048257958
0.48222181 -0.13366711 0.048248898
0.48286533 -0.13590984 0.047564048
0.48296344 -0.13731843 0.047217026
0.48360234 -0.13956712 0.04653208
0.48423862 -0.14181922 0.045847062
0.48487222 -0.14407472 0.045162003
0.484963 -0.14549264 0.044814859
0.48505247 -0.14691228 0.044467688
0.48514062 -0.14833364 0.044120464
0.48522744 -0.14975668 0.043773234
0.48585042 -0.15202579 0.043087967
0.48539707 -0.15260786 0.043078702
0.48547992 -0.15403603 0.042731371
0.48556143 -0.15546587 0.042384032
0.4856416 -0.15689743 0.042036671
0.48572046 -0.15833068 0.04168928
0.48526445 -0.15891615 0.04167996
0.48534131 -0.16035195 0.041332532
0.48541689 -0.16178948 0.040985052
0.4854911 -0.16322869 0.040637564
0.48556396 -0.16466959 0.040290054
0.48510531 -0.16525848 0.040280677
0.48517621 -0.16670194 0.039933126
0.48471689 -0.16729167 0.039923742
0.48425758 -0.1678814 0.039914355
0.48379827 -0.16847114 0.039904967
0.48333892 -0.16906087 0.039895579
0.48287961 -0.1696506 0.039886191
0.4824203 -0.17024034 0.039876804
0.48196095 -0.17083009 0.039867416
0.48150164 -0.1714198 0.039858028
0.48104233 -0.17200953 0.039848641
0.48058301 -0.17259927 0.039839253
0.4801237 -0.173189 0.039829865
0.47966436 -0.17377876 0.039820477
0.47920501 -0.17436849 0.03981109
0.4787457 -0.17495823 0.039801702
0.47828639 -0.17554796 0.039792314
0.47782707 -0.17613769 0.039782926
0.47736776 -0.17672741 0.039773539
0.47690842 -0.17731716 0.039764151
0.4764491 -0.17790689 0.039754767
0.47598979 -0.17849661 0.039745379
0.47553048 -0.17908636 0.039735992
0.47507113 -0.17967609 0.039726604
0.47461182 -0.18026581 0.039717216
0.47415251 -0.18085556 0.039707828
0.47369319 -0.18144529 0.039698441
0.47323385 -0.18203501 0.039689053
0.47277454 -0.18262474 0.039679665
0.47231522 -0.18321449 0.039670277
0.47134554 -0.18292497 0.039999459
0.47088689 -0.18351386 0.039990086
0.47042826 -0.18410273 0.039980713
0.4699696 -0.18469161 0.039971337
0.46900323 -0.18439785 0.040300589
0.46854526 -0.18498588 0.040291227
0.46808726 -0.18557391 0.040281869
0.46762925 -0.18616195 0.040272508
0.46717125 -0.18674996 0.040263146
0.4662089 -0.18645109 0.04059248
0.46575156 -0.18703829 0.040583134
0.46529421 -0.18762545 0.040573787
0.4648369 -0.18821262 0.04056444
0.46437955 -0.18879981 0.040555093
0.46342111 -0.1884958 0.040884532
0.46246406 -0.1881901 0.041213971
0.46200806 -0.18877558 0.04120465
0.46155205 -0.18936107 0.041195329
0.46109605 -0.18994655 0.041186012
0.46064004 -0.19053203 0.041176692
0.45968693 -0.19022124 0.041506212
0.4587352 -0.18990873 0.041835763
0.4582805 -0.19049251 0.041826472
0.45782584 -0.19107628 0.041817177
0.45687672 -0.19076039 0.042146783
0.45592889 -0.19044274 0.042476438
0.45547554 -0.19102481 0.042467169
0.45452973 -0.19070466 0.042796839
0.45358527 -0.19038281 0.043126538
0.45313326 -0.19096318 0.0431173
0.45219079 -0.19063877 0.043447044
0.45124957 -0.19031261 0.043776829
0.45030975 -0.1899848 0.044106625
0.44985971 -0.19056262 0.044097427
0.44892186 -0.19023226 0.044427257
0.44847247 -0.19080923 0.044418074
0.44802308 -0.19138621 0.044408888
0.44708791 -0.19105244 0.044738781
0.44663921 -0.19162853 0.044729609
0.44570598 -0.19129223 0.045059539
0.44477406 -0.19095416 0.045389514
0.44432667 -0.19152857 0.045380373
0.44339681 -0.19118799 0.045710366
0.44246823 -0.19084571 0.046040393
0.44154099 -0.19050173 0.046370443
0.44061503 -0.19015601 0.046700545
0.43921062 -0.18889023 0.047369841
0.438288 -0.18854028 0.047699988
0.43736675 -0.18818863 0.04803016
0.43644676 -0.18783525 0.048360385
0.43600532 -0.18840203 0.048351362
0.43508738 -0.18804611 0.048681602
0.43417075 -0.18768851 0.049011867
0.432816 -0.18789342 0.049333181
0.43190271 -0.18753156 0.049663518
0.43146393 -0.18809491 0.049654551
0.43055254 -0.18773049 0.049984951
0.42964253 -0.18736438 0.05031535
0.42920509 -0.18792601 0.05030641
0.42829707 -0.18755737 0.050636854
0.4273904 -0.18718699 0.050967325
0.42695427 -0.18774696 0.050958414
0.42604953 -0.187374 0.051288944
0.42514616 -0.18699937 0.051619485
0.48237792 -0.12536266 0.049335532
0.4819378 -0.12592773 0.049326535
0.48204485 -0.12732412 0.048978724
0.48215058 -0.12872222 0.04863089
0.48225501 -0.13012207 0.048283003
0.48181292 -0.13068967 0.048273969
0.48191532 -0.13209203 0.047926061
0.48147258 -0.13266048 0.047917012
0.48211616 -0.13490184 0.047230173
0.48275712 -0.13714664 0.046543252
0.4833954 -0.13939482 0.045856301
0.48348984 -0.14080738 0.045508236
0.48412353 -0.14306153 0.044821166
0.48475453 -0.14531906 0.044134069
0.48484367 -0.14673844 0.043785892
0.48493153 -0.14815955 0.043437667
0.48501801 -0.14958233 0.043089435
0.48564041 -0.15185092 0.042402159
0.48518705 -0.15243299 0.042392895
0.48526961 -0.15386091 0.042044561
0.48535082 -0.1552905 0.041696224
0.48543066 -0.1567218 0.041347858
0.48550922 -0.15815479 0.040999465
0.48558643 -0.15958947 0.040651046
0.48566237 -0.16102591 0.040302575
0.48520502 -0.16161309 0.040293228
0.48527893 -0.16305204 0.039944742
0.4853515 -0.16449268 0.039596226
0.48489285 -0.16508158 0.03958685
0.48496345 -0.16652478 0.0392383
0.4845041 -0.16711451 0.039228912
0.48457271 -0.16856027 0.038880315
0.48411274 -0.16915084 0.038870912
0.48365274 -0.16974142 0.038861513
0.48319277 -0.17033201 0.038852111
0.48273277 -0.17092261 0.038842712
0.4822728 -0.17151318 0.038833309
0.4818128 -0.17210376 0.03882391
0.48135281 -0.17269437 0.038814507
0.48089284 -0.17328495 0.038805105
0.48043287 -0.17387553 0.038795706
0.47997287 -0.1744661 0.038786303
0.47951287 -0.17505671 0.038776904
0.4790529 -0.17564729 0.038767502
0.47859293 -0.17623787 0.038758099
0.47813293 -0.17682844 0.0387487
0.47767293 -0.17741905 0.038739298
0.47721297 -0.17800963 0.038729899
0.476753 -0.17860021 0.038720496
0.476293 -0.1791908 0.038711097
0.475833 -0.17978139 0.038701694
0.47537303 -0.18037197 0.038692292
0.47491306 -0.18096255 0.038682893
0.47445306 -0.18155314 0.03867349
0.4734804 -0.18126813 0.039003611
0.47302109 -0.18185785 0.038994223
0.47256175 -0.18244758 0.038984835
0.47210243 -0.18303733 0.038975447
0.47164312 -0.18362705 0.03896606
0.47067443 -0.18333696 0.039296258
0.47021577 -0.18392582 0.039286885
0.46975711 -0.1845147 0.039277509
0.46929845 -0.1851036 0.039268136
0.4683331 -0.18480922 0.039598405
0.46787509 -0.18539725 0.039589044
0.46741709 -0.1859853 0.039579682
0.46695909 -0.18657331 0.039570324
0.46650109 -0.18716136 0.039560962
0.46604311 -0.18774937 0.039551601
0.46508238 -0.18744905 0.039881967
0.46462503 -0.18803623 0.03987262
0.46416768 -0.18862343 0.03986327
0.46371037 -0.18921059 0.039853927
0.46275291 -0.188906 0.040184379
0.46229625 -0.18949232 0.040175043
0.46134081 -0.18918519 0.040505514
0.46088481 -0.18977067 0.040496193
0.46042877 -0.19035615 0.040486876
0.45947602 -0.19004561 0.040817402
0.45902067 -0.19063021 0.040808093
0.45806989 -0.19031714 0.04113866
0.4576152 -0.19090091 0.041129369
0.45666641 -0.19058527 0.041459974
0.4562124 -0.19116819 0.041450694
0.45526552 -0.19084994 0.041781366
0.45481217 -0.19143203 0.041772097
0.45386735 -0.19111128 0.042102784
0.45292383 -0.19078884 0.0424335
0.45198169 -0.19046466 0.042764243
0.45153031 -0.1910442 0.042755019
0.45059007 -0.19071746 0.043085825
0.44965121 -0.19038904 0.043416634
0.44920117 -0.19096686 0.043407436
0.4482643 -0.1906359 0.043738283
0.44781491 -0.19121288 0.0437291
0.44688004 -0.19087936 0.044059992
0.44643134 -0.19145547 0.04405082
0.44549844 -0.1911194 0.044381753
0.44456682 -0.19078161 0.044712733
0.44411942 -0.19135602 0.044703592
0.44318986 -0.19101569 0.045034587
0.44226161 -0.19067366 0.045365617
0.44133466 -0.19032994 0.045696668
0.440409 -0.18998447 0.046027772
0.43948475 -0.18963733 0.04635888
0.4385618 -0.18928851 0.046690013
0.43764016 -0.18893796 0.047021177
0.43671986 -0.18858574 0.047352366
0.43580085 -0.18823177 0.047683604
0.43488321 -0.18787612 0.048014846
0.43396688 -0.18751878 0.048346113
0.43261245 -0.18772393 0.048668433
0.43169942 -0.18736233 0.048999771
0.43078768 -0.18699901 0.049331158
0.42987734 -0.186634 0.049662549
0.42943987 -0.18719566 0.049653608
0.42853153 -0.18682809 0.049985044
0.42809474 -0.1873889 0.049976114
0.42718837 -0.18701878 0.050307591
0.42675224 -0.18757874 0.050298676
0.4258478 -0.18720604 0.050630212
0.42494473 -0.18683167 0.050961751
0.42404297 -0.18645561 0.051293321
0.48217404 -0.12519291 0.048669778
0.48173395 -0.12575798 0.048660785
0.48184067 -0.12715413 0.048311967
0.48139989 -0.12772003 0.04830296
0.48095915 -0.12828593 0.048293952
0.48160812 -0.13051915 0.047605209
0.48116603 -0.13108677 0.047596171
0.48072395 -0.13165438 0.047587138
0.48136759 -0.13389437 0.046898302
0.48200855 -0.13613777 0.046209414
0.48264691 -0.13838461 0.045520447
0.4832826 -0.14063482 0.044831455
0.48391566 -0.14288847 0.04414238
0.48454604 -0.14514548 0.043453276
0.48463488 -0.1465646 0.043104094
0.48472244 -0.14798546 0.042754866
0.48480862 -0.14940798 0.042405635
0.48543039 -0.15167606 0.041716356
0.48497704 -0.15225814 0.041707091
0.48505929 -0.15368579 0.041357752
0.48514017 -0.15511513 0.041008413
0.48521972 -0.15654618 0.04065904
0.48529795 -0.15797891 0.040309649
0.48537487 -0.15941334 0.039960224
0.48545051 -0.16084951 0.039610755
0.48552477 -0.16228735 0.039261278
0.4855977 -0.1637269 0.038911775
0.48513904 -0.16431578 0.038902398
0.48520997 -0.16575788 0.038552854
0.48475066 -0.16634761 0.038543466
0.48481962 -0.16779226 0.038193882
0.48435962 -0.16838284 0.038184483
0.48389965 -0.16897343 0.03817508
0.48343965 -0.16956401 0.038165681
0.48297969 -0.1701546 0.038156278
0.48251969 -0.17074519 0.03814688
0.48205972 -0.17133577 0.038137477
0.48159972 -0.17192635 0.038128074
0.48113972 -0.17251696 0.038118675
0.48067975 -0.17310753 0.038109273
0.48021978 -0.17369811 0.038099874
0.47975978 -0.17428869 0.038090471
0.47929978 -0.1748793 0.038081069
0.47883981 -0.17546988 0.03807167
0.47837985 -0.17606045 0.038062267
0.47791985 -0.17665103 0.038052868
0.47745985 -0.17724162 0.038043465
0.47699988 -0.1778322 0.038034067
0.47653991 -0.17842279 0.038024664
0.47607991 -0.17901339 0.038015261
0.47561991 -0.17960396 0.038005862
0.47515994 -0.18019454 0.03799646
0.47469997 -0.18078512 0.037987061
0.47423998 -0.18137573 0.037977658
0.47377998 -0.1819663 0.037968256
0.47332001 -0.18255688 0.037958857
0.47286004 -0.18314746 0.037949454
0.47240004 -0.18373807 0.037940055
0.47143033 -0.18344989 0.03827123
0.47097102 -0.18403962 0.038261842
0.47000331 -0.18374892 0.038593058
0.46954465 -0.18433779 0.038583685
0.46908599 -0.18492669 0.038574308
0.46862733 -0.18551557 0.038564935
0.46766293 -0.18522061 0.038896218
0.46720493 -0.18580864 0.03888686
0.46674693 -0.18639667 0.038877498
0.46628892 -0.1869847 0.038868137
0.46583095 -0.18757273 0.038858779
0.46537295 -0.18816076 0.038849417
0.4644132 -0.18785983 0.039180797
0.46395585 -0.18844703 0.03917145
0.4634985 -0.18903421 0.039162103
0.46254134 -0.18872985 0.039493557
0.46208468 -0.18931618 0.039484225
0.46112958 -0.18900931 0.039815698
0.46067354 -0.18959478 0.039806377
0.46021754 -0.19018026 0.03979706
0.45926508 -0.18986997 0.040128585
0.45880973 -0.19045459 0.040119279
0.45785925 -0.19014177 0.040450849
0.45740458 -0.19072554 0.040441558
0.45694989 -0.19130932 0.040432263
0.45600206 -0.19099307 0.040763885
0.45554805 -0.191576 0.040754609
0.45460215 -0.19125716 0.041086294
0.4541488 -0.19183926 0.041077029
0.45320493 -0.1915179 0.041408729
0.45226243 -0.19119485 0.041740462
0.45132121 -0.19087011 0.042072222
0.45038128 -0.19054362 0.042404026
0.44944274 -0.19021545 0.042735841
0.4489927 -0.19079328 0.042726643
0.44805613 -0.19046257 0.043058492
0.44760674 -0.19103955 0.043049309
0.44667217 -0.19070628 0.043381203
0.44622347 -0.19128239 0.043372035
0.44529086 -0.19094659 0.043703966
0.44435957 -0.19060904 0.044035953
0.44391218 -0.19118346 0.044026807
0.44298291 -0.19084337 0.044358809
0.44205496 -0.19050162 0.04469084
0.44112834 -0.19015814 0.045022894
0.44020298 -0.18981294 0.045355
0.43927905 -0.18946604 0.045687109
0.43835637 -0.18911749 0.046019249
0.43743506 -0.18876719 0.04635141
0.43651506 -0.18841523 0.046683606
0.43559635 -0.18806151 0.047015846
0.43467903 -0.18770611 0.04734809
0.43332291 -0.18791409 0.047671366
0.43240887 -0.18755443 0.048003681
0.43149617 -0.1871931 0.048336022
0.43058473 -0.18683003 0.048668411
0.42967469 -0.18646528 0.049000807
0.42923725 -0.18702693 0.048991866
0.4283292 -0.18665962 0.0493243
0.42742243 -0.18629062 0.049656764
0.42698634 -0.18685056 0.049647853
0.42655021 -0.18741052 0.049638938
0.42564607 -0.18703808 0.049971476
0.42474332 -0.18666396 0.050304022
0.42384186 -0.18628816 0.05063659
0.42294177 -0.18591064 0.050969191
0.48295879 -0.1252864 0.047672238
0.48197016 -0.12502317 0.048004024
0.48153007 -0.12558824 0.047995031
0.48108995 -0.12615328 0.047986034
0.48119572 -0.12755002 0.047636203
0.48075497 -0.12811594 0.047627196
0.4803142 -0.12868184 0.047618188
0.48041731 -0.13008198 0.047268305
0.47997588 -0.13064875 0.047259286
0.48061961 -0.13288741 0.046568438
0.48126063 -0.13512945 0.045877557
0.48189905 -0.13737492 0.045186602
0.48253477 -0.13962378 0.044495612
0.48316789 -0.14187606 0.043804549
0.48379833 -0.14413169 0.043113451
0.48442608 -0.14639077 0.042422298
0.48451334 -0.14781137 0.042072069
0.48459923 -0.14923364 0.041721832
0.48522037 -0.15150121 0.041030549
0.48530298 -0.15292776 0.040680222
0.48484898 -0.15351067 0.040670943
0.48492953 -0.15493976 0.040320601
0.48500881 -0.15637054 0.03997023
0.48508671 -0.15780301 0.03961983
0.48569599 -0.16008593 0.038928278
0.48523864 -0.16067311 0.038918931
0.48531258 -0.1621107 0.038568452
0.48538524 -0.16354999 0.038217947
0.48545653 -0.16499099 0.037867412
0.48499721 -0.16558072 0.037858024
0.4850665 -0.16702425 0.037507452
0.48460653 -0.16761485 0.037498049
0.48414654 -0.16820543 0.037488651
0.48368657 -0.16879602 0.037479248
0.48322657 -0.1693866 0.037469849
0.4827666 -0.16997719 0.037460446
0.4823066 -0.17056778 0.037451044
0.48184663 -0.17115836 0.037441645
0.48138663 -0.17174894 0.037432242
0.48092666 -0.17233953 0.037422843
0.48046666 -0.17293011 0.037413441
0.48000669 -0.1735207 0.037404038
0.4795467 -0.17411128 0.037394639
0.47908673 -0.17470187 0.037385236
0.47862673 -0.17529245 0.037375838
0.47816676 -0.17588302 0.037366435
0.47770676 -0.1764736 0.037357036
0.47724679 -0.17706421 0.037347633
0.47678679 -0.17765479 0.037338231
0.47632682 -0.17824537 0.037328832
0.47586682 -0.17883597 0.037319429
0.47540683 -0.17942655 0.03731003
0.47494686 -0.18001713 0.037300628
0.47448689 -0.18060771 0.037291229
0.47402689 -0.18119831 0.037281826
0.47356689 -0.18178889 0.037272424
0.47310692 -0.18237947 0.037263025
0.47264695 -0.18297005 0.037253622
0.47218695 -0.18356065 0.037244223
0.47172695 -0.18415123 0.03723482
0.47075823 -0.18386246 0.037567012
0.47029892 -0.18445219 0.037557624
0.46933216 -0.18416089 0.037889857
0.4688735 -0.18474978 0.03788048
0.46841484 -0.18533866 0.037871107
0.46795619 -0.18592755 0.037861735
0.46749753 -0.18651645 0.037852358
0.46653476 -0.18622002 0.038184673
0.46607676 -0.18680806 0.038175315
0.46561879 -0.18739608 0.038165953
0.46516079 -0.18798412 0.038156591
0.46470279 -0.18857215 0.038147233
0.46374398 -0.18827063 0.038479626
0.46328667 -0.18885781 0.038470279
0.4623298 -0.18855372 0.038802739
0.46187314 -0.18914004 0.038793404
0.46141648 -0.18972637 0.038784072
0.4604623 -0.1894189 0.039116561
0.4600063 -0.19000438 0.039107241
0.45905414 -0.18969434 0.039439771
0.45859882 -0.19027896 0.039430466
0.45814347 -0.19086359 0.03942116
0.45719394 -0.19055016 0.039753746
0.45673925 -0.19113395 0.039744452
0.45628458 -0.19171771 0.039735161
0.4553377 -0.1914009 0.040067799
0.45488369 -0.19198382 0.04005852
0.45393878 -0.1916644 0.040391222
0.45299524 -0.19134331 0.040723927
0.45205301 -0.19102049 0.041056659
0.451601 -0.19160087 0.04104742
0.45066077 -0.19127552 0.041380197
0.44972178 -0.19094846 0.041713022
0.44878423 -0.19061969 0.04204585
0.44833419 -0.19119751 0.042036653
0.44739857 -0.19086623 0.042369518
0.4464643 -0.19053322 0.042702414
0.4460156 -0.19110933 0.042693246
0.44556686 -0.19168545 0.042684074
0.44463527 -0.19134903 0.043017026
0.44370493 -0.19101089 0.043350026
0.44277596 -0.19067107 0.04368303
0.44184834 -0.19032957 0.044016059
0.44092199 -0.18998636 0.044349119
0.43999699 -0.1896414 0.044682227
0.43907332 -0.18929477 0.045015343
0.43815097 -0.18894646 0.04534848
0.43722996 -0.18859641 0.045681648
0.43631026 -0.18824472 0.046014842
0.43539187 -0.18789124 0.046348084
0.43447483 -0.18753611 0.046681333
0.43311903 -0.18774433 0.047005616
0.43220532 -0.18738495 0.047338933
0.43129292 -0.18702386 0.047672275
0.4303818 -0.18666105 0.048005667
0.42947206 -0.18629655 0.048339065
0.42903459 -0.18685821 0.048330124
0.42812684 -0.18649115 0.04866356
0.4272204 -0.1861224 0.048997026
0.42631528 -0.18575191 0.04933054
0.42587981 -0.18631104 0.04932164
0.42544433 -0.18687013 0.049312741
0.42454189 -0.18649626 0.049646288
0.42364076 -0.18612072 0.049979862
0.42274097 -0.18574345 0.050313462
0.42184249 -0.1853645 0.050647091
0.48209763 -0.12289613 0.047698032
0.48220637 -0.12428837 0.047347266
0.48121873 -0.12402456 0.047680069
0.48132619 -0.12541848 0.047329277
0.4808861 -0.12598354 0.04732028
0.48044598 -0.12654859 0.047311287
0.48000589 -0.12711364 0.047302291
0.47956577 -0.12767871 0.047293298
0.47966924 -0.12907775 0.046942424
0.4792285 -0.12964365 0.046933416
0.47987226 -0.13188095 0.046240579
0.48051333 -0.13412163 0.045547705
0.48115176 -0.13636571 0.044854779
0.48178759 -0.13861322 0.044161778
0.48242071 -0.1408641 0.043468744
0.48305121 -0.14311844 0.042775635
0.48367903 -0.14537613 0.042082492
0.48430425 -0.14763726 0.041389272
0.48438981 -0.14905928 0.041038033
0.48501036 -0.15132634 0.040344741
0.48509267 -0.15275264 0.039993417
0.48463863 -0.15333556 0.039984137
0.48471892 -0.15476438 0.03963279
0.48479787 -0.15619491 0.039281413
0.48487547 -0.15762714 0.038930014
0.48548412 -0.15990953 0.038236458
0.48555842 -0.16134603 0.037884988
0.48510042 -0.16193406 0.037875626
0.48517275 -0.16337308 0.037524119
0.48524374 -0.16481383 0.037172582
0.48478442 -0.16540356 0.037163198
0.48485345 -0.16684684 0.03681162
0.48439345 -0.16743743 0.036802217
0.48393348 -0.16802801 0.036792818
0.48347348 -0.1686186 0.036783416
0.48301351 -0.16920918 0.036774013
0.48255351 -0.16979976 0.036764614
0.48209351 -0.17039035 0.036755212
0.48163354 -0.17098093 0.036745813
0.48117357 -0.17157151 0.03673641
0.48071358 -0.17216212 0.036727007
0.48025358 -0.17275269 0.036717609
0.47979361 -0.17334327 0.036708206
0.47933364 -0.17393385 0.036698807
0.47887364 -0.17452446 0.036689404
0.47841364 -0.17511503 0.036680005
0.47795367 -0.17570561 0.036670603
0.4774937 -0.17629619 0.0366612
0.4770337 -0.1768868 0.036651801
0.47657371 -0.17747737 0.036642399
0.47611374 -0.17806795 0.036633
0.47565374 -0.17865856 0.036623597
0.47519377 -0.17924914 0.036614195
0.47473377 -0.17983972 0.036604796
0.4742738 -0.18043029 0.036595393
0.4738138 -0.18102089 0.036585994
0.47335383 -0.18161148 0.036576591
0.47289383 -0.18220206 0.036567193
0.47243387 -0.18279263 0.03655779
0.47197387 -0.18338323 0.036548387
0.4715139 -0.1839738 0.036538988
0.47054547 -0.1836853 0.036872182
0.47008616 -0.18427503 0.036862794
0.4691197 -0.18398398 0.037196029
0.46866104 -0.18457288 0.037186656
0.46820238 -0.18516175 0.037177283
0.46774372 -0.18575065 0.037167907
0.46728507 -0.18633954 0.037158534
0.4663226 -0.18604337 0.037491851
0.4658646 -0.18663141 0.037482489
0.46540663 -0.18721943 0.037473127
0.46494862 -0.18780747 0.037463769
0.46449062 -0.18839552 0.037454408
0.46353212 -0.18809424 0.037787806
0.4630748 -0.18868141 0.037778459
0.46261746 -0.1892686 0.037769113
0.46166158 -0.1889639 0.038102586
0.46120492 -0.18955022 0.038093254
0.46025106 -0.18924302 0.038426742
0.45979506 -0.1898285 0.038417425
0.4588432 -0.18951872 0.038750958
0.45838788 -0.19010334 0.038741652
0.45793253 -0.19068797 0.038732346
0.45698333 -0.19037479 0.039065935
0.45652863 -0.19095857 0.03905664
0.45607397 -0.19154234 0.039047349
0.45512739 -0.19122578 0.03938099
0.45467338 -0.1918087 0.03937171
0.45372877 -0.19148953 0.039705414
0.45327541 -0.19207162 0.03969615
0.45233282 -0.19174993 0.040029872
0.45139158 -0.19142653 0.040363621
0.45045167 -0.19110143 0.0406974
0.44951302 -0.19077462 0.041031227
0.44857574 -0.19044611 0.041365057
0.44812569 -0.19102393 0.041355859
0.4471904 -0.1906929 0.041689727
0.44625643 -0.19036014 0.042023629
0.44580773 -0.19093625 0.042014457
0.44535902 -0.19151238 0.042005286
0.4444277 -0.19117622 0.042339239
0.44349769 -0.19083834 0.042673245
0.44256902 -0.19049877 0.043007247
0.44164169 -0.19015752 0.043341283
0.44071567 -0.18981457 0.043675344
0.43979096 -0.18946986 0.044009455
0.4388676 -0.18912348 0.044343572
0.43794557 -0.18877544 0.044677716
0.43702486 -0.18842565 0.045011882
0.43610549 -0.1880742 0.045346081
0.43518737 -0.18772098 0.045680329
0.43427065 -0.1873661 0.046014577
0.43291515 -0.1875746 0.046339862
0.43200174 -0.18721545 0.046674181
0.43108964 -0.18685462 0.047008526
0.43017885 -0.18649207 0.047342923
0.4292694 -0.18612783 0.047677319
0.42883196 -0.18668948 0.047668379
0.42792451 -0.18632269 0.04800282
0.42701837 -0.1859542 0.048337288
0.42611355 -0.18558395 0.048671808
0.42567807 -0.18614307 0.048662908
0.42477527 -0.1857703 0.048997443
0.42434049 -0.18632856 0.048988558
0.42343965 -0.18595327 0.04932313
0.42254016 -0.18557626 0.049657736
0.42164198 -0.18519756 0.049992368
0.4207451 -0.18481714 0.050327048
0.48178425 -0.12133638 0.047385018
0.48189405 -0.12272664 0.04703328
0.48200253 -0.12411863 0.046681512
0.48101518 -0.12385506 0.047015317
0.48112231 -0.12524873 0.046663523
0.48068222 -0.12581378 0.04665453
0.47969687 -0.12554768 0.046988375
0.4792574 -0.12611188 0.046979394
0.47936192 -0.12750895 0.046627544
0.4789218 -0.12807401 0.046618551
0.47848171 -0.12863907 0.046609554
0.47804162 -0.12920412 0.046600562
0.47976667 -0.13311432 0.045219861
0.48040512 -0.13535705 0.044524945
0.48104098 -0.13760319 0.043829948
0.48167416 -0.13985272 0.043134924
0.48230472 -0.14210568 0.042439822
0.4829326 -0.14436202 0.041744687
0.48355782 -0.14662176 0.041049499
0.48418042 -0.14888494 0.040354233
0.48480034 -0.15115148 0.039658938
0.48488232 -0.15257752 0.039306603
0.48442832 -0.15316045 0.039297327
0.48450828 -0.15458901 0.038944978
0.48458692 -0.15601929 0.038592599
0.48466423 -0.15745126 0.038240198
0.48527226 -0.15973315 0.037544634
0.48534626 -0.16116938 0.037192162
0.48541895 -0.1626073 0.036839664
0.48549029 -0.16404691 0.036487143
0.48503098 -0.16463666 0.036477756
0.48510033 -0.16607884 0.036125187
0.48464036 -0.16666941 0.036115784
0.48418036 -0.16726001 0.036106385
0.48372039 -0.16785058 0.036096983
0.48326039 -0.16844118 0.036087584
0.48280042 -0.16903175 0.036078181
0.48234043 -0.16962235 0.036068782
0.48188043 -0.17021294 0.03605938
0.48142046 -0.17080352 0.036049977
0.48148325 -0.17225423 0.035697255
0.48102257 -0.17284569 0.035687841
0.48056194 -0.1734371 0.035678428
0.48010129 -0.17402856 0.03566901
0.47964063 -0.17461999 0.035659596
0.47917998 -0.17521143 0.035650183
0.47871935 -0.17580286 0.035640769
0.4782587 -0.1763943 0.035631351
0.47779804 -0.17698573 0.035621937
0.47733739 -0.17757718 0.035612524
0.47687677 -0.17816859 0.03560311
0.47641611 -0.17876005 0.035593696
0.47595546 -0.17935148 0.035584278
0.4754948 -0.17994292 0.035574865
0.47452068 -0.17966229 0.035908964
0.47406071 -0.18025288 0.035899561
0.47360072 -0.18084347 0.035890158
0.47314075 -0.18143405 0.035880759
0.47268075 -0.18202463 0.035871357
0.47222078 -0.18261521 0.035861958
0.47176078 -0.18320581 0.035852555
0.47130081 -0.18379639 0.035843156
0.47084081 -0.18438697 0.035833754
0.46987337 -0.18409787 0.036167964
0.46941403 -0.18468763 0.036158577
0.46844858 -0.18439597 0.036492828
0.46798992 -0.18498485 0.036483455
0.46753123 -0.18557374 0.036474079
0.46707258 -0.18616264 0.036464706
0.46611044 -0.18586671 0.036799025
0.46565244 -0.18645476 0.036789663
0.46519446 -0.18704277 0.036780305
0.46473646 -0.18763082 0.036770944
0.46427846 -0.18821886 0.036761582
0.46332029 -0.18791784 0.037095986
0.46286294 -0.18850502 0.03708664
0.46240559 -0.18909222 0.037077293
0.46145004 -0.18878776 0.037411768
0.46099338 -0.18937409 0.037402432
0.46003982 -0.18906713 0.037736926
0.45958382 -0.18965261 0.037727609
0.45912781 -0.19023809 0.037718289
0.45817694 -0.18992771 0.038052838
0.45772159 -0.19051234 0.038043533
0.45677269 -0.19019942 0.038378123
0.45631799 -0.1907832 0.038368829
0.45586333 -0.19136697 0.038359538
0.45540863 -0.19195075 0.038350243
0.45446306 -0.19163358 0.038684901
0.45400906 -0.1922165 0.038675621
0.4530654 -0.19189675 0.039010346
0.45212311 -0.19157532 0.039345067
0.45118219 -0.19125217 0.039679822
0.45024258 -0.19092734 0.040014599
0.44930422 -0.19060078 0.040349431
0.44836727 -0.19027254 0.040684264
0.44791722 -0.19085035 0.040675066
0.44698223 -0.19051957 0.041009936
0.44653288 -0.19109653 0.041000754
0.44559988 -0.19076318 0.041335672
0.44515115 -0.19133931 0.0413265
0.44422016 -0.19100341 0.041661456
0.44329041 -0.19066578 0.04199646
0.44236207 -0.19032647 0.042331468
0.44143504 -0.18998547 0.042666506
0.44050935 -0.18964277 0.04300157
0.43958494 -0.18929833 0.043336686
0.4386619 -0.18895221 0.043671805
0.43774015 -0.18860441 0.044006947
0.43681976 -0.18825488 0.044342119
0.43590069 -0.18790367 0.044677321
0.4349829 -0.18755072 0.045012567
0.43406647 -0.18719611 0.045347821
0.43271127 -0.18740484 0.045674108
0.43179819 -0.18704596 0.046009429
0.43088639 -0.18668538 0.046344779
0.4299759 -0.18632308 0.046680178
0.42906675 -0.1859591 0.047015578
0.42815897 -0.18559341 0.047351006
0.42772216 -0.18615422 0.047342081
0.42681634 -0.18578598 0.047677554
0.42591184 -0.185416 0.048013072
0.42500865 -0.18504438 0.048348598
0.42457387 -0.18560261 0.04833971
0.42367268 -0.18522842 0.048675276
0.42323855 -0.18578583 0.048666403
0.42233938 -0.18540907 0.04900201
0.4214415 -0.18503062 0.04933764
0.42054492 -0.18465045 0.049673326
0.41964972 -0.18426859 0.050009008
0.48212993 -0.12199295 0.04637751
0.48114222 -0.12173049 0.046712302
0.48179865 -0.12394887 0.046015758
0.4808116 -0.12368558 0.046350565
0.48037216 -0.12424978 0.046341583
0.47993273 -0.12481398 0.046332605
0.47949329 -0.12537819 0.046323624
0.47905385 -0.12594239 0.046314642
0.47861442 -0.1265066 0.04630566
0.47817498 -0.1270708 0.046296678
0.47773555 -0.127635 0.046287697
0.47729611 -0.1281992 0.046278715
0.4790206 -0.13210753 0.044894021
0.47911879 -0.13351201 0.04454105
0.48029497 -0.13659364 0.043500148
0.48092824 -0.13884184 0.042803109
0.4815588 -0.14109342 0.042106036
0.48218676 -0.14334841 0.041408885
0.48281205 -0.14560679 0.040711708
0.48343471 -0.1478686 0.04001445
0.48405465 -0.15013377 0.039317161
0.48467201 -0.15240242 0.038619798
0.484218 -0.15298533 0.038610518
0.48429766 -0.15441364 0.038257167
0.48437598 -0.15584366 0.037903786
0.48445299 -0.15727536 0.037550379
0.48506042 -0.15955675 0.036852814
0.48513409 -0.16099273 0.03649934
0.48520645 -0.16243039 0.036145836
0.4852775 -0.16386975 0.03579231
0.48481819 -0.1644595 0.035782922
0.48488724 -0.16590142 0.035429355
0.48442727 -0.166492 0.035419956
0.48396727 -0.16708259 0.035410553
0.48350731 -0.16767317 0.035401154
0.48304731 -0.16826376 0.035391752
0.48258734 -0.16885434 0.035382349
0.48212734 -0.16944493 0.03537295
0.48166734 -0.17003553 0.035363548
0.48120737 -0.1706261 0.035354149
0.48126984 -0.17207657 0.035000421
0.48080918 -0.17266801 0.034991007
0.48034856 -0.17325944 0.034981593
0.4798879 -0.17385088 0.034972176
0.47942725 -0.17444231 0.034962762
0.47896659 -0.17503376 0.034953348
0.47850597 -0.17562518 0.034943935
0.47804531 -0.17621663 0.034934517
0.47758466 -0.17680806 0.034925103
0.47712401 -0.1773995 0.034915689
0.47666338 -0.17799093 0.034906276
0.47620273 -0.17858237 0.034896862
0.47574207 -0.1791738 0.034887444
0.47528142 -0.17976525 0.03487803
0.4743076 -0.17948487 0.035213131
0.47384763 -0.18007545 0.035203729
0.47389948 -0.18153955 0.034849789
0.47343883 -0.18213099 0.034840371
0.47246766 -0.18184721 0.035175528
0.47200769 -0.18243779 0.035166126
0.47154769 -0.1830284 0.035156723
0.47108772 -0.18361898 0.035147324
0.47062773 -0.18420956 0.035137922
0.47016773 -0.18480016 0.035128523
0.46920124 -0.18451047 0.035463747
0.46823609 -0.18421906 0.035799
0.46777743 -0.18480796 0.035789628
0.46731877 -0.18539684 0.035780251
0.46686012 -0.18598573 0.035770878
0.46589828 -0.18569006 0.036106199
0.46544027 -0.1862781 0.036096841
0.4649823 -0.18686612 0.036087479
0.4645243 -0.18745416 0.036078118
0.46406627 -0.18804221 0.03606876
0.46310842 -0.18774146 0.036404163
0.4626511 -0.18832862 0.036394816
0.46219376 -0.18891582 0.036385469
0.46123847 -0.18861163 0.036720946
0.46078181 -0.18919794 0.036711615
0.45982859 -0.18889125 0.03704711
0.45937258 -0.18947673 0.03703779
0.45891657 -0.19006221 0.037028473
0.457966 -0.18975207 0.037364025
0.45751065 -0.1903367 0.037354719
0.45656207 -0.19002405 0.037690312
0.45610738 -0.19060783 0.037681017
0.45565271 -0.1911916 0.037671726
0.45519802 -0.19177538 0.037662432
0.45425272 -0.19145846 0.037998095
0.45379871 -0.19204138 0.037988815
0.45285538 -0.19172189 0.038324539
0.45191342 -0.19140072 0.038660266
0.4509728 -0.19107783 0.038996022
0.45003349 -0.19075325 0.039331805
0.44909543 -0.19042693 0.039667636
0.44815877 -0.19009896 0.040003471
0.44770873 -0.19067676 0.039994273
0.44677407 -0.19034624 0.040330149
0.44632471 -0.1909232 0.040320963
0.44539201 -0.19059011 0.040656883
0.44494328 -0.19116624 0.040647712
0.44401258 -0.19083059 0.040983669
0.44308317 -0.19049321 0.041319679
0.44215512 -0.19015417 0.041655689
0.44122842 -0.18981342 0.041991729
0.44030303 -0.18947098 0.042327795
0.43937892 -0.18912679 0.042663913
0.43845618 -0.18878092 0.043000035
0.43753475 -0.18843338 0.043336183
0.43661466 -0.18808411 0.043672357
0.43569589 -0.18773316 0.04400856
0.43477839 -0.18738048 0.044344813
0.4338623 -0.1870261 0.044681065
0.4325074 -0.18723509 0.045008354
0.43159461 -0.18687646 0.045344677
0.43068314 -0.18651615 0.04568103
0.42977294 -0.1861541 0.046017431
0.42886412 -0.18579037 0.046353836
0.42795661 -0.18542494 0.046690267
0.42705044 -0.1850578 0.047026727
0.42661431 -0.18561776 0.047017816
0.42571011 -0.18524803 0.047354337
0.42480722 -0.18487668 0.047690865
0.4239057 -0.18450357 0.048027419
0.42300552 -0.18412878 0.048364002
0.42257202 -0.18468533 0.04835514
0.4216738 -0.18430801 0.048691764
0.42124099 -0.1848637 0.048682917
0.42034471 -0.18448377 0.049019605
0.41944984 -0.18410216 0.049356289
0.41855624 -0.18371886 0.049693007
0.48236579 -0.12125925 0.045721743
0.48192635 -0.12182345 0.045712762
0.48093897 -0.12156125 0.046048556
0.48159477 -0.12377913 0.045350008
0.48060805 -0.12351608 0.045685817
0.48016861 -0.12408029 0.045676835
0.47972918 -0.12464449 0.045667853
0.4787451 -0.12437803 0.046003718
0.47830632 -0.12494138 0.045994751
0.47786754 -0.12550473 0.045985781
0.47742876 -0.12606809 0.045976814
0.47698998 -0.12663144 0.045967847
0.4765512 -0.12719479 0.04595888
0.4766531 -0.12859392 0.045604985
0.47837371 -0.13250463 0.044216223
0.47954962 -0.13558464 0.04317233
0.47964421 -0.13699313 0.042818286
0.48081356 -0.14008167 0.041774232
0.48144156 -0.14233533 0.041075092
0.48206687 -0.14459234 0.040375922
0.48322561 -0.14769451 0.039331652
0.4833096 -0.14911661 0.038977392
0.48392695 -0.15138383 0.038278058
0.48400769 -0.15281022 0.037923709
0.48408702 -0.15423827 0.037569355
0.48416504 -0.15566804 0.037214972
0.48424175 -0.15709949 0.036860563
0.48484856 -0.15938035 0.036160991
0.48492193 -0.16081607 0.035806514
0.48499399 -0.16225348 0.035452012
0.48506474 -0.16369259 0.03509748
0.48513415 -0.16513342 0.034742925
0.48467416 -0.16572401 0.034733523
0.48421419 -0.16631459 0.034724124
0.48375419 -0.16690518 0.034714721
0.48329422 -0.16749576 0.034705319
0.48283422 -0.16808635 0.03469592
0.48237425 -0.16867693 0.034686517
0.48191425 -0.16926752 0.034677118
0.48145425 -0.1698581 0.034667715
0.48099428 -0.17044869 0.034658317
0.48105645 -0.17189889 0.034303587
0.4805958 -0.17249034 0.034294169
0.48013517 -0.17308176 0.034284756
0.47967449 -0.17367321 0.034275342
0.47921386 -0.17426464 0.034265928
0.47875321 -0.17485608 0.03425651
0.47829255 -0.17544751 0.034247097
0.4778319 -0.17603895 0.034237683
0.47737128 -0.17663038 0.034228269
0.47691062 -0.17722183 0.034218851
0.47644997 -0.17781325 0.034209438
0.47598931 -0.1784047 0.034200024
0.47552869 -0.17899613 0.03419061
0.47506803 -0.17958757 0.034181196
0.47460738 -0.180179 0.034171779
0.47414672 -0.18077044 0.034162365
0.4736861 -0.18136187 0.034152951
0.47322544 -0.18195333 0.034143537
0.47225457 -0.1816698 0.034479693
0.47179461 -0.18226038 0.034470294
0.47133461 -0.18285097 0.034460891
0.47087464 -0.18344156 0.034451492
0.47041464 -0.18403214 0.034442089
0.46995464 -0.18462273 0.034432691
0.46898848 -0.18433331 0.034768917
0.46802363 -0.18404216 0.035105173
0.46756497 -0.18463105 0.0350958
0.46710631 -0.18521993 0.035086427
0.46664765 -0.18580882 0.03507705
0.46568611 -0.18551342 0.035413377
0.46522811 -0.18610145 0.035404015
0.46477014 -0.18668948 0.035394654
0.46431211 -0.18727751 0.035385296
0.4638541 -0.18786556 0.035375934
0.46289656 -0.18756506 0.035712339
0.46243924 -0.18815222 0.035702992
0.46198189 -0.18873942 0.035693645
0.46152458 -0.1893266 0.035684299
0.46057028 -0.18902181 0.036020797
0.46011361 -0.18960814 0.036011461
0.45916134 -0.18930085 0.036347974
0.45870534 -0.18988632 0.036338653
0.45775506 -0.18957645 0.036675211
0.45729971 -0.19016108 0.036665902
0.45635143 -0.18984868 0.0370025
0.45589674 -0.19043246 0.036993206
0.45544207 -0.19101623 0.036983915
0.45498738 -0.19160001 0.03697462
0.4540424 -0.19128335 0.037311286
0.4535884 -0.19186626 0.037302006
0.45264536 -0.19154702 0.037638731
0.4517037 -0.19122611 0.03797546
0.45076337 -0.19090347 0.038312219
0.45031133 -0.19148386 0.03830298
0.44937301 -0.19115868 0.03863978
0.44843596 -0.19083177 0.038976628
0.44750026 -0.19050318 0.03931348
0.4465659 -0.19017291 0.039650358
0.44611651 -0.19074987 0.039641175
0.44518414 -0.19041704 0.039978094
0.44473541 -0.19099316 0.039968923
0.44380504 -0.19065778 0.040305886
0.44287592 -0.19032066 0.040642895
0.44194821 -0.18998186 0.040979911
0.44102177 -0.18964137 0.041316953
0.44009668 -0.18929918 0.041654024
0.43917289 -0.18895525 0.041991141
0.43825045 -0.18860964 0.042328265
0.43732932 -0.18826236 0.042665415
0.43640956 -0.18791334 0.043002594
0.43549109 -0.18756264 0.043339796
0.43457392 -0.18721022 0.043677051
0.43365812 -0.18685609 0.044014309
0.43230352 -0.18706535 0.0443426
0.43139103 -0.18670698 0.044679929
0.43047988 -0.1863469 0.045017283
0.42956999 -0.18598512 0.045354687
0.42866147 -0.18562165 0.045692094
0.42775428 -0.18525647 0.04602953
0.42684841 -0.18488958 0.04636699
0.42641228 -0.18544956 0.046358075
0.42550838 -0.18508008 0.046695601
0.42460582 -0.18470897 0.047033131
0.42370459 -0.18433613 0.047370687
0.42280471 -0.18396159 0.047708273
0.42190611 -0.18358536 0.048045885
0.42100883 -0.18320741 0.048383545
0.42057669 -0.18376225 0.048374712
0.42014453 -0.18431708 0.048365884
0.41924995 -0.18393573 0.048703574
0.41835669 -0.1835527 0.049041294
0.41746473 -0.18316796 0.04937904
0.48216224 -0.12108976 0.045056991
0.4817228 -0.12165397 0.04504801
0.48128337 -0.12221817 0.045039028
0.4808439 -0.12278237 0.045030046
0.48040447 -0.12334659 0.045021065
0.47996503 -0.12391079 0.045012083
0.47843555 -0.12281586 0.045694795
0.47799745 -0.12337836 0.045685839
0.47755933 -0.12394086 0.045676887
0.4771212 -0.12450337 0.045667931
0.47668311 -0.12506588 0.045658976
0.47624499 -0.12562838 0.045650024
0.47580689 -0.12619087 0.045641068
0.47590917 -0.12758891 0.045286164
0.47601008 -0.12898862 0.044931255
0.47826585 -0.13373892 0.043192472
0.47836146 -0.13514546 0.042837452
0.4795312 -0.13823155 0.041790418
0.48069692 -0.1413227 0.040743329
0.48132232 -0.14357838 0.040042143
0.48248076 -0.14667891 0.038994901
0.48256513 -0.14809994 0.038639627
0.48318255 -0.1503658 0.037938304
0.48379734 -0.1526351 0.037236899
0.48387641 -0.1540629 0.036881544
0.4839541 -0.1554924 0.036526158
0.48403051 -0.15692361 0.036170747
0.48463669 -0.15920396 0.035469167
0.48470977 -0.16063942 0.035113689
0.48478153 -0.16207658 0.034758184
0.48485196 -0.16351543 0.034402654
0.48492107 -0.164956 0.034047093
0.48446107 -0.1655466 0.034037691
0.4840011 -0.16613717 0.034028288
0.4835411 -0.16672775 0.034018889
0.48308113 -0.16731834 0.034009486
0.48262113 -0.16790892 0.034000088
0.48216116 -0.1684995 0.033990685
0.48170117 -0.16909009 0.033981282
0.48124117 -0.16968068 0.033971883
0.4807812 -0.17027126 0.033962481
0.48084307 -0.17172122 0.033606749
0.48038241 -0.17231266 0.033597335
0.47992176 -0.17290409 0.033587921
0.4794611 -0.17349553 0.033578508
0.47900048 -0.17408696 0.033569094
0.47853982 -0.17467842 0.033559676
0.47807917 -0.17526984 0.033550262
0.47761852 -0.17586128 0.033540849
0.47715789 -0.17645271 0.033531435
0.47669724 -0.17704415 0.033522017
0.47623658 -0.17763558 0.033512603
0.47577593 -0.17822702 0.03350319
0.4753153 -0.17881845 0.033493776
0.47485465 -0.17940991 0.033484362
0.47439399 -0.18000133 0.033474945
0.47393334 -0.18059278 0.033465531
0.47347271 -0.1811842 0.033456117
0.47301206 -0.18177564 0.033446703
0.47204149 -0.18149237 0.033783861
0.47158152 -0.18208297 0.033774462
0.47112152 -0.18267356 0.033765059
0.47066155 -0.18326414 0.03375566
0.47020155 -0.18385471 0.033746257
0.46974155 -0.18444532 0.033736855
0.46877569 -0.18415615 0.034074087
0.46831638 -0.18474588 0.034064699
0.46735251 -0.18445414 0.034401972
0.46689382 -0.18504302 0.034392599
0.46643516 -0.18563192 0.034383222
0.46597654 -0.18622078 0.03437385
0.46501595 -0.18592481 0.03471119
0.46455795 -0.18651283 0.034701832
0.46409994 -0.18710087 0.03469247
0.46364194 -0.1876889 0.034683108
0.46268469 -0.18738866 0.035020519
0.46222737 -0.18797584 0.035011172
0.46177003 -0.18856303 0.035001826
0.46131271 -0.1891502 0.034992479
0.46035871 -0.18884566 0.035329975
0.45990205 -0.189432 0.035320643
0.4589501 -0.18912496 0.035658158
0.45849407 -0.18971044 0.035648838
0.45754412 -0.18940082 0.035986397
0.45708877 -0.18998545 0.035977092
0.45614082 -0.1896733 0.036314689
0.45568612 -0.19025709 0.036305394
0.45523146 -0.19084086 0.036296103
0.45477676 -0.19142464 0.036286809
0.45383209 -0.19110823 0.036624476
0.45337808 -0.19169115 0.036615197
0.45243534 -0.19137217 0.036952924
0.45149401 -0.1910515 0.037290659
0.45055398 -0.19072913 0.03762842
0.45010194 -0.19130951 0.037619181
0.44916391 -0.19098459 0.037956983
0.44822717 -0.19065793 0.038294833
0.44729179 -0.19032961 0.038632687
0.44635773 -0.1899996 0.038970567
0.44590834 -0.19057654 0.038961384
0.44497627 -0.19024396 0.039299309
0.44452754 -0.1908201 0.039290138
0.44359747 -0.19048496 0.0396281
0.44266868 -0.1901481 0.039966114
0.44174126 -0.18980955 0.040304132
0.44081515 -0.18946932 0.040642176
0.43989035 -0.18912739 0.040980246
0.43896687 -0.18878372 0.041318372
0.43804473 -0.18843836 0.041656498
0.43712392 -0.18809134 0.041994646
0.43620446 -0.18774256 0.042332828
0.43528628 -0.18739213 0.042671036
0.43436942 -0.18703996 0.043009292
0.43345395 -0.18668608 0.043347552
0.43209967 -0.18689559 0.043676849
0.43118748 -0.18653747 0.044015177
0.4302766 -0.18617767 0.044353534
0.42936704 -0.18581614 0.044691939
0.42845881 -0.18545292 0.045030348
0.42755195 -0.18508799 0.045368787
0.42664638 -0.18472138 0.045707256
0.42621025 -0.18528134 0.045698341
0.42530665 -0.18491212 0.046036869
0.42440438 -0.18454127 0.046375401
0.42350349 -0.18416868 0.046713959
0.42260391 -0.18379439 0.047052547
0.42170563 -0.18341842 0.047391161
0.42080864 -0.18304072 0.047729824
0.42037648 -0.18359557 0.047720991
0.41948155 -0.18321532 0.048059672
0.41905007 -0.18376932 0.048050854
0.4181571 -0.18338652 0.048389576
0.41726544 -0.18300205 0.048728324
0.48184878 -0.11953273 0.044747964
0.48195866 -0.12092026 0.044392239
0.48151922 -0.12148447 0.044383258
0.48107979 -0.12204868 0.044374276
0.48064035 -0.12261288 0.044365294
0.48020092 -0.1231771 0.044356316
0.47976145 -0.1237413 0.044347335
0.47823259 -0.12264688 0.04503205
0.47725046 -0.12237924 0.045369942
0.47681302 -0.12294089 0.045361001
0.47637558 -0.12350253 0.04535206
0.47593811 -0.12406418 0.04534312
0.47550067 -0.12462584 0.045334179
0.4750632 -0.1251875 0.045325238
0.47516581 -0.1265844 0.044969372
0.47526714 -0.12798302 0.044613451
0.4753671 -0.12938334 0.044257522
0.47707993 -0.1332988 0.042860631
0.47825003 -0.1363824 0.041810639
0.47941619 -0.13947113 0.040760543
0.48004228 -0.14172456 0.040057402
0.48120114 -0.14482264 0.039007157
0.48182127 -0.14708374 0.038303893
0.48243877 -0.14934827 0.037600551
0.48305357 -0.15161619 0.036897182
0.48366576 -0.15388753 0.036193732
0.48374319 -0.15531677 0.035837345
0.48381928 -0.15674771 0.035480931
0.48442483 -0.15902756 0.034777347
0.48449761 -0.16046277 0.034420867
0.48456904 -0.16189967 0.034064356
0.4846392 -0.16333827 0.033707824
0.48470798 -0.16477858 0.033351257
0.48477548 -0.16622064 0.032994647
0.48431483 -0.16681206 0.032985233
0.4838542 -0.1674035 0.032975815
0.48339355 -0.16799493 0.032966401
0.4829329 -0.16858637 0.032956988
0.48247224 -0.16917782 0.032947574
0.48201162 -0.16976924 0.03293816
0.48155096 -0.17036068 0.032928742
0.48109031 -0.17095213 0.032919329
0.48062968 -0.17154354 0.032909915
0.480169 -0.172135 0.032900501
0.47970837 -0.17272642 0.032891087
0.47924772 -0.17331786 0.03288167
0.47878706 -0.17390929 0.032872256
0.47832641 -0.17450073 0.032862842
0.47786579 -0.17509216 0.032853428
0.47740513 -0.17568362 0.032844011
0.47694448 -0.17627503 0.032834597
0.47648382 -0.17686649 0.032825183
0.4760232 -0.17745791 0.032815769
0.47556254 -0.17804936 0.032806356
0.47510189 -0.17864078 0.032796938
0.47464123 -0.17923222 0.032787524
0.47418061 -0.17982365 0.03277811
0.47371995 -0.18041509 0.032768697
0.4732593 -0.18100652 0.032759279
