# .PCD v0.7 - Point Cloud Data file format
VERSION 0.7
FIELDS x y z
SIZE 4 4 4
TYPE F F F
COUNT 1 1 1
WIDTH 1380
HEIGHT 1
VIEWPOINT 0 0 0 1 0 0 0
POINTS 1380
DATA ascii
0.52871424 0.079702049 0.035122391
0.52832514 0.079202518 0.035114437
0.52723807 0.079293817 0.035513956
0.52684969 0.078795142 0.035506021
0.52646124 0.07829646 0.035498083
0.52607286 0.077797785 0.035490144
0.52568448 0.077299103 0.035482205
0.52529603 0.076800428 0.035474267
0.52490765 0.076301746 0.035466328
0.52382588 0.076399855 0.035865955
0.5234381 0.07590203 0.035858031
0.52305037 0.075404197 0.035850108
0.52266264 0.074906372 0.035842184
0.52227491 0.074408546 0.035834257
0.52188718 0.073910721 0.035826333
0.52149945 0.073412895 0.035818409
0.52111167 0.072915062 0.035810485
0.52072394 0.072417237 0.035802558
0.52033621 0.071919404 0.035794634
0.51994848 0.071421579 0.035786711
0.51956075 0.070923753 0.035778787
0.51917303 0.070425928 0.035770863
0.51878524 0.069928095 0.035762936
0.51839751 0.069430269 0.035755012
0.51800978 0.068932444 0.035747088
0.51762205 0.068434618 0.035739165
0.51723433 0.067936786 0.035731237
0.517528 0.066826858 0.035315506
0.51713961 0.066328175 0.035307568
0.51675123 0.065829501 0.035299629
0.51704228 0.064716168 0.034883842
0.51665324 0.064216636 0.034875892
0.51626414 0.063717104 0.034867939
0.5158751 0.063217573 0.034859989
0.515486 0.062718041 0.034852035
0.51577312 0.061599605 0.03443617
0.51538336 0.061099224 0.034428202
0.51499367 0.060598843 0.034420237
0.51460391 0.060098462 0.034412272
0.51421422 0.059598081 0.034404308
0.51382446 0.059097704 0.034396343
0.51343477 0.058597319 0.034388378
0.51304501 0.058096942 0.034380414
0.51265532 0.057596561 0.034372445
0.51226556 0.05709618 0.034364481
0.51187587 0.056595799 0.034356516
0.51148611 0.056095421 0.034348551
0.51176465 0.05496588 0.033932481
0.51137424 0.054464649 0.033924505
0.51098382 0.053963419 0.033916526
0.51125968 0.05283051 0.033500426
0.51086861 0.052328426 0.033492435
0.51114243 0.051192965 0.033076294
0.51075077 0.050690033 0.033068288
0.51102257 0.04955202 0.03265211
0.51063019 0.049048238 0.032644089
0.51090014 0.047907636 0.032227848
0.51116866 0.046765368 0.031811599
0.51143587 0.045621395 0.031395324
0.5117017 0.044475719 0.030979021
0.5113067 0.043968532 0.030970946
0.51157057 0.042820308 0.030554606
0.51117492 0.042312264 0.030546518
0.5107792 0.041804228 0.03053843
0.51104051 0.040652562 0.030122012
0.51130038 0.039499231 0.029705588
0.51155901 0.038344197 0.029289136
0.51116133 0.037833605 0.029281009
0.51141793 0.036676016 0.028864516
0.51167321 0.035516698 0.028447976
0.51192719 0.034355707 0.028031429
0.51217979 0.033193015 0.027614856
0.51243109 0.032028615 0.027198255
0.51268107 0.030862521 0.02678163
0.5129298 0.029694689 0.026364954
0.51252747 0.029178135 0.026356731
0.51212513 0.028661586 0.026348509
0.5117228 0.028145039 0.026340285
0.51132047 0.027628491 0.026332064
0.5109182 0.027111938 0.02632384
0.56345272 0.08752469 0.024679052
0.56304705 0.087003887 0.024670761
0.56264144 0.086483084 0.02466247
0.56223577 0.085962281 0.024654182
0.56038034 0.086552873 0.025461745
0.55780333 0.087703377 0.026677277
0.5566774 0.087744243 0.027077019
0.55555284 0.087786786 0.027476769
0.55442959 0.087831028 0.027876545
0.55330765 0.087876968 0.028276348
0.55218709 0.087924607 0.028676178
0.55106777 0.08797399 0.029076057
0.54994982 0.088025041 0.029475942
0.54883325 0.088077791 0.029875854
0.54771793 0.08813224 0.030275792
0.54732156 0.08762335 0.030267691
0.54620826 0.087680385 0.030667692
0.54581255 0.087172352 0.030659607
0.54470122 0.087231904 0.031059625
0.54430622 0.086724721 0.031051552
0.54319692 0.086786829 0.031451613
0.54280251 0.086280495 0.031443551
0.54169518 0.086345159 0.031843651
0.54130149 0.085839666 0.031835604
0.5409078 0.085334182 0.031827562
0.53980309 0.08540225 0.032227717
0.53941005 0.084897615 0.032219682
0.53901702 0.08439298 0.03221165
0.53791493 0.084464483 0.032611884
0.53752255 0.083960697 0.032603864
0.53713018 0.083456919 0.032595843
0.53603083 0.083531789 0.032996107
0.53563911 0.08302886 0.032988101
0.53454173 0.083106287 0.033388402
0.53415066 0.082604207 0.033380412
0.53375959 0.08210212 0.033372421
0.53336853 0.08160004 0.033364426
0.53227448 0.081681721 0.033764802
0.53188407 0.081180491 0.033756822
0.53149366 0.08067926 0.033748843
0.53040224 0.080764383 0.034149293
0.53001249 0.080264002 0.034141328
0.52892303 0.080351643 0.034541793
0.528534 0.079852112 0.03453384
0.5281449 0.07935258 0.03452589
0.52775586 0.078853048 0.034517936
0.52666974 0.078944951 0.034918472
0.52628136 0.078446269 0.034910534
0.52589291 0.077947587 0.034902595
0.52550453 0.077448912 0.034894656
0.52511615 0.076950237 0.034886718
0.5247277 0.076451555 0.034878779
0.52433932 0.07595288 0.034870844
0.52395093 0.075454198 0.034862906
0.52356255 0.074955516 0.034854967
0.52317411 0.074456841 0.034847029
0.52278572 0.073958166 0.03483909
0.52239734 0.073459484 0.034831151
0.5220089 0.072960809 0.034823213
0.52162051 0.072462127 0.034815278
0.52123213 0.071963452 0.034807339
0.52084368 0.07146477 0.034799401
0.5204553 0.070966095 0.034791462
0.52006692 0.070467412 0.034783524
0.51967853 0.069968738 0.034775585
0.51929009 0.069470055 0.034767646
0.51890171 0.068971381 0.034759711
0.51851332 0.068472698 0.034751773
0.51812488 0.067974024 0.034743834
0.51773649 0.067475341 0.034735896
0.51734811 0.066976666 0.034727957
0.51695967 0.066477984 0.034720019
0.51657128 0.065979309 0.03471208
0.51686203 0.06486623 0.034295291
0.516473 0.064366698 0.034287341
0.5160839 0.063867167 0.034279387
0.51569486 0.063367642 0.034271438
0.51598233 0.062250301 0.033854581
0.51559258 0.061749924 0.033846617
0.51520288 0.061249543 0.033838648
0.51481313 0.060749162 0.033830684
0.51442337 0.060248781 0.033822719
0.51403368 0.0597484 0.033814754
0.51364392 0.059248023 0.03380679
0.51325423 0.058747638 0.033798825
0.51286447 0.058247261 0.03379086
0.51247478 0.05774688 0.033782892
0.51208502 0.057246499 0.033774927
0.51169533 0.056746118 0.033766963
0.51197416 0.055617686 0.033349905
0.51158381 0.055116456 0.033341929
0.51119339 0.054615226 0.03333395
0.51080298 0.054113992 0.03332597
0.51107854 0.052981339 0.032908868
0.51068747 0.052479256 0.032900877
0.510961 0.051344052 0.032483734
0.51056927 0.050841119 0.032475729
0.51084083 0.04970336 0.032058548
0.51044846 0.049199577 0.032050528
0.51071805 0.048059233 0.03163328
0.51098627 0.046917219 0.031216029
0.51059258 0.046411734 0.031207982
0.51151872 0.044628084 0.030381447
0.51112372 0.044120897 0.030373374
0.51138729 0.042972926 0.02995603
0.51099157 0.042464886 0.029947942
0.51059592 0.041956849 0.029939855
0.51085687 0.040805437 0.029522432
0.5111165 0.039652362 0.029105006
0.51137477 0.038497586 0.028687552
0.51163173 0.037341103 0.02827007
0.51188743 0.036182888 0.027852541
0.5121417 0.035023008 0.027435007
0.51239473 0.033861421 0.027017444
0.51264638 0.032698132 0.026599854
0.51289666 0.031533137 0.026182238
0.51249504 0.031017441 0.026174029
0.51274341 0.029849865 0.025756352
0.51234108 0.029333312 0.025748128
0.51193875 0.028816763 0.025739906
0.51153642 0.028300216 0.025731683
0.51113415 0.027783668 0.025723461
0.51073182 0.027267113 0.025715239
0.56326479 0.087681144 0.024065435
0.56285918 0.087160341 0.024057144
0.56172758 0.087193295 0.024457771
0.56132257 0.086673342 0.024449494
0.55946845 0.087264247 0.025259055
0.55761695 0.08785855 0.026068673
0.55649132 0.087899171 0.026469421
0.55536705 0.087941453 0.026870171
0.5542441 0.087985434 0.027270949
0.55312252 0.088031121 0.027671756
0.55200225 0.088078506 0.028072588
0.55088323 0.088127635 0.028473468
0.54976559 0.088178426 0.028874358
0.5493679 0.08766783 0.02886623
0.54825228 0.087721176 0.029267156
0.54713798 0.087776221 0.029668113
0.5467416 0.087267332 0.029660013
0.54562926 0.087324969 0.030061029
0.54523355 0.086816929 0.030052943
0.54412323 0.086877085 0.030453976
0.54372817 0.086369894 0.030445904
0.54261982 0.086432599 0.030846981
0.54222548 0.085926265 0.030838922
0.5411191 0.085991524 0.031240039
0.54072541 0.085486032 0.031231992
0.539621 0.085553847 0.03163315
0.53922796 0.085049212 0.031625118
0.53883493 0.084544577 0.031617083
0.5377332 0.084615827 0.032018319
0.53734082 0.084112041 0.032010302
0.53694844 0.083608255 0.032002281
0.53584933 0.08368288 0.032403544
0.53545761 0.083179943 0.032395538
0.53506589 0.082677014 0.032387532
0.53396952 0.082755037 0.032788854
0.53357846 0.082252949 0.03278086
0.53318739 0.08175087 0.032772869
0.53279632 0.08124879 0.032764878
0.53170323 0.081331067 0.033166267
0.53131282 0.080829836 0.033158287
0.5302217 0.080914699 0.03355974
0.52983195 0.080414318 0.033551775
0.52944225 0.079913937 0.033543807
0.52835375 0.080002174 0.033945292
0.52796471 0.079502642 0.033937339
0.52757561 0.079003118 0.033929389
0.52648979 0.079094753 0.034330923
0.52610141 0.078596078 0.034322988
0.52571303 0.078097396 0.03431505
0.52532458 0.077598721 0.034307111
0.5249362 0.077100039 0.034299172
0.52454782 0.076601364 0.034291234
0.52415943 0.076102681 0.034283295
0.52377099 0.075604007 0.034275357
0.5233826 0.075105324 0.034267422
0.52299422 0.07460665 0.034259483
0.52260578 0.074107975 0.034251545
0.52221739 0.073609293 0.034243606
0.52182901 0.07311061 0.034235667
0.52144057 0.072611935 0.034227729
0.52105218 0.072113253 0.03421979
0.5206638 0.071614578 0.034211852
0.52027541 0.071115904 0.034203917
0.51988697 0.070617221 0.034195978
0.51949859 0.070118546 0.03418804
0.5191102 0.069619864 0.034180101
0.51872176 0.069121182 0.034172162
0.51833338 0.068622507 0.034164224
0.51794499 0.068123832 0.034156285
0.51755655 0.06762515 0.03414835
0.51716816 0.067126475 0.034140412
0.51677978 0.066627793 0.034132473
0.51707089 0.065515816 0.033714693
0.51668185 0.065016292 0.033706743
0.51629275 0.06451676 0.03369879
0.51590371 0.064017229 0.03369084
0.51551461 0.063517705 0.033682887
0.51580179 0.06240062 0.033265028
0.51541203 0.061900243 0.033257063
0.51502234 0.061399862 0.033249095
0.51463258 0.060899481 0.03324113
0.51424283 0.0603991 0.033233166
0.51385313 0.059898719 0.033225201
0.51346338 0.059398342 0.033217236
0.51307368 0.058897957 0.033209272
0.51268393 0.05839758 0.033201307
0.51229423 0.057897199 0.033193342
0.51190448 0.057396818 0.033185374
0.51218373 0.056269493 0.032767329
0.51179332 0.055768263 0.032759354
0.51140296 0.055267032 0.032751374
0.51101255 0.054765798 0.032743394
0.5112884 0.053634252 0.032325301
0.5108974 0.053132169 0.032317311
0.51050633 0.052630089 0.032309316
0.51077956 0.051495139 0.031891175
0.51038784 0.050992206 0.031883169
0.51065904 0.049854703 0.031464983
0.51026666 0.049350917 0.031456966
0.51053596 0.048210829 0.031038715
0.51080388 0.047069073 0.030620461
0.51041019 0.046563584 0.030612415
0.51133573 0.044780448 0.029783873
0.51094073 0.044273261 0.029775798
0.511204 0.043125547 0.029357454
0.51080829 0.042617504 0.029349366
0.51041263 0.042109467 0.029341279
0.51067328 0.040958311 0.028922854
0.51093256 0.039805494 0.028504424
0.51119053 0.038650971 0.028085968
0.51144719 0.037494745 0.027667483
0.5117026 0.036336787 0.027248953
0.51195657 0.03517716 0.026830414
0.51220924 0.034015831 0.026411848
0.51246059 0.032852795 0.025993256
0.51271063 0.031688057 0.025574639
0.51230896 0.031172361 0.025566431
0.51255703 0.030005042 0.025147747
0.5121547 0.029488487 0.025139526
0.51175237 0.02897194 0.025131302
0.5113501 0.028455392 0.02512308
0.51159477 0.027283847 0.024704352
0.56194496 0.08786945 0.023853434
0.56153995 0.087349497 0.023845157
0.56041002 0.087383866 0.024246788
0.5578329 0.08853028 0.025468294
0.55743057 0.088013731 0.025460072
0.55630523 0.088054091 0.02586182
0.55518132 0.088096112 0.026263574
0.55405867 0.088139847 0.026665356
0.55293739 0.088185273 0.027067164
0.55253768 0.087672129 0.027058996
0.55141842 0.087720111 0.027460845
0.55030036 0.087769829 0.027862743
0.54918373 0.087821223 0.028264645
0.54806834 0.087874308 0.028666576
0.54695433 0.0879291 0.029068533
0.54655802 0.08742021 0.029060433
0.54544592 0.087477587 0.029462453
0.54505026 0.086969547 0.029454367
0.54465455 0.086461507 0.02944628
0.54354519 0.086522259 0.02984833
0.54315019 0.086015068 0.029840257
0.54204279 0.086078368 0.03024235
0.54164839 0.085572034 0.03023429
0.54054302 0.08563789 0.030636424
0.54014933 0.085132405 0.030628378
0.53904593 0.085200809 0.031030552
0.5386529 0.084696174 0.031022519
0.5382598 0.084191538 0.031014487
0.53715903 0.084263384 0.031416737
0.53676665 0.083759598 0.031408716
0.53637427 0.083255813 0.031400699
0.53527617 0.083331034 0.031802978
0.53488445 0.082828097 0.031794973
0.53449273 0.082325161 0.031786967
0.53339732 0.082403786 0.032189306
0.53300625 0.081901699 0.032181311
0.53261518 0.08139962 0.032173321
0.53222412 0.080897532 0.03216533
0.53113198 0.080980405 0.032567732
0.53074163 0.080479175 0.032559756
0.5296514 0.08056464 0.032962222
0.52926171 0.080064259 0.032954257
0.52887195 0.079563878 0.032946292
0.52778447 0.079652712 0.033348791
0.52739537 0.07915318 0.033340838
0.52700633 0.078653648 0.033332888
0.52661729 0.078154117 0.033324935
0.52622819 0.077654593 0.033316985
0.5251447 0.07774853 0.033719566
0.52475625 0.077249847 0.033711627
0.52436787 0.076751173 0.033703689
0.52397949 0.07625249 0.03369575
0.5235911 0.075753815 0.033687811
0.52320266 0.075255133 0.033679873
0.52281427 0.074756458 0.033671934
0.52242589 0.074257776 0.033663996
0.52203745 0.073759101 0.033656061
0.52164906 0.073260419 0.033648122
0.52126068 0.072761744 0.033640184
0.52087224 0.072263062 0.033632245
0.52048385 0.071764387 0.033624306
0.52009547 0.071265705 0.033616368
0.51970708 0.07076703 0.033608429
0.51931864 0.070268348 0.033600494
0.51893026 0.069769673 0.033592556
0.51854187 0.069270991 0.033584617
0.51815343 0.068772316 0.033576678
0.51776505 0.068273641 0.03356874
0.51805782 0.067164473 0.033149999
0.51766878 0.066664942 0.033142049
0.51727974 0.06616541 0.033134095
0.51689065 0.065665886 0.033126146
0.51650161 0.065166354 0.033118192
0.51611251 0.064666823 0.033110242
0.51572347 0.064167291 0.033102289
0.51533437 0.063667767 0.033094339
0.51562124 0.06255094 0.032675475
0.51523149 0.062050559 0.03266751
0.51484179 0.061550181 0.032659546
0.51445204 0.061049797 0.032651581
0.51406235 0.060549419 0.032643616
0.51434523 0.059427455 0.032224648
0.51395482 0.058926225 0.032216668
0.51356441 0.058424994 0.032208692
0.51317406 0.05792376 0.032200713
0.51278365 0.05742253 0.032192733
0.5123933 0.0569213 0.032184754
0.51200289 0.056420069 0.032176774
0.51161247 0.055918835 0.032168798
0.5118894 0.054789245 0.031749729
0.51149833 0.054287162 0.031741738
0.51110727 0.053785082 0.031733748
0.5107162 0.053283002 0.031725753
0.51098979 0.052149158 0.031306621
0.51059806 0.051646221 0.031298615
0.51086968 0.050509829 0.03087944
0.5104773 0.050006043 0.030871421
0.51074696 0.048867062 0.030452183
0.51035386 0.048362426 0.030444151
0.51062149 0.047220927 0.030024894
0.5102278 0.046715438 0.030016847
0.51115274 0.044932812 0.029186299
0.51075774 0.044425625 0.029178226
0.51102066 0.043278165 0.028758878
0.510625 0.042770125 0.02875079
0.51088601 0.041620083 0.028331377
0.51048964 0.04111119 0.028323276
0.51074868 0.039958626 0.027903844
0.51100636 0.03880436 0.027484383
0.51126266 0.037648387 0.027064897
0.51151776 0.036490686 0.026645362
0.51177144 0.035331313 0.026225822
0.51202381 0.03417024 0.025806254
0.51227486 0.033007462 0.025386659
0.51252455 0.031842981 0.024967039
0.51212287 0.031327281 0.02495883
0.51237065 0.030160218 0.024539145
0.51261705 0.028991483 0.024119455
0.51221406 0.028474083 0.024111219
0.51181108 0.027956683 0.024102984
0.55845118 0.08971855 0.024876136
0.55804884 0.089202002 0.024867915
0.55764651 0.088685453 0.024859691
0.55724418 0.088168904 0.024851469
0.5561192 0.088209011 0.02525422
0.55499554 0.088250779 0.025656976
0.55387324 0.088294253 0.02605976
0.55275226 0.088339426 0.026462572
0.55235255 0.087826282 0.026454404
0.55123353 0.08787401 0.026857255
0.55011582 0.087923475 0.027260154
0.54899949 0.087974608 0.027663061
0.54860181 0.087464012 0.027654933
0.54748744 0.087517701 0.028057879
0.54637438 0.087573089 0.028460855
0.54597807 0.087064192 0.028452754
0.54486692 0.087122172 0.028855791
0.54447126 0.086614132 0.028847704
0.54407555 0.086106092 0.028839616
0.54296714 0.086167432 0.029242683
0.54257214 0.085660249 0.029234609
0.5414657 0.085724145 0.029637719
0.54036063 0.08578974 0.030040855
0.53996694 0.085284255 0.030032808
0.53886384 0.085352406 0.030435987
0.5384708 0.084847771 0.030427953
0.53807777 0.084343135 0.03041992
0.53768474 0.0838385 0.030411888
0.53658491 0.083910942 0.030815154
0.53619254 0.083407156 0.030807136
0.5358001 0.08290337 0.030799117
0.53470302 0.08297918 0.031202413
0.53431129 0.082476251 0.031194407
0.53391957 0.081973314 0.0311864
0.53282511 0.082052529 0.031589754
0.53243405 0.081550449 0.031581763
0.53204298 0.081048369 0.031573769
0.53095114 0.081130981 0.031977177
0.53056073 0.080629751 0.031969197
0.53017038 0.080128521 0.031961218
0.52908117 0.080214575 0.032364704
0.52869141 0.079714194 0.032356739
0.52830172 0.079213813 0.032348774
0.52721518 0.079303242 0.032752287
0.52682608 0.078803711 0.032744333
0.52643704 0.078304186 0.032736383
0.52604795 0.077804655 0.03272843
0.52565891 0.077305123 0.03272048
0.52526987 0.076805599 0.032712527
0.52488077 0.076306067 0.032704577
0.52449173 0.075806536 0.032696623
0.52410263 0.075307004 0.032688674
0.52371359 0.07480748 0.03268072
0.52332449 0.074307948 0.03267277
0.52293545 0.073808417 0.032664817
0.52254641 0.073308893 0.032656867
0.52215731 0.072809361 0.032648914
0.52176827 0.072309829 0.032640964
0.52137917 0.071810298 0.03263301
0.52099013 0.071310766 0.032625061
0.52060109 0.070811242 0.032617107
0.52021199 0.07031171 0.032609157
0.51982296 0.069812186 0.032601204
0.51943386 0.069312654 0.032593254
0.51904482 0.068813123 0.032585301
0.51865572 0.068313591 0.032577351
0.51826668 0.067814067 0.032569397
0.51787764 0.067314535 0.032561447
0.51748854 0.066815004 0.032553494
0.5170995 0.06631548 0.032545544
0.5167104 0.065815948 0.032537591
0.51632136 0.065316416 0.032529641
0.51593232 0.064816885 0.032521687
0.51554322 0.064317361 0.032513738
0.5158304 0.063201644 0.032093886
0.5154407 0.062701263 0.032085922
0.51505095 0.062200878 0.032077957
0.51466125 0.061700501 0.032069992
0.5142715 0.06120012 0.032062028
0.51455474 0.060079262 0.031642072
0.51416439 0.059578031 0.031634092
0.51377398 0.059076797 0.031626113
0.51338357 0.058575567 0.031618133
0.51299322 0.058074336 0.031610157
0.51260281 0.057573106 0.031602178
0.5122124 0.057071872 0.031594198
0.51182204 0.056570642 0.031586219
0.51143163 0.056069411 0.031578239
0.5117082 0.054940078 0.031158172
0.51131719 0.054437995 0.031150181
0.51092613 0.053935915 0.031142188
0.51120007 0.052803177 0.030722063
0.51080835 0.052300245 0.030714057
0.51041663 0.051797308 0.030706052
0.51068789 0.050661173 0.030285878
0.51029551 0.050157387 0.030277858
0.51056486 0.049018662 0.029857617
0.51017183 0.048514027 0.029849583
0.5104391 0.047372777 0.029429324
0.51004541 0.046867292 0.029421277
0.51096976 0.045085177 0.028588725
0.5105747 0.04457799 0.028580653
0.51083738 0.043430787 0.0281603
0.51109874 0.042281847 0.027739897
0.51070243 0.041772958 0.027731797
0.51096177 0.040621497 0.027311375
0.5112198 0.039468337 0.026890928
0.51082212 0.038957745 0.026882799
0.51107812 0.037802029 0.026462309
0.51133287 0.036644585 0.026041774
0.51158631 0.035485469 0.02562123
0.51183832 0.03432465 0.025200659
0.51208907 0.033162124 0.024780061
0.51233846 0.0319979 0.024359439
0.51193684 0.031482205 0.02435123
0.51218426 0.030315394 0.023930542
0.51243037 0.029146915 0.023509851
0.51202738 0.028629515 0.023501614
0.51227152 0.027458487 0.02308088
0.55753976 0.090426721 0.024679456
0.55786246 0.089357182 0.02425931
0.55673641 0.089395329 0.024663037
0.5570578 0.088324085 0.024242865
0.55593312 0.088363931 0.024646619
0.55480981 0.088405445 0.025050379
0.55368775 0.088448666 0.025454165
0.55256706 0.088493578 0.025857979
0.55216742 0.087980434 0.02584981
0.5510487 0.088027909 0.026253665
0.54993129 0.08807712 0.026657566
0.54881525 0.088127993 0.027061477
0.54841757 0.087617397 0.027053349
0.5473035 0.087670833 0.027457299
0.54690653 0.087161086 0.027449185
0.54579443 0.08721707 0.027853174
0.54539806 0.086708181 0.027845073
0.54428798 0.08676675 0.028249126
0.54389226 0.086258709 0.028241038
0.54278415 0.086319797 0.028645109
0.54238915 0.085812613 0.028637037
0.54128301 0.085876249 0.029041149
0.54088867 0.085369915 0.029033087
0.53978455 0.085436106 0.02943724
0.53939086 0.084930621 0.029429194
0.53828871 0.084999368 0.029833388
0.53789568 0.084494732 0.029825354
0.53750265 0.083990097 0.02981732
0.53640312 0.084062286 0.030221591
0.53601074 0.0835585 0.03021357
0.53561836 0.083054714 0.030205552
0.53522599 0.082550928 0.030197533
0.5341298 0.082627334 0.030601846
0.53373808 0.082124405 0.03059384
0.53264391 0.082203358 0.030998196
0.53225291 0.081701279 0.030990204
0.53186184 0.081199199 0.030982211
0.53147078 0.080697112 0.03097422
0.53037989 0.080780327 0.031378642
0.52998954 0.080279097 0.031370666
0.52959913 0.079777867 0.031362686
0.52851087 0.079864517 0.031767186
0.52812117 0.079364136 0.031759221
0.52773142 0.078863755 0.031751256
0.52734172 0.078363374 0.031743288
0.5262568 0.078454249 0.032147832
0.52586776 0.077954717 0.032139882
0.52547866 0.077455185 0.032131929
0.52508962 0.076955661 0.032123979
0.52470052 0.07645613 0.032116026
0.52431148 0.075956598 0.032108076
0.52392244 0.075457066 0.032100122
0.52353334 0.074957542 0.032092173
0.5231443 0.07445801 0.032084219
0.52275521 0.073958479 0.032076269
0.52236617 0.073458955 0.032068316
0.52197707 0.072959423 0.032060366
0.52158803 0.072459891 0.032052413
0.52119899 0.071960367 0.032044463
0.52080989 0.071460836 0.032036509
0.52042085 0.070961304 0.03202856
0.52003175 0.070461772 0.032020606
0.51964271 0.069962248 0.032012656
0.51925361 0.069462717 0.032004703
0.51886457 0.068963185 0.031996753
0.51847553 0.068463661 0.0319888
0.51808643 0.067964129 0.03198085
0.51769739 0.067464598 0.031972896
0.51730829 0.066965066 0.031964947
0.51759851 0.065853864 0.03154416
0.51720881 0.065353483 0.031536195
0.51681906 0.064853102 0.031528231
0.51642931 0.064352721 0.031520266
0.51603961 0.06385234 0.031512301
0.51564986 0.063351959 0.031504333
0.51526016 0.062851578 0.031496368
0.51487041 0.062351201 0.031488404
0.51515472 0.061232299 0.031067474
0.51476431 0.060731068 0.031059494
0.5143739 0.060229834 0.031051515
0.51398355 0.059728604 0.031043537
0.51359314 0.059227373 0.031035557
0.51320273 0.058726143 0.03102758
0.51281238 0.058224913 0.0310196
0.51242197 0.057723679 0.031011622
0.51203156 0.057222448 0.031003643
0.5116412 0.056721218 0.030995665
0.51191813 0.055592991 0.030574607
0.51152706 0.055090908 0.030566614
0.511136 0.054588825 0.030558622
0.51074499 0.054086745 0.030550629
0.51101857 0.05295426 0.030129503
0.51062685 0.052451331 0.030121498
0.51089853 0.051316299 0.029700331
0.51050615 0.050812513 0.029692313
0.51011378 0.050308727 0.029684294
0.51038277 0.049170259 0.029263051
0.50998974 0.048665624 0.029255018
0.51025677 0.047524631 0.028833756
0.50986302 0.047019143 0.02882571
0.51078677 0.045237541 0.027991153
0.51039171 0.044730354 0.027983079
0.51065409 0.043583408 0.027561722
0.51091516 0.042434722 0.027140317
0.51117486 0.041284371 0.026718907
0.51077783 0.040774629 0.026710793
0.51103556 0.039621722 0.026289342
0.51129198 0.038467117 0.025867863
0.51154709 0.037310775 0.025446339
0.51180083 0.036152769 0.025024805
0.51205325 0.034993056 0.024603246
0.51165289 0.034479059 0.024595065
0.51190335 0.033316791 0.024173465
0.51215243 0.03215282 0.023751838
0.51175076 0.031637125 0.023743629
0.51199794 0.030470571 0.02332194
0.51224369 0.029302347 0.022900244
0.51248819 0.028132426 0.022478523
0.51208454 0.027614174 0.022470273
0.55735368 0.090581641 0.024071857
0.556952 0.090065941 0.024063647
0.55655038 0.089550249 0.024055438
0.55687147 0.088479258 0.023634262
0.55574703 0.088518851 0.024039021
0.55462402 0.088560112 0.024443779
0.55350232 0.088603072 0.024848569
0.55238193 0.088647738 0.025253387
0.55198228 0.088134587 0.025245218
0.55086386 0.088181809 0.025650077
0.54974675 0.088230759 0.02605498
0.54863101 0.088281378 0.026459893
0.54823333 0.08777079 0.026451765
0.54711962 0.087823957 0.026856717
0.54672259 0.087314218 0.026848603
0.54561085 0.087369949 0.027253594
0.54521447 0.086861059 0.027245494
0.54410464 0.086919367 0.02765055
0.54370898 0.086411327 0.027642462
0.54331326 0.085903294 0.027634375
0.54220617 0.085964978 0.028039461
0.54181111 0.085457787 0.028031388
0.54070598 0.085522018 0.028436517
0.54031163 0.085015684 0.028428458
0.53920847 0.085082471 0.028833626
0.53881478 0.084576987 0.028825579
0.53771359 0.084646329 0.02923079
0.53732055 0.084141694 0.029222757
0.53692752 0.083637059 0.029214723
0.53582895 0.083709836 0.029620009
0.53543657 0.083206058 0.029611988
0.53504419 0.082702272 0.029603969
0.53394836 0.082778424 0.030009286
0.53355664 0.082275487 0.030001279
0.53316492 0.081772551 0.029993273
0.53207171 0.081852108 0.030398646
0.53168064 0.081350029 0.030390654
0.53128964 0.080847941 0.030382661
0.53019905 0.080930904 0.030788088
0.5298087 0.080429666 0.030780111
0.52941829 0.079928435 0.030772131
0.52902788 0.079427205 0.030764151
0.52794063 0.079514451 0.031169668
0.52755088 0.07901407 0.031161703
0.52716118 0.078513689 0.031153738
0.52677143 0.078013308 0.031145774
0.52638173 0.077512935 0.031137807
0.52599198 0.077012554 0.031129843
0.52560222 0.076512173 0.031121878
0.52521253 0.076011792 0.031113911
0.52482277 0.075511411 0.031105947
0.52443308 0.07501103 0.031097982
0.52404332 0.074510649 0.031090017
0.52365363 0.074010268 0.031082051
0.52326387 0.073509887 0.031074086
0.52287418 0.073009506 0.031066122
0.52248442 0.072509125 0.031058157
0.52209473 0.072008744 0.03105019
0.52170497 0.071508363 0.031042226
0.52131528 0.071007989 0.031034261
0.52092552 0.070507601 0.031026294
0.52053577 0.070007227 0.03101833
0.52014607 0.069506846 0.031010365
0.51975632 0.069006465 0.0310024
0.51936662 0.068506084 0.030994434
0.51897687 0.068005703 0.030986469
0.51858717 0.067505322 0.030978505
0.51819742 0.067004941 0.03097054
0.51780772 0.06650456 0.030962573
0.51741797 0.066004179 0.030954609
0.51702827 0.065503798 0.030946644
0.51663852 0.065003417 0.030938679
0.51624876 0.064503036 0.030930713
0.51585907 0.064002655 0.030922748
0.51546931 0.063502282 0.030914783
0.51575464 0.062385339 0.030492876
0.51536423 0.061884109 0.030484896
0.51497382 0.061382875 0.030476918
0.51458347 0.060881641 0.030468939
0.51419306 0.06038041 0.030460961
0.51380271 0.05987918 0.030452982
0.5134123 0.05937795 0.030445004
0.51302189 0.058876716 0.030437024
0.51330119 0.057752151 0.030015018
0.51291013 0.057250071 0.030007025
0.51251906 0.056747988 0.029999033
0.512128 0.056245904 0.02999104
0.51173699 0.055743821 0.029983049
0.51134592 0.055241738 0.029975057
0.51095486 0.054739654 0.029967064
0.51122886 0.053608283 0.029544948
0.51083714 0.053105347 0.029536942
0.51110911 0.051971424 0.029114788
0.51071674 0.051467638 0.02910677
0.51032436 0.050963856 0.029098749
0.51059377 0.049826492 0.028676519
0.51020074 0.049321856 0.028668486
0.50980765 0.048817221 0.028660454
0.51007438 0.047676485 0.028238188
0.50968063 0.047170997 0.028230142
0.51060379 0.045389906 0.027393578
0.51086646 0.044244062 0.026971234
0.51112789 0.04309649 0.02654884
0.51073158 0.042587597 0.026540739
0.51099098 0.041437503 0.026118327
0.51124901 0.040285703 0.025695886
0.51150578 0.0391322 0.025273418
0.51110744 0.038620759 0.025265276
0.51136225 0.037464675 0.024842748
0.51161569 0.036306921 0.024420213
0.51186776 0.035147466 0.023997651
0.51211858 0.033986308 0.023575062
0.51236802 0.032823443 0.023152448
0.51261616 0.031658843 0.022729782
0.51221389 0.031142294 0.022721559
0.51245999 0.02997518 0.022298874
0.51270485 0.028806366 0.021876164
0.51294833 0.027635848 0.021453425
0.55684423 0.091803856 0.023886355
0.55716765 0.090736561 0.023464255
0.55676597 0.090220869 0.023456046
0.5563643 0.089705169 0.023447838
0.55668509 0.088634431 0.02302566
0.55556101 0.08867377 0.02343142
0.55443829 0.088714778 0.023837183
0.55331689 0.088757478 0.024242975
0.5521968 0.088801891 0.024648795
0.55179715 0.088288747 0.024640625
0.55067903 0.088335708 0.025046486
0.54956222 0.088384405 0.025452394
0.54916388 0.08787296 0.025444252
0.54804915 0.087924175 0.025850181
0.54693568 0.087977089 0.026256135
0.54653865 0.08746735 0.026248021
0.5454272 0.08752282 0.026654016
0.54503083 0.08701393 0.026645916
0.54463452 0.086505041 0.026637815
0.54352564 0.086563952 0.027043886
0.54312998 0.086055912 0.027035799
0.54202312 0.086117342 0.027441887
0.54162812 0.085610151 0.027433814
0.54123306 0.08510296 0.02742574
0.54012895 0.085167795 0.027831886
0.53902608 0.085234329 0.028238056
0.53863239 0.084728844 0.02823001
0.5382387 0.084223352 0.028221963
0.53713846 0.084293291 0.028628191
0.53674543 0.083788656 0.028620157
0.5363524 0.08328402 0.028612124
0.53525484 0.083357394 0.029018426
0.53486246 0.082853615 0.029010406
0.53376693 0.082929507 0.029416725
0.5333752 0.082426578 0.029408719
0.53298348 0.081923641 0.029400714
0.53189057 0.082002938 0.029807089
0.53149951 0.081500858 0.029799096
0.53110844 0.080998771 0.029791104
0.53071743 0.080496691 0.029783111
0.53032637 0.079994611 0.029775118
0.52923745 0.080079012 0.030181576
0.52884704 0.079577781 0.030173598
0.52845669 0.079076551 0.030165618
0.52806628 0.078575321 0.030157641
0.52767587 0.078074083 0.030149661
0.52728552 0.077572852 0.030141683
0.52689511 0.077071622 0.030133704
0.5265047 0.076570392 0.030125726
0.52611434 0.076069161 0.030117746
0.52572393 0.075567931 0.030109767
0.52533352 0.075066701 0.030101789
0.52494317 0.074565463 0.03009381
0.52455276 0.074064232 0.030085832
0.52416235 0.073563002 0.030077852
0.523772 0.073061772 0.030069875
0.52338159 0.072560541 0.030061895
0.52299118 0.072059311 0.030053917
0.52260083 0.071558081 0.030045938
0.52221042 0.07105685 0.03003796
0.52182001 0.070555612 0.03002998
0.52142966 0.070054382 0.030022001
0.52103925 0.069553152 0.030014023
0.52064884 0.069051921 0.030006044
0.52025849 0.068550691 0.029998066
0.51986808 0.068049453 0.029990086
0.51947767 0.067548223 0.029982109
0.51908731 0.067046992 0.029974129
0.5186969 0.066545762 0.029966151
0.51830649 0.066044532 0.029958172
0.51791614 0.065543301 0.029950194
0.51752573 0.065042071 0.029942214
0.51713532 0.064540841 0.029934235
0.51674497 0.06403961 0.029926257
0.51635456 0.063538373 0.029918278
0.51596415 0.063037142 0.0299103
0.51624846 0.061919641 0.029487398
0.5158574 0.061417557 0.029479405
0.51546633 0.060915474 0.029471412
0.51507527 0.06041339 0.029463422
0.51468426 0.059911311 0.029455429
0.51429319 0.059409231 0.029447436
0.51390213 0.058907147 0.029439444
0.51351106 0.058405064 0.029431451
0.51312006 0.057902981 0.02942346
0.51272899 0.057400901 0.029415468
0.51233792 0.056898817 0.029407475
0.51194686 0.056396734 0.029399483
0.51155579 0.055894651 0.02939149
0.51116478 0.055392567 0.029383497
0.51143909 0.054262299 0.028960394
0.51104736 0.05375937 0.028952388
0.51131976 0.05262655 0.028529245
0.51092738 0.052122764 0.028521225
0.510535 0.051618982 0.028513206
0.51014262 0.051115196 0.028505187
0.51041168 0.049978089 0.028081954
0.51001865 0.049473453 0.02807392
0.51028568 0.04833382 0.027650665
0.50989199 0.047828339 0.027642619
0.51015705 0.046686154 0.027219325
0.51042074 0.04554227 0.026796004
0.51068318 0.044396684 0.026372658
0.51094431 0.043249365 0.025949262
0.51120406 0.042100374 0.025525859
0.51146245 0.04094968 0.025102429
0.51171958 0.039797287 0.024678972
0.51132125 0.039285846 0.024670832
0.51157641 0.038130861 0.024247315
0.51183021 0.036974218 0.023823788
0.51208264 0.035815869 0.023400238
0.51233381 0.034655817 0.022976659
0.51193279 0.034140971 0.022968464
0.51218194 0.032978363 0.022544848
0.51242983 0.03181402 0.02212118
0.5126763 0.03064801 0.021697506
0.51292151 0.029480305 0.021273807
0.51316535 0.028310895 0.020850077
0.51340789 0.027139775 0.020426326
0.55665851 0.091958523 0.023279758
0.55698156 0.090891488 0.022856655
0.55657989 0.090375789 0.022848446
0.55617821 0.089860089 0.022840237
0.55649871 0.088789612 0.022417057
0.55537492 0.08882869 0.02282382
0.55425251 0.088869438 0.023230584
0.55385149 0.088354595 0.023222391
0.5527311 0.088397898 0.023629198
0.55161196 0.088442899 0.024036033
0.55049419 0.0884896 0.024442898
0.5500952 0.087977305 0.024434743
0.54897934 0.088026598 0.024841664
0.54786491 0.08807756 0.025248596
0.54746723 0.087566972 0.02524047
0.54635477 0.087620482 0.025647439
0.54595774 0.087110743 0.025639325
0.54484725 0.087166809 0.026046338
0.54445088 0.086657919 0.026038237
0.54334235 0.08671657 0.026445311
0.54294664 0.08620853 0.026437223
0.54255098 0.08570049 0.026429137
0.54144514 0.085762516 0.026836241
0.54105008 0.085255325 0.026828168
0.53994626 0.085319899 0.027235314
0.53955185 0.084813565 0.027227255
0.53845 0.084880695 0.027634442
0.53805631 0.08437521 0.027626395
0.53766257 0.083869718 0.027618349
0.5365634 0.083940253 0.028025592
0.5361703 0.083435617 0.028017558
0.53507304 0.083508737 0.028424863
0.53468066 0.083004951 0.028416844
0.53428829 0.082501173 0.028408824
0.53319371 0.082577661 0.028816158
0.53280199 0.082074724 0.028808152
0.53170943 0.082153767 0.02921553
0.53131837 0.081651688 0.029207539
0.5309273 0.081149608 0.029199546
0.53053623 0.080647521 0.029191554
0.53014523 0.080145441 0.029183561
0.52975416 0.079643354 0.029175568
0.5293631 0.079141274 0.029167576
0.52897203 0.078639194 0.029159585
0.52858102 0.078137115 0.029151592
0.52818996 0.077635027 0.0291436
0.52779889 0.077132948 0.029135607
0.52740782 0.076630861 0.029127615
0.52701676 0.076128781 0.029119624
0.52662575 0.075626701 0.029111631
0.52623469 0.075124614 0.029103639
0.52584362 0.074622534 0.029095646
0.52545255 0.074120454 0.029087653
0.52506155 0.073618367 0.029079661
0.52467048 0.073116288 0.02907167
0.52427942 0.0726142 0.029063677
0.52388835 0.072112121 0.029055685
0.52349728 0.071610041 0.029047692
0.52310628 0.071107954 0.0290397
0.52271521 0.070605874 0.029031709
0.52232414 0.070103787 0.029023716
0.52193308 0.069601707 0.029015724
0.52154201 0.069099627 0.029007731
0.52115101 0.06859754 0.028999738
0.52075994 0.068095461 0.028991748
0.52036887 0.067593381 0.028983755
0.51997781 0.067091294 0.028975762
0.5195868 0.066589214 0.02896777
0.51919574 0.066087127 0.028959777
0.51880467 0.065585047 0.028951785
0.5184136 0.065082967 0.028943794
0.51802254 0.06458088 0.028935801
0.51763153 0.0640788 0.028927809
0.51724046 0.063576721 0.028919816
0.5168494 0.063074633 0.028911823
0.51645833 0.062572554 0.028903833
0.51606733 0.06207047 0.02889584
0.51567626 0.061568387 0.028887847
0.51528519 0.061066307 0.028879855
0.51489413 0.060564224 0.028871862
0.51450306 0.060062144 0.02886387
0.51411206 0.059560061 0.028855879
0.51372099 0.059057977 0.028847886
0.51332992 0.058555894 0.028839894
0.51293886 0.05805381 0.028831901
0.51254785 0.05755173 0.028823908
0.51215678 0.057049647 0.028815918
0.51176572 0.056547564 0.028807925
0.51137465 0.05604548 0.028799932
0.51164937 0.054916322 0.02837584
0.51125765 0.054413386 0.028367832
0.51153034 0.053281676 0.027943701
0.51113796 0.052777894 0.027935682
0.51074558 0.052274108 0.027927663
0.51035321 0.051770322 0.027919643
0.51062262 0.050634321 0.02749542
0.51022959 0.050129686 0.027487386
0.50983655 0.04962505 0.027479354
0.51010329 0.048485674 0.027055098
0.5097096 0.047980189 0.027047051
0.51063281 0.046201825 0.026206505
0.51023775 0.045694634 0.026198432
0.51049989 0.044549301 0.025774082
0.51076066 0.043402243 0.025349682
0.51102012 0.042253505 0.024925277
0.51127827 0.041103065 0.024500845
0.51153505 0.03995093 0.024076385
0.51179057 0.038797054 0.023651879
0.51204473 0.037641518 0.023227366
0.51229751 0.036484275 0.022802824
0.51254904 0.03532533 0.022378258
0.51214802 0.03481048 0.022370063
0.51239753 0.033648979 0.021945456
0.51199591 0.033133283 0.021937247
0.51224345 0.031969197 0.021512575
0.51313818 0.030154243 0.020671448
0.51273447 0.029635992 0.020663198
0.5136252 0.027815929 0.019821988
0.51386684 0.026644185 0.019397195
0.55679548 0.091046408 0.022249056
0.55639386 0.090530708 0.022240847
0.55599219 0.090015009 0.022232639
0.55631232 0.088944785 0.021808455
0.55518883 0.08898361 0.022216221
0.55478722 0.088467911 0.022208011
0.55366576 0.088509262 0.022615792
0.55254561 0.088552304 0.023023603
0.55142683 0.088597052 0.023431443
0.55102718 0.088083908 0.023423275
0.54991037 0.088131204 0.023831151
0.54879487 0.088180244 0.024239078
0.54768068 0.088230945 0.024647012
0.54728299 0.087720357 0.024638884
0.54617083 0.087773614 0.025046857
0.5457738 0.087263875 0.025038743
0.54537678 0.086754128 0.025030628
0.5442673 0.08681079 0.025438657
0.54387093 0.0863019 0.025430556
0.54276335 0.086361147 0.025838647
0.5423677 0.085853115 0.025830561
0.54197198 0.085345075 0.025822474
0.54086709 0.085407689 0.026230592
0.54047209 0.084900506 0.02622252
0.53936917 0.084965676 0.026630683
0.53897482 0.084459335 0.026622623
0.53787392 0.08452706 0.027030827
0.53748024 0.084021576 0.027022781
0.5363813 0.08409185 0.027431024
0.53598827 0.083587214 0.027422993
0.53489131 0.083660081 0.027831299
0.53449893 0.083156295 0.027823281
0.53410655 0.082652509 0.02781526
0.53301227 0.082728744 0.028223598
0.53262055 0.082225814 0.028215593
0.53222883 0.081722878 0.028207587
0.53183711 0.081219949 0.028199581
0.53074616 0.081300437 0.028607987
0.5303551 0.08079835 0.028599996
0.52996403 0.080296271 0.028592004
0.52957302 0.079794191 0.028584011
0.52918196 0.079292104 0.028576018
0.52879089 0.078790024 0.028568026
0.52839983 0.078287944 0.028560033
0.52800882 0.077785857 0.028552042
0.52761775 0.077283777 0.02854405
0.52722669 0.076781698 0.028536057
0.52683562 0.07627961 0.028528064
0.52644455 0.075777531 0.028520072
0.52605355 0.075275443 0.028512081
0.52566248 0.074773364 0.028504089
0.52527142 0.074271284 0.028496096
0.52488035 0.073769197 0.028488103
0.52448928 0.073267117 0.028480111
0.52409828 0.07276503 0.02847212
0.52370721 0.07226295 0.028464127
0.52331614 0.071760871 0.028456135
0.52292508 0.071258783 0.028448142
0.52253407 0.070756704 0.02844015
0.52214301 0.070254624 0.028432157
0.52175194 0.069752537 0.028424166
0.52136087 0.069250457 0.028416174
0.52096981 0.06874837 0.028408181
0.5205788 0.06824629 0.028400188
0.52018774 0.06774421 0.028392196
0.51979667 0.067242123 0.028384205
0.52008563 0.066131942 0.027959406
0.51969391 0.065629005 0.027951401
0.51930219 0.065126076 0.027943395
0.51891047 0.06462314 0.027935389
0.51851881 0.064120211 0.027927384
0.51812708 0.063617274 0.027919378
0.51773536 0.063114345 0.027911372
0.51734364 0.062611409 0.027903367
0.51695192 0.062108476 0.027895361
0.5165602 0.061605539 0.027887356
0.51616848 0.061102606 0.02787935
0.51577675 0.060599674 0.027871344
0.51538503 0.060096741 0.027863337
0.51499331 0.059593808 0.027855331
0.51460165 0.059090871 0.027847325
0.51420993 0.058587942 0.02783932
0.5138182 0.058085006 0.027831314
0.51342648 0.057582073 0.027823308
0.51303476 0.05707914 0.027815303
0.51264304 0.056576204 0.027807297
0.51225132 0.056073274 0.027799292
0.5118596 0.055570338 0.027791286
0.51146787 0.055067409 0.02778328
0.51174098 0.053936802 0.027358158
0.51134861 0.05343302 0.027350139
0.51095623 0.052929234 0.027342118
0.51122665 0.051795188 0.026916919
0.51083362 0.051290553 0.026908886
0.51044059 0.050785918 0.026900854
0.51004755 0.050281283 0.02689282
0.51031464 0.049143013 0.026467577
0.5099209 0.048637528 0.02645953
0.51018602 0.04749671 0.026034243
0.51044983 0.04635419 0.025608931
0.51005477 0.045846999 0.025600856
0.51031655 0.044701923 0.025175506
0.51057708 0.043555118 0.024750102
0.51083624 0.042406637 0.024324695
0.51109403 0.041256454 0.023899261
0.51135051 0.040104572 0.023473799
0.51160574 0.038950954 0.023048289
0.5118596 0.03779567 0.022622775
0.51211208 0.036638685 0.022197232
0.51236326 0.035479996 0.02177166
0.51261312 0.034319602 0.021346066
0.5122115 0.033803903 0.021337857
0.5124594 0.032640919 0.020912196
0.51270592 0.031476274 0.02048653
0.5135994 0.029660981 0.019643383
0.51319504 0.029141879 0.01963512
0.51408458 0.027321441 0.018791871
0.51367891 0.02680064 0.018783581
0.55628699 0.092267856 0.022066563
0.55660945 0.091201328 0.021641456
0.55620778 0.090685628 0.021633247
0.5558061 0.090169929 0.021625038
0.55612594 0.089099966 0.021199852
0.55500281 0.08913853 0.021608619
0.55460113 0.088622838 0.02160041
0.55347997 0.088663921 0.022009196
0.55236018 0.088706717 0.022418009
0.5512417 0.088751204 0.02282685
0.55084205 0.08823806 0.022818683
0.54972553 0.088285103 0.023227563
0.54932654 0.087772809 0.023219408
0.54821199 0.087822445 0.02362835
0.54709876 0.087873742 0.0240373
0.54670107 0.087363154 0.024029173
0.54558992 0.087417006 0.024438161
0.5451929 0.08690726 0.024430048
0.54479587 0.086397521 0.024421934
0.54368734 0.086454779 0.024830977
0.54329097 0.085945889 0.024822876
0.54218435 0.086005732 0.025231984
0.5417887 0.085497692 0.025223896
0.5406841 0.085560054 0.02563302
0.54028904 0.08505287 0.025624948
0.53989404 0.084545679 0.025616873
0.53879213 0.084611446 0.026026051
0.53769153 0.084678911 0.026435258
0.53729784 0.084173426 0.026427211
0.53619921 0.084243447 0.02683646
0.53580618 0.083738811 0.026828427
0.53541315 0.083234176 0.026820395
0.53431714 0.083307639 0.027229717
0.53392476 0.082803853 0.027221698
0.53283083 0.082879834 0.027631037
0.53243911 0.082376897 0.027623031
0.53204739 0.081873968 0.027615026
0.53165567 0.081371032 0.02760702
0.53126395 0.080868095 0.027599014
0.53087223 0.080365166 0.027591009
0.5304805 0.07986223 0.027583003
0.53008878 0.0793593 0.027574997
0.52969706 0.078856364 0.027566992
0.52930534 0.078353435 0.027558986
0.52891368 0.077850498 0.02755098
0.52852196 0.077347562 0.027542973
0.52813023 0.076844633 0.027534967
0.52773851 0.076341696 0.027526962
0.52734679 0.075838767 0.027518956
0.52695507 0.07533583 0.02751095
0.52656335 0.074832901 0.027502945
0.52617162 0.074329965 0.027494939
0.5257799 0.073827028 0.027486933
0.52538818 0.073324099 0.027478928
0.52499652 0.072821163 0.027470922
0.5246048 0.072318234 0.027462916
0.52421308 0.071815297 0.027454909
0.52382135 0.07131236 0.027446903
0.52342963 0.070809431 0.027438898
0.52303791 0.070306495 0.027430892
0.52264619 0.069803566 0.027422886
0.52225447 0.069300629 0.027414881
0.52186275 0.068797693 0.027406875
0.52147102 0.068294764 0.027398869
0.5210793 0.067791827 0.027390864
0.52068764 0.067288898 0.027382858
0.52029592 0.066785961 0.027374852
0.5199042 0.066283025 0.027366845
0.51951247 0.065780096 0.027358839
0.51912075 0.065277159 0.027350834
0.51872903 0.06477423 0.027342828
0.51833731 0.064271294 0.027334822
0.51794559 0.063768357 0.027326817
0.51755387 0.063265428 0.027318811
0.51716214 0.062762491 0.027310805
0.51677048 0.062259562 0.0273028
0.51637876 0.061756626 0.027294794
0.51598704 0.061253693 0.027286788
0.51559532 0.06075076 0.027278783
0.5152036 0.060247827 0.027270775
0.51481187 0.059744895 0.02726277
0.51442015 0.059241958 0.027254764
0.51402843 0.058739029 0.027246758
0.51363671 0.058236092 0.027238753
0.51324499 0.05773316 0.027230747
0.51285332 0.057230227 0.027222741
0.5124616 0.05672729 0.027214736
0.51206988 0.056224361 0.02720673
0.51167816 0.055721425 0.027198724
0.51195157 0.054591928 0.026772615
0.51155919 0.054088142 0.026764594
0.51116681 0.05358436 0.026756575
0.51143759 0.052451421 0.026330387
0.51104456 0.051946785 0.026322354
0.51065153 0.05144215 0.026314322
0.5102585 0.050937515 0.026306288
0.50986546 0.050432879 0.026298255
0.51013225 0.049294867 0.025872007
0.50973856 0.048789382 0.02586396
0.51000333 0.047648817 0.025437672
0.51026684 0.046506554 0.025011357
0.51052898 0.045362584 0.024585016
0.51078981 0.044216882 0.024158625
0.51104933 0.043069508 0.023732228
0.51130748 0.041920431 0.023305805
0.51156431 0.040769659 0.022879353
0.5118199 0.039617147 0.022452855
0.51207411 0.03846297 0.022026351
0.51232696 0.037307087 0.021599816
0.51257849 0.036149506 0.021173259
0.51282871 0.034990221 0.020746674
0.51242709 0.034474526 0.020738466
0.51202542 0.033958822 0.020730257
0.51227301 0.032796096 0.020303594
0.5131678 0.030983871 0.019458478
0.51405996 0.02916823 0.018613316
0.51365501 0.028648281 0.01860504
0.51389664 0.027477896 0.018178256
0.51413691 0.026305847 0.017751463
0.55714655 0.090804785 0.020615919
0.55674422 0.090288237 0.020607695
0.55634189 0.089771688 0.020599473
0.55593961 0.089255139 0.02059125
0.55481672 0.08929345 0.02100102
0.55441505 0.088777758 0.020992812
0.55329424 0.088818587 0.021402597
0.55289322 0.088303737 0.021394402
0.55177438 0.08834713 0.021804232
0.55065686 0.088392213 0.02221409
0.55025721 0.087879069 0.022205921
0.54914171 0.087926708 0.022615818
0.54802746 0.087976083 0.023025762
0.54762912 0.087464646 0.023017621
0.5465169 0.087516539 0.023427587
0.54611921 0.087005943 0.023419458
0.54500896 0.087060392 0.023829466
0.54461193 0.086550653 0.02382135
0.5442149 0.086040914 0.023813237
0.54310733 0.08609876 0.024223298
0.54200107 0.08615835 0.024633406
0.54160535 0.08565031 0.02462532
0.5412097 0.08514227 0.024617232
0.54010606 0.085205227 0.025027374
0.53971106 0.084698044 0.025019301
0.53860945 0.084763557 0.025429482
0.53821504 0.084257215 0.02542142
0.53711545 0.084325276 0.025831643
0.53672177 0.083819792 0.025823597
0.53562409 0.083890408 0.026233861
0.53523105 0.083385773 0.026225828
0.5341354 0.083458982 0.026636153
0.53374302 0.082955196 0.026628135
0.53264934 0.083030917 0.027038477
0.53225762 0.08252798 0.027030472
0.53186589 0.082025051 0.027022466
0.53147417 0.081522115 0.02701446
0.53108251 0.081019185 0.027006455
0.53069079 0.080516249 0.026998449
0.53029907 0.08001332 0.026990443
0.52990735 0.079510383 0.026982438
0.52951562 0.079007454 0.026974432
0.5291239 0.078504518 0.026966427
0.52873218 0.078001581 0.026958419
0.52834046 0.077498652 0.026950413
0.52794874 0.076995715 0.026942408
0.52755702 0.076492786 0.026934402
0.52716535 0.07598985 0.026926396
0.52677363 0.075486913 0.026918391
0.52638191 0.074983984 0.026910385
0.52599019 0.074481048 0.026902379
0.52559847 0.073978119 0.026894374
0.52520674 0.073475182 0.026886368
0.52481502 0.072972253 0.026878363
0.5244233 0.072469316 0.026870357
0.52403158 0.071966387 0.026862349
0.52363986 0.071463451 0.026854344
0.5232482 0.070960514 0.026846338
0.52285647 0.070457585 0.026838332
0.52246475 0.069954649 0.026830327
0.52207303 0.069451712 0.026822321
0.52168131 0.068948783 0.026814315
0.52128959 0.068445846 0.02680631
0.52089787 0.067942917 0.026798304
0.52050614 0.067439981 0.026790299
0.52011442 0.066937052 0.026782293
0.5197227 0.066434115 0.026774285
0.51933098 0.065931179 0.02676628
0.51893932 0.06542825 0.026758274
0.51854759 0.064925313 0.026750268
0.51815587 0.064422384 0.026742263
0.51776415 0.063919447 0.026734257
0.51737243 0.063416511 0.026726251
0.51698071 0.062913582 0.026718246
0.51658899 0.062410649 0.02671024
0.51619726 0.061907712 0.026702235
0.51580554 0.06140478 0.026694229
0.51541382 0.060901847 0.026686221
0.51502216 0.06039891 0.026678216
0.51463044 0.059895981 0.02667021
0.51423872 0.059393045 0.026662204
0.51384699 0.058890112 0.026654199
0.51345527 0.058387179 0.026646193
0.51306355 0.057884246 0.026638187
0.51267183 0.057381313 0.026630182
0.51228011 0.056878377 0.026622176
0.51188838 0.056375444 0.026614171
0.51216221 0.055247054 0.02618707
0.51176983 0.054743268 0.026179051
0.51137745 0.054239485 0.026171032
0.5116486 0.053107653 0.025743853
0.51125556 0.052603018 0.025735822
0.51086253 0.052098382 0.025727788
0.51046944 0.051593747 0.025719754
0.51073724 0.050457694 0.025292533
0.51034355 0.049952209 0.025284486
0.50994986 0.049446721 0.025276439
0.50955617 0.048941232 0.025268393
0.50982064 0.047800928 0.024841102
0.51008379 0.046658918 0.024413785
0.51034564 0.045515206 0.02398644
0.51060623 0.044369757 0.023559045
0.51086539 0.04322264 0.023131646
0.51112324 0.04207382 0.022704219
