# .PCD v0.7 - Point Cloud Data file format
VERSION 0.7
FIELDS x y z
SIZE 4 4 4
TYPE F F F
COUNT 1 1 1
WIDTH 1368
HEIGHT 1
VIEWPOINT 0 0 0 1 0 0 0
POINTS 1368
DATA ascii
0.45561644 0.06336648 0.0093398141
0.45525056 0.062896736 0.0093323365
0.45488471 0.062426988 0.0093248589
0.4551281 0.061298616 0.0088373497
0.45476159 0.060828023 0.0088298591
0.45439506 0.060357425 0.0088223675
0.45402852 0.059886832 0.0088148769
0.45366201 0.059416234 0.0088073853
0.45390144 0.058282752 0.0083198091
0.45353425 0.057811305 0.0083123045
0.45316705 0.057339858 0.0083047999
0.45340386 0.056202974 0.0078171622
0.45303598 0.055730678 0.0078096441
0.45327082 0.054591205 0.0073219365
0.45290232 0.054118063 0.0073144049
0.45253381 0.05364491 0.0073068733
0.45276594 0.052502073 0.0068191411
0.45299679 0.05135753 0.0063313814
0.45262694 0.050882675 0.0063238228
0.45345446 0.04906334 0.005355774
0.48808944 0.092455633 0.0050121765
0.48705888 0.092572808 0.0054846113
0.48565918 0.092215948 0.0059494786
0.48528868 0.091740251 0.005941906
0.48426214 0.0918625 0.0064144069
0.48323691 0.091986448 0.0068869279
0.48286775 0.091512449 0.0068793828
0.48249856 0.091038451 0.0068718377
0.48147598 0.091165811 0.0073444126
0.48110747 0.090692662 0.007336881
0.48073897 0.090219513 0.0073293494
0.47971898 0.090350308 0.0078020007
0.47935113 0.089878008 0.0077944822
0.4783332 0.090011321 0.0082671521
0.47796601 0.089539871 0.0082596475
0.47759882 0.089068428 0.0082521429
0.47658354 0.089205146 0.0087248674
0.47621703 0.088734552 0.0087173758
0.47520375 0.088873819 0.0091901412
0.47483787 0.088404074 0.0091826636
0.47447202 0.08793433 0.009175186
0.47346133 0.088077039 0.0096480269
0.47309613 0.087608144 0.0096405633
0.4727309 0.087139249 0.0096330987
0.47236571 0.086670354 0.0096256351
0.47200051 0.086201467 0.0096181715
0.47163531 0.085732572 0.0096107069
0.47127011 0.085263677 0.0096032433
0.47090489 0.084794782 0.0095957797
0.47053969 0.084325887 0.0095883152
0.47017449 0.083856992 0.0095808515
0.46980929 0.083388098 0.009573387
0.4694441 0.082919203 0.0095659234
0.46907887 0.082450308 0.0095584597
0.46871367 0.081981421 0.0095509952
0.46834847 0.081512526 0.0095435316
0.46798328 0.081043631 0.009536068
0.46761808 0.080574736 0.0095286034
0.46725285 0.080105841 0.0095211398
0.46688765 0.079636946 0.0095136752
0.46652246 0.079168059 0.0095062116
0.46615726 0.078699164 0.009498748
0.46579206 0.078230262 0.0094912834
0.46542683 0.077761374 0.0094838198
0.46506163 0.07729248 0.0094763562
0.46469644 0.076823585 0.0094688917
0.46433124 0.07635469 0.009461428
0.46396604 0.075885795 0.0094539635
0.46360081 0.0754169 0.0094464999
0.46323562 0.074948013 0.0094390363
0.46287042 0.074479111 0.0094315717
0.46250522 0.074010223 0.0094241081
0.46214002 0.073541328 0.0094166445
0.4617748 0.073072433 0.0094091799
0.4614096 0.072603539 0.0094017163
0.4610444 0.072134644 0.0093942527
0.4606792 0.071665749 0.0093867881
0.46031401 0.071196854 0.0093793245
0.45994878 0.070727967 0.00937186
0.45958358 0.070259072 0.0093643963
0.45921838 0.069790177 0.0093569327
0.45885319 0.069321282 0.0093494682
0.45848799 0.068852387 0.0093420045
0.45812276 0.068383493 0.0093345409
0.45775756 0.067914605 0.0093270764
0.45739236 0.067445703 0.0093196128
0.45702717 0.066976815 0.0093121482
0.45666194 0.066507913 0.0093046846
0.4569104 0.065386571 0.0088162655
0.45654455 0.064916834 0.0088087879
0.45617869 0.06444709 0.0088013103
0.45581281 0.063977338 0.0087938327
0.45544696 0.063507594 0.0087863551
0.45508108 0.06303785 0.0087788776
0.45532486 0.061910581 0.0082903858
0.45495832 0.061439987 0.0082828952
0.45459181 0.06096939 0.0082754036
0.45422527 0.060498796 0.008267913
0.45446572 0.059367273 0.0077793533
0.45409852 0.058895826 0.0077718487
0.45373136 0.05842438 0.0077643441
0.45336416 0.057952933 0.0077568395
0.45299697 0.057481486 0.0077493349
0.45323345 0.056344859 0.0072606937
0.4528656 0.05587256 0.0072531756
0.45310012 0.054733343 0.006764472
0.45273161 0.054260198 0.0067569404
0.4523631 0.053787049 0.0067494088
0.45259494 0.052644465 0.006260673
0.45282546 0.051500179 0.0057719103
0.45305464 0.05035419 0.0052831131
0.48511705 0.091883153 0.0053814314
0.48409081 0.092005149 0.0058549289
0.48372096 0.091530301 0.0058473698
0.48269671 0.091654845 0.0063209077
0.48232752 0.091180846 0.0063133626
0.48130527 0.091307946 0.0067869411
0.48093677 0.090834796 0.0067794095
0.48056823 0.090361647 0.0067718774
0.4795486 0.090492189 0.0072455322
0.47918072 0.090019889 0.0072380141
0.47816312 0.090152949 0.0077116871
0.47779593 0.089681499 0.0077041825
0.47742873 0.089210056 0.0076966779
0.47641376 0.089346513 0.0081704054
0.47604725 0.08887592 0.0081629148
0.47503427 0.089014933 0.0086366823
0.47466838 0.088545188 0.0086292047
0.47430253 0.088075444 0.008621728
0.47393665 0.0876057 0.0086142505
0.47357079 0.087135956 0.0086067729
0.47320491 0.086666211 0.0085992953
0.47283906 0.086196467 0.0085918177
0.47247317 0.085726723 0.0085843401
0.47210732 0.085256979 0.0085768625
0.47174147 0.084787235 0.0085693849
0.47137558 0.08431749 0.0085619073
0.47100973 0.083847739 0.0085544297
0.47064385 0.083377995 0.0085469522
0.47027799 0.08290825 0.0085394746
0.46991211 0.082438506 0.0085319979
0.46954626 0.081968762 0.0085245203
0.46918041 0.081499018 0.0085170427
0.46881452 0.081029274 0.0085095651
0.46844867 0.080559529 0.0085020876
0.46808279 0.080089785 0.00849461
0.46771693 0.079620041 0.0084871324
0.46735105 0.079150297 0.0084796548
0.4669852 0.078680553 0.0084721772
0.46661931 0.078210801 0.0084646996
0.46625346 0.077741057 0.008457222
0.46525767 0.077902235 0.0089313649
0.46552172 0.076801568 0.0084422678
0.46515587 0.076331824 0.0084347902
0.46478999 0.07586208 0.0084273126
0.46442413 0.075392336 0.008419835
0.46405825 0.074922591 0.0084123574
0.4636924 0.07445284 0.0084048798
0.46332651 0.073983096 0.0083974022
0.46296066 0.073513359 0.0083899247
0.46259478 0.073043607 0.0083824471
0.46222892 0.072573863 0.0083749695
0.46186307 0.072104119 0.0083674919
0.46149719 0.071634375 0.0083600152
0.46113133 0.07116463 0.0083525376
0.46076545 0.070694886 0.0083450601
0.4603996 0.070225142 0.0083375825
0.46003371 0.069755398 0.0083301049
0.45966786 0.069285646 0.0083226273
0.45930201 0.068815902 0.0083151497
0.45893613 0.068346165 0.0083076721
0.45857027 0.067876413 0.0083001945
0.45820439 0.067406669 0.0082927169
0.45783854 0.066936925 0.0082852393
0.45747265 0.066467181 0.0082777617
0.4571068 0.065997437 0.0082702851
0.45674092 0.065527692 0.0082628075
0.45637506 0.065057948 0.0082553299
0.45600921 0.064588204 0.0082478523
0.45564333 0.064118452 0.0082403747
0.45527747 0.063648708 0.0082328971
0.45552158 0.062522545 0.0077434154
0.45515507 0.062051952 0.0077359243
0.45478854 0.061581358 0.0077284332
0.45503002 0.060451794 0.0072388975
0.45466283 0.059980348 0.0072313929
0.45429564 0.059508901 0.0072238883
0.45392844 0.059037454 0.0072163837
0.45356125 0.058566008 0.0072088791
0.45319405 0.058094561 0.0072013745
0.45343089 0.05695904 0.0067117438
0.45306304 0.056486741 0.0067042257
0.45269519 0.056014445 0.0066967076
0.45292941 0.054875482 0.0062070005
0.4525609 0.05440234 0.0061994689
0.45279309 0.053260855 0.0057097431
0.4524239 0.052786861 0.005702198
0.45265412 0.051642828 0.0052124318
0.48354962 0.091672949 0.0052878987
0.48317978 0.091198094 0.0052803401
0.48215652 0.091323242 0.0057548946
0.48178732 0.090849236 0.0057473495
0.48076606 0.090976939 0.0062219445
0.48039752 0.090503789 0.0062144129
0.47937819 0.09063407 0.0066890707
0.47901034 0.090161771 0.0066815526
0.47864246 0.089689471 0.0066740345
0.47762582 0.089823127 0.0071487245
0.47725862 0.089351684 0.0071412199
0.47689143 0.088880233 0.0071337153
0.47587743 0.089017294 0.0076084528
0.47551093 0.088546701 0.0076009617
0.47514439 0.0880761 0.0075934706
0.47413304 0.088216558 0.0080682691
0.47376716 0.087746821 0.0080607915
0.47340131 0.08727707 0.0080533139
0.47303542 0.086807325 0.0080458364
0.47266957 0.086337581 0.0080383588
0.47230372 0.085867837 0.0080308821
0.47193784 0.085398093 0.0080234045
0.47157198 0.084928349 0.0080159269
0.4712061 0.084458604 0.0080084493
0.47084025 0.08398886 0.0080009717
0.47047436 0.083519116 0.0079934942
0.47010851 0.083049364 0.0079860166
0.46974263 0.082579628 0.007978539
0.46937677 0.082109876 0.0079710614
0.46901092 0.081640132 0.0079635838
0.46864504 0.081170388 0.0079561062
0.46827918 0.080700643 0.0079486296
0.4679133 0.080230899 0.007941152
0.46754745 0.079761155 0.0079336744
0.46718156 0.079291411 0.0079261968
0.46681571 0.078821667 0.0079187192
0.46644983 0.078351915 0.0079112416
0.46608397 0.077882171 0.007903764
0.46571812 0.077412426 0.0078962864
0.46535224 0.07694269 0.0078888088
0.46498638 0.076472938 0.0078813313
0.4646205 0.076003194 0.0078738537
0.46425465 0.07553345 0.0078663761
0.46388876 0.075063705 0.0078588994
0.46352291 0.074593961 0.0078514218
0.46315703 0.074124217 0.0078439442
0.46279117 0.073654473 0.0078364667
0.46242529 0.073184721 0.0078289891
0.46205944 0.072714977 0.0078215115
0.46169358 0.072245233 0.0078140339
0.4613277 0.071775496 0.0078065563
0.46096185 0.071305744 0.0077990787
0.46059597 0.070836 0.0077916016
0.46023011 0.070366256 0.007784124
0.45986423 0.069896512 0.0077766464
0.45949838 0.069426768 0.0077691688
0.45913252 0.068957023 0.0077616912
0.45876664 0.068487279 0.0077542136
0.45840079 0.068017527 0.0077467361
0.4580349 0.067547783 0.0077392589
0.45766905 0.067078039 0.0077317813
0.45730317 0.066608302 0.0077243038
0.45693731 0.066138551 0.0077168262
0.45657143 0.065668806 0.0077093486
0.45620558 0.065199062 0.0077018715
0.45583972 0.064729318 0.0076943939
0.45608485 0.063605115 0.0072039356
0.45571834 0.063134521 0.007196445
0.4553518 0.06266392 0.0071889535
0.45498526 0.062193327 0.0071814628
0.45522711 0.061064869 0.0066909441
0.45485991 0.060593423 0.0066834395
0.45449272 0.060121976 0.0066759349
0.45412552 0.059650525 0.0066684303
0.45375833 0.059179079 0.0066609257
0.45339113 0.058707632 0.0066534211
0.45362833 0.057573222 0.0061628004
0.45326048 0.057100922 0.0061552823
0.45289263 0.056628626 0.0061477642
0.45312721 0.055490769 0.0056570675
0.4527587 0.05501762 0.0056495359
0.45239019 0.054544475 0.0056420043
0.45262209 0.053403251 0.0051512751
0.48198551 0.091465637 0.0051964265
0.48161632 0.090991631 0.0051888814
0.48059532 0.091119073 0.0056644729
0.48022681 0.090645924 0.0056569413
0.47985831 0.090172775 0.0056494097
0.47883993 0.090303659 0.0061250846
0.47847205 0.08983136 0.006117566
0.47745574 0.089964755 0.0065932595
0.47708854 0.089493312 0.0065857549
0.47672135 0.089021862 0.0065782503
0.47570765 0.089158662 0.0070539913
0.47534111 0.088688068 0.0070465002
0.4749746 0.088217475 0.0070390091
0.47460806 0.087746873 0.007031518
0.47424152 0.08727628 0.0070240269
0.47387502 0.086805686 0.0070165358
0.47350848 0.086335085 0.0070090448
0.47314194 0.085864492 0.0070015537
0.4727754 0.085393898 0.0069940626
0.47240889 0.084923297 0.0069865715
0.47204235 0.084452704 0.0069790804
0.47167581 0.08398211 0.0069715898
0.47030488 0.08366023 0.0074400357
0.46993902 0.083190486 0.0074325581
0.46957314 0.082720742 0.0074250805
0.46920729 0.082250997 0.0074176034
0.46884143 0.081781253 0.0074101258
0.46847555 0.081311502 0.0074026482
0.4681097 0.080841765 0.0073951706
0.46774381 0.080372013 0.007387693
0.46737796 0.079902269 0.0073802159
0.46701208 0.079432525 0.0073727383
0.46664622 0.078962781 0.0073652607
0.46628034 0.078493036 0.0073577831
0.46591449 0.078023292 0.0073503056
0.46554863 0.077553548 0.007342828
0.46518275 0.077083804 0.0073353508
0.4648169 0.076614052 0.0073278733
0.46445101 0.076144308 0.0073203957
0.46408516 0.075674564 0.0073129181
0.46371928 0.075204827 0.0073054405
0.46335343 0.074735075 0.0072979629
0.46298754 0.074265331 0.0072904858
0.46262169 0.073795587 0.0072830082
0.46225581 0.073325835 0.0072755306
0.46188995 0.072856098 0.007268053
0.4615241 0.072386354 0.0072605754
0.46115822 0.07191661 0.0072530978
0.46079236 0.071446858 0.0072456202
0.46042648 0.070977114 0.0072381431
0.46006063 0.07050737 0.0072306655
0.45969474 0.070037633 0.0072231879
0.45932889 0.069567882 0.0072157104
0.45896304 0.069098137 0.0072082328
0.45859715 0.068628393 0.0072007556
0.4582313 0.068158641 0.0071932781
0.45786542 0.067688905 0.0071858005
0.45811424 0.066570066 0.0066944207
0.4577477 0.066099465 0.0066869296
0.45738119 0.065628871 0.0066794385
0.45701465 0.06515827 0.0066719474
0.45664811 0.064687677 0.0066644563
0.4562816 0.064217083 0.0066569652
0.45591506 0.06374649 0.0066494741
0.45554852 0.063275896 0.0066419831
0.45518202 0.062805295 0.006634492
0.45542419 0.061677944 0.0061429837
0.455057 0.061206494 0.0061354791
0.4546898 0.060735047 0.0061279745
0.45432264 0.0602636 0.0061204699
0.45395544 0.059792154 0.0061129653
0.45358825 0.059320707 0.0061054607
0.4538258 0.058187403 0.0056138504
0.45345792 0.057715103 0.0056063323
0.45309007 0.057242807 0.0055988142
0.45332503 0.056106061 0.0051071276
0.4529565 0.055632912 0.005099596
0.45258799 0.055159759 0.0050920644
0.48005611 0.090788066 0.0050994768
0.47968757 0.090314917 0.0050919447
0.47866952 0.090445541 0.0055686231
0.47830167 0.089973241 0.005561105
0.47728562 0.090106383 0.0060377945
0.47691843 0.089634933 0.0060302899
0.47655123 0.08916349 0.0060227853
0.47618404 0.088692039 0.0060152807
0.47517133 0.088829443 0.0064920383
0.47480479 0.088358842 0.0064845472
0.47443828 0.087888248 0.0064770561
0.47407174 0.087417655 0.0064695654
0.4737052 0.086947061 0.0064620744
0.47333866 0.08647646 0.0064545833
0.47297215 0.086005867 0.0064470922
0.47260562 0.085535273 0.0064396011
0.47223908 0.085064672 0.00643211
0.47187257 0.084594078 0.0064246189
0.47150603 0.084123485 0.0064171278
0.47113949 0.083652884 0.0064096367
0.47077298 0.08318229 0.0064021456
0.47040644 0.082711697 0.0063946545
0.4700399 0.082241103 0.0063871639
0.4696734 0.081770502 0.0063796728
0.46930686 0.081299908 0.0063721817
0.46894032 0.080829315 0.0063646906
0.46857381 0.080358714 0.0063571995
0.46820727 0.07988812 0.0063497084
0.46784073 0.079417527 0.0063422173
0.46747422 0.078946926 0.0063347262
0.46710768 0.078476332 0.0063272351
0.46674114 0.078005739 0.006319744
0.46637464 0.077535138 0.006312253
0.46537915 0.077694662 0.00678937
0.46564156 0.07659395 0.0062972712
0.46527502 0.076123349 0.0062897797
0.46490851 0.075652756 0.006282289
0.46454197 0.075182162 0.006274798
0.46417543 0.074711561 0.0062673069
0.46380892 0.074240968 0.0062598158
0.46344239 0.073770374 0.0062523247
0.46307585 0.07329978 0.0062448336
0.46270934 0.072829179 0.0062373425
0.4623428 0.072358586 0.0062298514
0.46197626 0.071887985 0.0062223603
0.46160975 0.071417391 0.0062148692
0.46124321 0.070946798 0.0062073781
0.46087667 0.070476204 0.0061998875
0.46051016 0.070005611 0.0061923964
0.46014363 0.06953501 0.0061849053
0.45977709 0.069064409 0.0061774142
0.45941058 0.068593815 0.0061699231
0.45904404 0.068123221 0.006162432
0.4586775 0.067652628 0.0061549409
0.45831099 0.067182034 0.0061474498
0.45794445 0.066711433 0.0061399587
0.45757791 0.066240832 0.0061324676
0.45721138 0.065770239 0.0061249766
0.45684487 0.065299645 0.0061174855
0.45647833 0.064829051 0.0061099944
0.45611179 0.064358458 0.0061025037
0.45574528 0.063887857 0.0060950126
0.45598847 0.062762462 0.0056025279
0.4556213 0.062291015 0.0055950233
0.45525411 0.061819568 0.0055875187
0.45488691 0.061348122 0.0055800141
0.45451972 0.060876675 0.0055725095
0.45475894 0.059746176 0.0050799432
0.45439109 0.059273876 0.0050724251
0.45402324 0.058801576 0.005064907
0.45365539 0.058329284 0.0050573889
0.45328754 0.057856988 0.0050498708
0.47813126 0.090115122 0.0050046365
0.47674835 0.089776561 0.0054748319
0.47638115 0.089305118 0.0054673273
0.47601396 0.088833667 0.0054598227
0.47564676 0.088362224 0.0054523181
0.474635 0.088500217 0.0059300927
0.47426847 0.088029616 0.0059226016
0.47390196 0.087559022 0.0059151105
0.47353542 0.087088428 0.0059076194
0.47316888 0.086617827 0.0059001283
0.47280237 0.086147234 0.0058926372
0.47243583 0.08567664 0.0058851461
0.47206929 0.085206039 0.005877655
0.47170278 0.084735446 0.0058701644
0.47133625 0.084264852 0.0058626733
0.47096971 0.083794259 0.0058551822
0.47060317 0.083323658 0.0058476911
0.47023666 0.082853064 0.0058402
0.46987012 0.08238247 0.0058327089
0.46950358 0.081911869 0.0058252178
0.46913707 0.081441276 0.0058177267
0.46877053 0.080970682 0.0058102356
0.468404 0.080500089 0.0058027445
0.46803749 0.080029488 0.0057952534
0.46767095 0.079558894 0.0057877623
0.46730441 0.0790883 0.0057802717
0.4669379 0.078617699 0.0057727806
0.46657136 0.078147106 0.0057652895
0.46620482 0.077676512 0.0057577984
0.46520966 0.077835776 0.0062359115
0.46547177 0.076735318 0.0057428163
0.46510524 0.076264717 0.0057353252
0.46473873 0.075794123 0.0057278341
0.46437219 0.07532353 0.005720343
0.46400565 0.074852936 0.0057128519
0.46363914 0.074382342 0.0057053608
0.4632726 0.073911741 0.0056978697
0.46290606 0.073441148 0.0056903791
0.46253952 0.072970547 0.0056828875
0.46217301 0.072499953 0.0056753969
0.46180648 0.07202936 0.0056679058
0.46143994 0.071558766 0.0056604147
0.46107343 0.071088165 0.0056529236
0.46070689 0.070617571 0.0056454325
0.46034035 0.070146978 0.0056379414
0.45997384 0.069676377 0.0056304503
0.4596073 0.069205783 0.0056229592
0.45924076 0.06873519 0.0056154681
0.45887426 0.068264589 0.005607977
0.45850772 0.067793995 0.005600486
0.45814118 0.067323402 0.0055929953
0.45777467 0.066852808 0.0055855042
0.45740813 0.066382207 0.0055780131
0.45704159 0.065911613 0.005570522
0.45667508 0.065441012 0.005563031
0.45691997 0.064318433 0.0050695837
0.45655277 0.063846983 0.0050620791
0.45618558 0.063375533 0.0050545745
0.45581838 0.06290409 0.0050470699
0.45545119 0.062432643 0.0050395653
0.455084 0.061961196 0.0050320607
0.47373214 0.087700397 0.005360649
0.47336563 0.087229803 0.0053531579
0.4729991 0.086759202 0.0053456668
0.47263256 0.086288609 0.0053381757
0.47226605 0.085818015 0.0053306846
0.47189951 0.085347414 0.0053231935
0.47153297 0.08487682 0.0053157024
0.47116646 0.084406227 0.0053082113
0.47079992 0.083935626 0.0053007202
0.47043338 0.083465032 0.0052932291
0.47006688 0.082994439 0.005285738
0.46970034 0.082523845 0.0052782474
0.4693338 0.082053244 0.0052707563
0.46896726 0.081582651 0.0052632652
0.46860075 0.081112057 0.0052557741
0.46823421 0.080641456 0.005248283
0.46786767 0.080170862 0.0052407919
0.46750116 0.079700269 0.0052333008
0.46713462 0.079229668 0.0052258098
0.46676809 0.078759074 0.0052183187
0.46640158 0.078288481 0.0052108276
0.46603504 0.07781788 0.0052033365
0.46504018 0.077976897 0.005682453
0.46530199 0.076876692 0.0051883548
0.46493545 0.076406091 0.0051808632
0.46456891 0.075935498 0.0051733726
0.4642024 0.075464904 0.0051658815
0.46383587 0.074994303 0.0051583904
0.46346933 0.07452371 0.0051508993
0.46310282 0.074053116 0.0051434082
0.46273628 0.073582523 0.0051359171
0.46236974 0.073111922 0.005128426
0.4620032 0.072641328 0.0051209349
0.46163669 0.072170727 0.0051134438
0.46487069 0.078118011 0.0051290016
0.46032378 0.066173933 0.043698091
0.46065542 0.067251347 0.043715421
0.46098706 0.068328775 0.043732747
0.46131867 0.069406189 0.043750074
0.46165031 0.070483617 0.043767404
0.46198195 0.071561046 0.04378473
0.46231359 0.07263846 0.043802056
0.46264523 0.073715888 0.043819387
0.46297684 0.074793302 0.043836713
0.46330848 0.07587073 0.043854039
0.46364012 0.076948144 0.043871369
0.46482426 0.077586316 0.044234034
0.46515557 0.078662701 0.044251345
0.46633863 0.079297796 0.044613946
0.46666965 0.080373153 0.044631243
0.46870297 0.080561772 0.045339059
0.46988425 0.081190623 0.045701589
0.47021431 0.082262881 0.045718834
0.46098498 0.060949259 0.043227226
0.46131599 0.062024619 0.043244518
0.46079072 0.063525692 0.042915225
0.46026596 0.065028854 0.042585943
0.4605976 0.066106282 0.042603273
0.46092924 0.067183696 0.042620599
0.46126086 0.068261124 0.042637926
0.4615925 0.069338538 0.042655256
0.46192414 0.070415966 0.042672582
0.46225578 0.071493395 0.042689908
0.46258739 0.072570808 0.042707238
0.46291903 0.073648237 0.042724565
0.46325067 0.074725658 0.042741891
0.46358231 0.075803079 0.042759221
0.46391392 0.0768805 0.042776547
0.46509781 0.077518739 0.04314027
0.46542913 0.078595124 0.043157581
0.46661192 0.079230279 0.043521229
0.46694294 0.080305643 0.043538522
0.46897575 0.080494381 0.044248447
0.47015676 0.081123307 0.044612024
0.47048679 0.082195565 0.044629268
0.46996683 0.083714247 0.044300232
0.47029719 0.084787525 0.044317491
0.47062755 0.085860811 0.044334751
0.47095791 0.08693409 0.044352014
0.47128826 0.08800739 0.044369273
0.47161862 0.089080669 0.044386536
0.47110099 0.090606555 0.044057649
0.47058389 0.092134528 0.043728758
0.47091487 0.093209878 0.043746054
0.47209302 0.093829513 0.044109482
0.4724237 0.094903834 0.04412676
0.46601552 0.047474921 0.045109399
0.46634367 0.048540965 0.045126546
0.46495393 0.050439734 0.044448093
0.46528271 0.051507846 0.04446527
0.46475315 0.052994408 0.044134662
0.46422419 0.054483019 0.04380409
0.463696 0.055973694 0.043473586
0.46316835 0.05746644 0.043143082
0.46264133 0.058961276 0.042812608
0.46211502 0.06045815 0.042482208
0.46158928 0.061957106 0.042151809
0.46106428 0.063458107 0.041821461
0.46053979 0.06496121 0.041491132
0.46087143 0.066038638 0.041508459
0.46120304 0.067116052 0.041525785
0.46153468 0.06819348 0.041543115
0.46186632 0.069270894 0.041560441
0.46219796 0.070348322 0.041577768
0.4625296 0.071425751 0.041595098
0.46286121 0.072503164 0.041612424
0.46319285 0.073580593 0.041629754
0.46352449 0.074658006 0.04164708
0.46385613 0.075735435 0.041664407
0.46418774 0.076812848 0.041681733
0.46537137 0.077451155 0.042046502
0.46570268 0.078527547 0.042063814
0.46688521 0.079162762 0.042428516
0.46721622 0.080238126 0.042445809
0.46839792 0.080870219 0.042810485
0.46957886 0.081500277 0.04317509
0.46990922 0.082573563 0.043192349
0.47023958 0.083646856 0.043209612
0.47056997 0.084720142 0.043226872
0.47090033 0.085793421 0.043244135
0.47123069 0.086866707 0.043261394
0.47156104 0.08794 0.043278657
0.4718914 0.089013286 0.043295916
0.47137403 0.090539105 0.042965986
0.47085717 0.092067011 0.042636048
0.47118816 0.09314236 0.042653341
0.47236606 0.093762062 0.043017816
0.4735432 0.094379716 0.043382224
0.47387356 0.095452994 0.043399483
0.47504982 0.096067511 0.043763883
0.47537988 0.097139761 0.043781128
0.47655523 0.097751185 0.044145469
0.4777298 0.098360576 0.04450975
0.47890389 0.098967865 0.044874027
0.47923297 0.10003702 0.04489122
0.46735007 0.044451587 0.044689689
0.46767756 0.045515563 0.044706799
0.46800506 0.046579544 0.044723909
0.46661457 0.048474036 0.044043284
0.466084 0.049956385 0.043711562
0.46555415 0.051440783 0.04337991
0.46502486 0.052927282 0.043048251
0.46449617 0.054415829 0.04271663
0.46396825 0.055906437 0.042385075
0.46344084 0.057399116 0.042053521
0.46291408 0.058893893 0.041721996
0.46238807 0.0603907 0.041390546
0.46186256 0.061889589 0.041059088
0.46133783 0.063390531 0.040727694
0.46081361 0.064893566 0.04039631
0.46114522 0.065970995 0.04041364
0.46147686 0.067048408 0.040430967
0.4618085 0.068125837 0.040448293
0.46214014 0.06920325 0.040465623
0.46247175 0.070280679 0.040482949
0.46280339 0.071358107 0.040500276
0.46313503 0.072435521 0.040517606
0.46346667 0.073512949 0.040534932
0.46379828 0.074590363 0.040552258
0.46412992 0.075667791 0.040569589
0.46446157 0.076745205 0.040586915
0.46564493 0.077383578 0.040952735
0.46597624 0.078459963 0.040970046
0.46630755 0.079536349 0.040987357
0.46748951 0.080170609 0.041353092
0.46867093 0.080802768 0.041718822
0.46900162 0.08187709 0.041736096
0.46933231 0.082951412 0.041753374
0.46966299 0.084025733 0.041770652
0.46999365 0.085100055 0.04178793
0.47032434 0.086174384 0.041805208
0.47065502 0.08724869 0.041822486
0.47098568 0.088323012 0.041839764
0.47131637 0.089397334 0.041857041
0.47079948 0.090924151 0.041526034
0.47113046 0.091999501 0.041543327
0.47146147 0.093074843 0.041560624
0.47263908 0.093694612 0.041926153
0.47381595 0.094312325 0.042291611
0.47414631 0.095385611 0.042308874
0.47532234 0.096000187 0.042674318
0.4756524 0.097072445 0.042691562
0.47682744 0.097683929 0.043056961
0.47800177 0.098293386 0.043422285
0.4791756 0.098900735 0.043787617
0.47950467 0.099969886 0.043804813
0.48067752 0.10057412 0.044170093
0.48100629 0.10164224 0.04418727
0.48217806 0.10224341 0.044552464
0.48334932 0.10284249 0.044917662
0.48367745 0.10390853 0.044934805
0.4840056 0.10497459 0.044951949
0.47008047 0.039556872 0.044957258
0.47040671 0.040616721 0.044974301
0.46987298 0.042087615 0.044641379
0.46933982 0.043560598 0.044308461
0.46794796 0.045448765 0.043625638
0.46827546 0.046512742 0.043642752
0.46688551 0.048407104 0.042960022
0.46635517 0.049889389 0.042627245
0.46582562 0.051373724 0.042294547
0.46529657 0.052860156 0.041961838
0.46476814 0.054348636 0.041629165
0.46424049 0.055839181 0.04129656
0.46371335 0.057331797 0.040963955
0.46318683 0.058826506 0.04063138
0.46266109 0.06032325 0.040298879
0.46213585 0.061822075 0.039966367
0.46161136 0.063322946 0.03963393
0.4619427 0.064399339 0.039651237
0.46141905 0.065903351 0.039318826
0.46175069 0.066980764 0.039336152
0.46208233 0.068058193 0.039353482
0.46241394 0.069135606 0.039370809
0.46274558 0.070213035 0.039388135
0.46307722 0.071290463 0.039405465
0.46340886 0.072367877 0.039422791
0.46374047 0.073445305 0.039440118
0.46407211 0.074522719 0.039457448
0.46440375 0.075600147 0.039474774
0.46473539 0.076677561 0.0394921
0.465067 0.077754989 0.039509431
0.46624979 0.078392386 0.039876282
0.46658111 0.079468772 0.039893594
0.46691242 0.080545157 0.039910901
0.46809378 0.081178442 0.040277667
0.4684248 0.082253791 0.04029496
0.46875578 0.083329156 0.040312253
0.46908677 0.084404506 0.040329549
0.46941778 0.085479863 0.040346842
0.46974877 0.086555213 0.040364139
0.47007978 0.087630562 0.040381432
0.47041076 0.088705927 0.040398724
0.47074175 0.089781269 0.040416021
0.47107276 0.090856634 0.040433314
0.47140375 0.091931984 0.04045061
0.47173476 0.093007334 0.040467903
0.4729121 0.093627162 0.040834486
0.47408873 0.094244942 0.041200995
0.47441909 0.095318221 0.041218255
0.47559485 0.095932864 0.041584756
0.47592488 0.097005121 0.041602001
0.47709969 0.097616673 0.041968442
0.47827375 0.09822619 0.042334825
0.47860315 0.099296369 0.042352036
0.47977638 0.099902764 0.042718396
0.48094895 0.10050706 0.043084729
0.48127773 0.10157517 0.043101907
0.48244926 0.10217641 0.043468148
0.48362026 0.10277555 0.043834399
0.48394838 0.1038416 0.043851543
0.4851183 0.10443767 0.044217709
0.48628771 0.10503164 0.044583876
0.48745647 0.10562354 0.044949997
0.48778364 0.1066865 0.044967093
0.47174507 0.037614685 0.044565458
0.47207066 0.038672451 0.044582471
0.47153616 0.040140212 0.044248413
0.4701426 0.04202101 0.043563373
0.46960968 0.043493927 0.043229401
0.46821836 0.045381963 0.04254448
0.46854585 0.04644594 0.042561591
0.46715644 0.048340172 0.041876763
0.46662638 0.049822394 0.04154294
0.46609706 0.051306661 0.041209184
0.46556827 0.05279303 0.040875427
0.46504012 0.054281447 0.040541705
0.46451274 0.055771925 0.040208049
0.46398583 0.057264477 0.039874393
0.46345961 0.058759123 0.039540768
0.46293411 0.060255799 0.039207213
0.46240914 0.061754558 0.038873658
0.46274015 0.062829904 0.03889095
0.46221623 0.064331755 0.038557474
0.46169287 0.065835707 0.038224004
0.46202451 0.06691312 0.038241334
0.46235612 0.067990549 0.038258661
0.46268776 0.069067962 0.038275987
0.4630194 0.070145391 0.038293317
0.46335104 0.071222819 0.038310643
0.46368265 0.072300233 0.03832797
0.46401429 0.073377661 0.0383453
0.46434593 0.074455075 0.038362626
0.46467757 0.075532503 0.038379952
0.46500918 0.076609917 0.038397282
0.46534082 0.077687345 0.038414609
0.46652335 0.078324802 0.038782515
0.46685466 0.079401195 0.038799826
0.46718597 0.08047758 0.038817137
0.46836707 0.081110924 0.039184954
0.46869808 0.082186274 0.039202247
0.46902907 0.083261639 0.039219543
0.46936008 0.084336989 0.039236836
0.46969107 0.085412346 0.039254133
0.47002205 0.086487696 0.039271425
0.47035307 0.087563045 0.039288718
0.47068405 0.08863841 0.039306015
0.47101507 0.08971376 0.039323308
0.47134605 0.090789117 0.039340604
0.47167704 0.091864467 0.039357897
0.47200805 0.092939816 0.03937519
0.47318515 0.093559712 0.039742824
0.47436148 0.094177559 0.040110383
0.47469184 0.095250838 0.040127642
0.47586733 0.095865548 0.040495191
0.47619739 0.096937805 0.040512435
0.47737193 0.097549416 0.040879935
0.47854573 0.098159 0.04124736
0.47887513 0.099229179 0.041264571
0.48004809 0.099835634 0.041631985
0.48122042 0.10044 0.04199937
0.48154917 0.10150811 0.042016547
0.48272043 0.10210942 0.042383842
0.48389116 0.10270862 0.042751141
0.48421931 0.10377467 0.042768285
0.48538896 0.1043708 0.043135501
0.48655811 0.10496484 0.043502718
0.4885675 0.10508481 0.044219933
0.48973504 0.10567368 0.044587065
0.49090186 0.10626052 0.044954125
0.49206811 0.10684524 0.045321193
0.49239403 0.10790405 0.045338221
0.47427046 0.035270136 0.044530034
0.4745951 0.03632481 0.044546995
0.47319955 0.038197201 0.043859717
0.47266507 0.039663821 0.043524627
0.47127163 0.041543484 0.042837434
0.46987954 0.043427255 0.042150345
0.46848875 0.045315161 0.041463319
0.46881625 0.046379142 0.041480433
0.46742737 0.048273243 0.040793501
0.46689758 0.049755398 0.040458631
0.46636853 0.051239602 0.040123824
0.46583998 0.052725904 0.039789021
0.46531209 0.054214258 0.03945424
0.46478498 0.055704672 0.039119534
0.46425834 0.057197157 0.038784828
0.46373236 0.058691736 0.038450152
0.46320716 0.060188346 0.03811555
0.46353781 0.061262671 0.038132828
0.46301344 0.062762395 0.037798233
0.46248978 0.064264178 0.037463706
0.46196669 0.065768056 0.037129186
0.4622983 0.066845469 0.037146512
0.46262994 0.067922898 0.037163839
0.46296158 0.069000319 0.037181169
0.46329322 0.07007774 0.037198495
0.46362484 0.071155168 0.037215821
0.46395648 0.072232589 0.037233151
0.46428812 0.073310018 0.037250478
0.46461976 0.074387431 0.037267804
0.46495137 0.07546486 0.037285134
0.46528301 0.076542273 0.037302461
0.46561465 0.077619702 0.037319787
0.46594629 0.078697115 0.037337117
0.46712822 0.079333611 0.037706058
0.46745953 0.080409996 0.03772337
0.46779084 0.081486389 0.037740681
0.46897137 0.082118757 0.03810953
0.46930236 0.083194122 0.038126823
0.46963337 0.084269471 0.038144119
0.46996436 0.085344836 0.038161412
0.47029537 0.086420186 0.038178705
0.47062635 0.087495528 0.038196001
0.47095734 0.088570893 0.038213294
0.47128835 0.089646243 0.038230591
0.47161934 0.090721607 0.038247883
0.47195032 0.09179695 0.038265176
0.47228134 0.092872299 0.038282473
0.47345817 0.093492262 0.038651157
0.47463426 0.094110169 0.039019763
0.47496462 0.095183454 0.039037026
0.47613984 0.095798224 0.039405629
0.47646987 0.096870482 0.039422873
0.47764418 0.09748216 0.039791416
0.4788177 0.098091811 0.0401599
0.47914711 0.09916199 0.040177111
0.48031983 0.099768512 0.040545579
0.48149186 0.10037294 0.040914007
0.48182064 0.10144105 0.040931184
0.48299164 0.10204242 0.041299533
0.48416209 0.10264169 0.041667879
0.48449022 0.10370774 0.041685022
0.48565963 0.10430393 0.042053297
0.48682851 0.10489804 0.042421557
0.48883736 0.10501815 0.043140873
0.49000466 0.10560707 0.043509059
0.49201131 0.10571996 0.044228259
0.493177 0.1063037 0.044596355
0.49602076 0.10593329 0.045666467
0.49718454 0.10651085 0.046034455
0.4983477 0.10708635 0.046402428
0.49867168 0.10813894 0.046419356
0.47679633 0.032932155 0.04450104
0.47711998 0.033983722 0.044517953
0.47572336 0.035850812 0.043828487
0.47432798 0.037722044 0.0431391
0.47379336 0.039187595 0.042802908
0.47240022 0.041066065 0.042113636
0.47100836 0.042948671 0.041424427
0.46961778 0.044835404 0.040735275
0.46908665 0.04631234 0.040399272
0.46769828 0.048206311 0.039710242
0.46716875 0.049688403 0.039374318
0.46663997 0.05117254 0.039038461
0.46611172 0.052658778 0.038702603
0.46558407 0.054147065 0.03836678
0.46505719 0.055637415 0.038031023
0.46453086 0.057129834 0.037695266
0.46400514 0.05862435 0.037359539
0.46348017 0.060120896 0.037023883
0.46381086 0.061195221 0.037041161
0.46328673 0.062694877 0.03670552
0.46276334 0.064196594 0.036369942
0.46309465 0.065272987 0.03638725
0.46257213 0.066777825 0.036051698
0.46290377 0.067855254 0.036069028
0.46323541 0.068932667 0.036086354
0.46356702 0.070010096 0.036103681
0.46389866 0.071087524 0.036121011
0.4642303 0.072164938 0.036138337
0.46456194 0.073242366 0.036155663
0.46489355 0.07431978 0.036172993
0.46522519 0.075397208 0.03619032
0.46555683 0.076474622 0.036207646
0.46588847 0.07755205 0.036224976
0.46622008 0.078629471 0.036242303
0.46655172 0.0797069 0.036259629
0.46688336 0.080784321 0.036276959
0.4680644 0.081418805 0.036646914
0.46839571 0.082495183 0.036664225
0.46872702 0.083571568 0.036681537
0.46905833 0.084647961 0.036698848
0.46938965 0.085724346 0.036716159
0.46972096 0.086800732 0.036733471
0.47005227 0.087877125 0.036750782
0.47038358 0.08895351 0.036768094
0.47156164 0.089578725 0.037137877
0.47189263 0.09065409 0.03715517
0.47222364 0.09172944 0.037172467
0.47255462 0.092804782 0.037189759
0.47373119 0.093424805 0.037559491
0.47490701 0.094042785 0.037929155
0.47523737 0.095116064 0.037946414
0.47641236 0.095730901 0.038316064
0.47674239 0.096803159 0.038333308
0.47791642 0.097414903 0.038702905
0.47908971 0.098024622 0.039072435
0.47941908 0.099094793 0.039089646
0.48059154 0.099701382 0.039459161
0.48176333 0.10030588 0.039828643
0.48209208 0.10137399 0.039845824
0.48326281 0.10197543 0.04021522
0.48443303 0.10257476 0.040584616
0.48476115 0.1036408 0.040601764
0.48593029 0.10423707 0.040971082
0.4870989 0.10483123 0.0413404
0.48910725 0.10495147 0.042061817
0.49111432 0.1050676 0.042783175
0.49228039 0.10565348 0.043152358
0.49428523 0.10576235 0.043873593
0.49628881 0.10586707 0.044594768
0.49745232 0.10644469 0.044963811
0.49945366 0.10654218 0.04568487
0.50145376 0.10663556 0.046405856
0.50261468 0.1072049 0.046774771
0.50293744 0.10825336 0.046791632
0.47899976 0.029552294 0.044461589
0.47932249 0.030600758 0.04447845
0.47964519 0.031649221 0.044495314
0.47824749 0.033511024 0.043803673
0.47685108 0.03537694 0.043112092
0.47545582 0.037247054 0.042420555
0.47492123 0.038711466 0.042083323
0.4735283 0.040588781 0.041391931
0.47213653 0.042470247 0.04070057
0.47074616 0.044355828 0.040009312
0.46935704 0.046245538 0.039318118
0.46796921 0.048139378 0.03862698
0.46743995 0.049621407 0.038290009
0.46691141 0.051105477 0.037953101
0.46638343 0.052591652 0.037616193
0.46585605 0.054079875 0.037279315
0.46532944 0.055570159 0.036942512
0.46480334 0.057062514 0.036605701
0.46427789 0.058556963 0.03626892
0.46375319 0.060053445 0.035932221
0.46408388 0.061127771 0.035949498
0.46356001 0.06262736 0.035612799
0.46303689 0.064129017 0.035276175
0.46336821 0.065205403 0.035293486
0.46369952 0.066281788 0.035310797
0.46403083 0.067358181 0.035328109
0.46436217 0.068434566 0.035345417
0.46469349 0.069510959 0.035362728
0.4650248 0.070587344 0.035380039
0.46450412 0.072097294 0.035043519
0.46483573 0.073174722 0.035060845
0.46516737 0.074252136 0.035078172
0.46549901 0.075329565 0.035095502
0.46583065 0.076406978 0.035112828
0.46616226 0.077484407 0.035130154
0.4664939 0.07856182 0.035147484
0.46682554 0.079639249 0.035164811
0.46715719 0.080716677 0.035182137
0.4674888 0.081794091 0.035199467
0.46782044 0.082871519 0.035216793
0.46815208 0.083948933 0.03523412
0.46848372 0.085026361 0.03525145
0.4696632 0.08565677 0.035622392
0.46999452 0.086733155 0.035639703
0.47032583 0.08780954 0.035657015
0.47065714 0.088885933 0.035674326
0.47098845 0.089962319 0.035691638
0.47131976 0.091038711 0.035708949
0.47249693 0.091661923 0.036079746
0.47282791 0.092737272 0.036097042
0.47400421 0.093357354 0.036467828
0.47517979 0.093975402 0.036838535
0.47551015 0.095048681 0.036855798
0.47668484 0.095663585 0.037226498
0.4770149 0.096735843 0.037243742
0.47818866 0.097347654 0.037614398
0.47936168 0.097957432 0.037984971
0.47969106 0.099027604 0.038002186
0.48086324 0.09963426 0.038372755
0.48203477 0.10023881 0.038743284
0.48236355 0.10130693 0.038760461
0.48353401 0.10190843 0.039130911
0.48470396 0.10250783 0.039501358
0.48503208 0.10357387 0.039518502
0.48620096 0.1041702 0.039888877
0.4873693 0.10476443 0.040259246
0.48937711 0.1048848 0.040982764
0.49138367 0.10500105 0.041706216
0.49254948 0.10558701 0.042076446
0.4945538 0.105696 0.042799782
0.49655682 0.10580086 0.043523066
0.4985587 0.10590156 0.044246297
0.50055921 0.10599815 0.044969443
0.50255841 0.10609059 0.045692511
0.50371885 0.106659 0.046062466
0.50487846 0.10722531 0.046432342
0.50603759 0.10778957 0.04680223
0.50635934 0.10883494 0.046819042
0.48465163 0.024579519 0.045850195
0.48497212 0.025620747 0.04586694
0.48098803 0.028679471 0.044106893
0.48044959 0.030130383 0.043768406
0.47991166 0.031583395 0.043429915
0.47937438 0.033038486 0.043091457
0.47883785 0.034495611 0.042753071
0.47744256 0.036363464 0.042059422
0.47604847 0.038235512 0.041365813
0.47465575 0.040111642 0.040672291
0.47326431 0.041991923 0.039978851
0.47187412 0.043876331 0.039285474
0.47048521 0.045764871 0.038592156
0.4690975 0.047657594 0.037898883
0.46771112 0.049554411 0.037205692
0.46718287 0.051038418 0.036867738
0.46665514 0.052524526 0.036529779
0.46612802 0.054012682 0.036191851
0.46560168 0.055502903 0.035853997
0.46507585 0.056995194 0.035516135
0.46455067 0.05848958 0.035178311
0.46402621 0.059985995 0.034840554
0.4643569 0.061060317 0.034857832
0.4638333 0.062559843 0.03452009
0.46331045 0.064061433 0.034182407
0.46364176 0.065137826 0.034199718
0.46397308 0.066214211 0.03421703
0.46430439 0.067290597 0.034234341
0.4646357 0.068366989 0.034251653
0.46496701 0.069443375 0.034268964
0.46529835 0.070519768 0.034286276
0.46477792 0.07202965 0.033948705
0.46510956 0.073107079 0.033966031
0.4654412 0.074184492 0.033983361
0.46577284 0.075261921 0.034000687
0.46610445 0.076339334 0.034018014
0.46643609 0.077416763 0.034035344
0.46676773 0.078494176 0.03405267
0.46709937 0.079571605 0.034069996
0.46743098 0.080649033 0.034087326
0.46776262 0.081726447 0.034104653
0.46809426 0.082803875 0.034121979
0.4684259 0.083881289 0.034139309
0.46875751 0.084958717 0.034156635
0.46908915 0.086036131 0.034173962
0.46942079 0.087113559 0.034191292
0.47059938 0.087741964 0.034563247
0.4709307 0.088818349 0.034580559
0.47126201 0.089894742 0.03459787
0.47159332 0.090971127 0.034615181
0.47277021 0.091594405 0.034987036
0.4731012 0.092669755 0.035004329
0.47427726 0.093289904 0.035376161
0.47545254 0.093908012 0.035747923
0.4757829 0.094981298 0.035765186
0.47695735 0.095596261 0.036136936
0.47728738 0.096668519 0.036154181
0.47846088 0.097280398 0.036525879
0.47963366 0.097890235 0.03689751
0.47996303 0.098960415 0.036914721
0.48113495 0.09956713 0.037286337
0.48230621 0.10017175 0.03765792
0.48263499 0.10123987 0.037675098
0.48380521 0.10184143 0.038046595
0.48497486 0.1024409 0.038418096
0.48530301 0.10350695 0.038435239
0.48647162 0.10410334 0.038806669
0.48847997 0.10422692 0.039532367
0.489647 0.10481813 0.039903708
0.49165303 0.10493451 0.04062926
0.49365789 0.1050467 0.041354783
0.49566135 0.1051548 0.042080201
0.49766356 0.10525876 0.042805564
0.49966449 0.10535857 0.043530859
0.5016641 0.10545427 0.04425608
0.50366265 0.10554579 0.044981271
0.50482231 0.10611322 0.045352217
0.5059815 0.10667858 0.04572317
0.50714004 0.10724185 0.046094086
0.5082978 0.10780308 0.046464935
0.50861895 0.10884637 0.046481714
0.48491624 0.024514146 0.044792149
0.48523673 0.025555374 0.044808894
0.48125395 0.028613772 0.043043599
0.48157606 0.029660171 0.043060426
0.48189813 0.03070657 0.043077257
0.48050085 0.032566044 0.04238138
0.47996414 0.034022097 0.042041883
0.47856909 0.035888795 0.041346125
0.4771753 0.037759628 0.040650424
0.47578278 0.039634615 0.039954796
0.47439155 0.041513726 0.039259236
0.47300145 0.043396998 0.038563699
0.47161275 0.045284383 0.037868273
0.47022533 0.047175899 0.037172914
0.4688392 0.049071576 0.03647761
0.46745431 0.050971355 0.035782378
0.46692684 0.0524574 0.035443369
0.4664 0.053945493 0.03510439
0.46587393 0.055435646 0.034765486
0.46534836 0.056927875 0.034426574
0.46482342 0.058422193 0.034087691
0.46429926 0.059918545 0.033748887
0.46462992 0.060992867 0.033766165
0.46410659 0.06249233 0.033427369
0.46358401 0.063993856 0.033088636
0.46391532 0.065070242 0.033105947
0.46424663 0.066146627 0.033123259
0.46457794 0.06722302 0.033140566
0.46490926 0.068299405 0.033157878
0.46524057 0.069375798 0.033175189
0.46557191 0.070452183 0.0331925
0.46505174 0.071962006 0.032853883
0.46538338 0.073039435 0.032871213
0.46571502 0.074116848 0.032888539
0.46604663 0.075194277 0.032905865
0.46637827 0.07627169 0.032923196
0.46670991 0.077349119 0.032940522
0.46704155 0.078426532 0.032957848
0.46737316 0.079503961 0.032975178
0.4677048 0.080581389 0.032992505
0.46803644 0.081658803 0.033009831
0.46836808 0.082736231 0.033027161
0.46869969 0.083813645 0.033044487
0.46903133 0.084891073 0.033061814
0.46936297 0.085968487 0.033079144
0.46969461 0.087045915 0.03309647
0.47087294 0.087674379 0.033469476
0.47120425 0.088750772 0.033486787
0.47153556 0.089827158 0.033504099
0.47186688 0.09090355 0.033521406
0.4730435 0.091526888 0.033894315
0.47337449 0.092602238 0.033911608
0.47455028 0.093222454 0.034284499
0.47572532 0.093840629 0.034657307
0.47605568 0.094913907 0.034674566
0.47722986 0.095528945 0.035047371
0.47755989 0.096601196 0.035064615
0.47873312 0.097213142 0.035437372
0.47990564 0.097823046 0.035810046
0.48023501 0.098893225 0.035827257
0.48140666 0.099500008 0.036199931
0.48257768 0.1001047 0.036572561
0.48290643 0.1011728 0.036589738
0.48407638 0.10177444 0.036962289
0.48524579 0.10237397 0.037334844
0.48557392 0.10344002 0.037351988
0.48758259 0.10356686 0.038079817
0.48875013 0.10416018 0.038452256
0.49075657 0.10427977 0.039179973
0.49276173 0.10439523 0.039907612
0.4939267 0.10498028 0.040279932
0.49676827 0.10461374 0.041362695
0.49876973 0.10471678 0.04209017
0.50076979 0.10481571 0.042817548
0.50276864 0.10491047 0.043544855
0.50476617 0.10500112 0.044272091
0.50592542 0.10556757 0.044644114
0.50708401 0.10613194 0.045016095
0.50824183 0.10669427 0.045388017
0.51023525 0.10677148 0.046115045
0.51055574 0.10781271 0.04613179
0.48572177 0.023007261 0.044074874
0.48604193 0.024047462 0.044091605
0.48205855 0.027099324 0.042320959
0.48238033 0.028144697 0.042337772
0.48270211 0.029190056 0.042354584
0.48302385 0.030235428 0.042371396
0.48162678 0.032093734 0.041673403
0.48109001 0.033548683 0.041332845
0.4805539 0.035005711 0.040992316
0.47916001 0.036874343 0.040294491
0.47690916 0.039157741 0.039239366
0.47637603 0.040624037 0.038899019
0.47412837 0.042917777 0.037844069
0.47273991 0.044804003 0.03714652
0.47135267 0.046694353 0.036449034
0.46996662 0.048588879 0.035751592
0.46858194 0.050487503 0.03505424
0.46719855 0.052390274 0.034356955
0.46667197 0.053878304 0.034016926
0.46614617 0.055368394 0.033676971
0.46562085 0.056860551 0.033337008
0.46509621 0.05835481 0.032997083
0.46457228 0.059851095 0.032657225
0.46490297 0.060925417 0.032674503
0.46437988 0.062424816 0.032334656
0.46385756 0.063926272 0.031994868
0.46418887 0.065002665 0.032012179
0.46452019 0.06607905 0.032029491
0.4648515 0.067155436 0.032046802
0.46518281 0.068231829 0.032064114
0.46551412 0.069308214 0.032081425
0.46584544 0.070384607 0.032098733
0.46532556 0.071894363 0.031759065
0.4656572 0.072971791 0.031776391
0.46598881 0.074049205 0.031793717
0.46632046 0.075126633 0.031811047
0.4666521 0.076204047 0.031828374
0.46698374 0.077281475 0.0318457
0.46731535 0.078358889 0.03186303
0.46764699 0.079436317 0.031880356
0.46797863 0.080513746 0.031897683
0.46831027 0.081591159 0.031915013
0.46864188 0.082668588 0.031932339
0.46897352 0.083746001 0.031949665
0.46930516 0.08482343 0.031966995
0.4696368 0.085900843 0.031984322
0.46996841 0.086978272 0.032001648
0.47114649 0.087606803 0.032375708
0.47147781 0.088683188 0.03239302
0.47180912 0.089759581 0.032410331
0.47214043 0.090835966 0.032427642
0.47331679 0.091459379 0.032801602
0.47364777 0.092534721 0.032818899
0.4748233 0.093155004 0.033192832
0.47599807 0.093773246 0.033566695
0.47632843 0.094846524 0.033583958
0.47750235 0.095461622 0.033957809
0.47783241 0.09653388 0.033975054
0.47900537 0.097145885 0.034348853
0.48017761 0.097755857 0.034722585
0.48050699 0.098826036 0.034739796
0.4816784 0.099432878 0.035113513
0.48284912 0.10003763 0.035487205
0.4831779 0.10110574 0.035504382
0.48434758 0.10170744 0.03587798
0.48551673 0.10230704 0.036251582
0.48584485 0.10337308 0.036268726
0.48785302 0.10350005 0.036998656
0.48985988 0.10362288 0.037728511
0.49102616 0.10421317 0.038101964
0.49303082 0.10432875 0.038831707
0.49503419 0.10444022 0.03956138
0.4978748 0.10407282 0.040647309
0.49987528 0.10417496 0.041376848
0.50187451 0.10427298 0.042106304
0.50387263 0.10436683 0.042835731
0.50586933 0.10445657 0.043565053
0.50702792 0.10502204 0.043938112
0.50818586 0.10558547 0.044311095
0.50934321 0.10614681 0.044684082
0.51133579 0.10622311 0.045413189
0.51249158 0.10677928 0.04578609
0.51281142 0.10781844 0.045802806
0.48598611 0.022941953 0.043017883
0.48630628 0.023982152 0.043034609
0.48318473 0.026631406 0.041617259
0.48350617 0.027675739 0.041634057
0.48382762 0.028720085 0.04165085
0.48414907 0.029764418 0.041667648
0.48275208 0.031621572 0.040967491
0.48221537 0.033075411 0.040625904
0.48253778 0.034122847 0.04064275
0.48028553 0.036398813 0.039584361
0.4788931 0.038270421 0.038884468
0.47835946 0.039734609 0.038543012
0.47611198 0.042026088 0.037484877
0.47472337 0.043910105 0.036785189
0.47333604 0.045798257 0.036085576
0.47109362 0.048106275 0.035027705
0.46970919 0.05000376 0.034328233
0.46832597 0.051905345 0.033628836
0.46779937 0.053392299 0.033287741
0.46727335 0.054881301 0.032946676
0.46674812 0.056372352 0.032605689
0.46622339 0.057865489 0.032264691
0.46569932 0.059360705 0.031923722
0.46517599 0.060857967 0.031582836
0.46465316 0.062357299 0.031241938
0.46413112 0.063858695 0.030901102
0.46446243 0.064935081 0.030918414
0.46479374 0.066011474 0.030935725
0.46512505 0.067087859 0.030953035
0.46545637 0.068164244 0.030970346
0.46578768 0.069240637 0.030987658
0.46611899 0.070317023 0.031004969
0.46559939 0.071826711 0.03066425
0.465931 0.07290414 0.030681578
0.46626264 0.073981561 0.030698905
0.46659428 0.075058982 0.030716233
0.46777558 0.075698964 0.031091522
0.4681069 0.07677535 0.031108834
0.46758917 0.078291245 0.030768216
0.46792081 0.079368673 0.030785544
0.46825245 0.080446102 0.030802872
0.46858406 0.081523515 0.030820198
0.4689157 0.082600944 0.030837527
0.46924734 0.083678357 0.030854853
0.46957898 0.084755786 0.030872181
0.46991059 0.085833199 0.030889509
0.47024223 0.086910628 0.030906837
0.47142005 0.087539218 0.031281944
0.47175136 0.088615611 0.031299256
0.47208267 0.089691997 0.031316563
0.47241399 0.090768389 0.031333875
0.47359008 0.091391861 0.031708885
0.47392106 0.092467211 0.031726178
0.47509632 0.093087554 0.032101166
0.47627082 0.093705855 0.032476079
0.47660118 0.094779141 0.032493338
0.47777486 0.095394298 0.032868244
0.47810489 0.096466556 0.032885488
0.47927761 0.097078629 0.033260342
0.48044959 0.097688667 0.033635121
0.48077899 0.098758839 0.033652332
0.4819501 0.099365756 0.034027103
0.48312056 0.099970572 0.034401845
0.48344934 0.10103869 0.034419023
0.48461875 0.10164045 0.034793667
0.48578766 0.10224011 0.03516832
0.48611578 0.10330615 0.035185467
0.48812342 0.10343325 0.035917494
0.49012977 0.1035562 0.036649451
0.49213484 0.10367504 0.037381351
0.49413875 0.10378968 0.03811321
0.49614128 0.10390024 0.038844965
0.49898076 0.10353199 0.039934035
0.50098044 0.10363325 0.040665656
0.5029788 0.10373034 0.041397195
0.50497597 0.10382333 0.042128671
0.5069719 0.10391214 0.042860121
0.50896651 0.10399684 0.043591462
0.51012349 0.10455827 0.043965474
0.51127994 0.1051176 0.044339467
0.51243579 0.10567488 0.044713441
0.51359087 0.10623009 0.045087345
0.51474547 0.10678322 0.045461252
0.51506472 0.10782032 0.04547793
0.48625046 0.022876645 0.041960888
0.48657066 0.023916844 0.041977618
