# .PCD v0.7 - Point Cloud Data file format
VERSION 0.7
FIELDS x y z
SIZE 4 4 4
TYPE F F F
COUNT 1 1 1
WIDTH 1397
HEIGHT 1
VIEWPOINT 0 0 0 1 0 0 0
POINTS 1397
DATA ascii
0.55175668 0.10022462 0.041382365
0.55063146 0.10027474 0.041769147
0.55024105 0.099773511 0.041761167
0.5498507 0.099272273 0.041753188
0.54946029 0.098771043 0.041745212
0.54906988 0.098269813 0.041737232
0.54867953 0.097768582 0.041729253
0.54828912 0.097267352 0.041721273
0.54789871 0.096766122 0.041713297
0.54750836 0.096264891 0.041705318
0.54711795 0.095763654 0.041697338
0.54672754 0.095262423 0.041689359
0.54633719 0.094761193 0.041681379
0.54594678 0.094259962 0.041673403
0.54555637 0.093758732 0.041665424
0.54516602 0.093257502 0.041657444
0.54477561 0.092756271 0.041649465
0.54438519 0.092255034 0.041641489
0.54399484 0.091753803 0.041633509
0.54432672 0.090685055 0.041230511
0.54393566 0.090182975 0.041222516
0.54354459 0.089680895 0.041214526
0.54387379 0.088608742 0.040811475
0.54348207 0.088105805 0.04080347
0.5430904 0.087602876 0.040795464
0.54341692 0.086527318 0.040392358
0.54302454 0.086023532 0.040384337
0.54263216 0.085519746 0.04037632
0.54223979 0.085015967 0.0403683
0.54184741 0.084512182 0.040360279
0.54145503 0.084008396 0.040352263
0.54106265 0.08350461 0.040344242
0.54138398 0.082422212 0.039941005
0.54099095 0.081917576 0.03993297
0.54059792 0.081412941 0.039924938
0.54020488 0.080908306 0.039916907
0.53981179 0.080403671 0.039908875
0.53941876 0.079899035 0.039900839
0.53973538 0.078810714 0.039497532
0.53934169 0.07830523 0.039489485
0.538948 0.077799745 0.039481439
0.53855431 0.07729426 0.039473392
0.53816056 0.076788768 0.039465345
0.53847325 0.075695343 0.039061956
0.53878456 0.07460022 0.038658541
0.5383895 0.074093029 0.038650464
0.53869885 0.07299535 0.038247008
0.53900689 0.071895927 0.037843503
0.53931361 0.070794843 0.037439991
0.53961897 0.069692053 0.037036449
0.53992295 0.068587564 0.036632884
0.54022574 0.067481339 0.036229268
0.53982669 0.066969045 0.036221113
0.54012746 0.065860301 0.035817482
0.54042685 0.064749859 0.03541382
0.54072487 0.063637704 0.035010133
0.54032391 0.063122861 0.035001937
0.54061997 0.062008161 0.034598205
0.54091477 0.060891721 0.034194428
0.54190391 0.05917206 0.033395085
0.54150027 0.058653809 0.033386834
0.54179108 0.057532299 0.032982998
0.54208052 0.056409091 0.032579135
0.54236871 0.055284142 0.032175221
0.54265547 0.054157529 0.031771302
0.54294097 0.053029213 0.031367358
0.54253399 0.052506704 0.031359043
0.54212701 0.051984202 0.031350724
0.58538598 0.11838386 0.034498531
0.58498365 0.11786731 0.03449031
0.58458138 0.11735076 0.034482084
0.58494669 0.11632567 0.034078777
0.5845437 0.11580827 0.03407054
0.58414072 0.11529087 0.034062304
0.58373773 0.11477347 0.034054067
0.5833348 0.11425607 0.03404583
0.58293182 0.11373867 0.034037594
0.58176512 0.11373492 0.034424528
0.58136278 0.11321837 0.034416307
0.58019805 0.1132172 0.034803297
0.57903463 0.1132177 0.035190299
0.57787257 0.11321991 0.035577323
0.57671189 0.11322382 0.035964377
0.57631218 0.11271068 0.035956208
0.57515347 0.11271714 0.036343303
0.57475448 0.11220484 0.036335148
0.57359767 0.11221389 0.036722306
0.57244223 0.1122246 0.037109468
0.57204455 0.11171401 0.03710134
0.57089114 0.11172727 0.037488542
0.56973904 0.11174225 0.037875772
0.56934267 0.11123336 0.037867673
0.56819248 0.11125091 0.038254965
0.56704372 0.11127014 0.038642261
0.56664866 0.11076295 0.038634188
0.56550187 0.11078473 0.039021526
0.56435639 0.11080821 0.039408889
0.5639627 0.11030272 0.039400842
0.56356895 0.10979724 0.039392795
0.56242615 0.10982412 0.039780214
0.56203312 0.10931949 0.039772183
0.56164008 0.10881485 0.039764151
0.56124699 0.10831022 0.039756116
0.56085396 0.10780558 0.039748084
0.56046093 0.10730094 0.039740052
0.56006789 0.10679631 0.039732017
0.55967486 0.10629167 0.039723985
0.55853796 0.10632625 0.040111549
0.55814558 0.10582247 0.040103529
0.55775321 0.10531868 0.040095512
0.55661899 0.10535663 0.040483106
0.55622727 0.1048537 0.0404751
0.55509502 0.1048942 0.040862735
0.55470395 0.10439211 0.040854745
0.55431294 0.10389003 0.04084675
0.55392188 0.10338794 0.040838759
0.55353081 0.10288586 0.040830765
0.55313975 0.10238378 0.040822774
0.55274868 0.1018817 0.040814783
0.55235767 0.10137962 0.040806789
0.55196661 0.10087754 0.040798798
0.55157554 0.10037545 0.040790804
0.55118448 0.099873371 0.040782813
0.55079347 0.099371292 0.040774822
0.5504024 0.098869205 0.040766828
0.55001134 0.098367125 0.040758837
0.54962027 0.097865045 0.040750843
0.5492292 0.097362958 0.040742852
0.5488382 0.096860878 0.040734861
0.54844713 0.096358791 0.040726867
0.54805607 0.095856711 0.040718876
0.547665 0.095354632 0.040710881
0.54727399 0.094852544 0.040702891
0.54688293 0.094350465 0.0406949
0.54649186 0.093848385 0.040686905
0.5461008 0.093346298 0.040678915
0.54570973 0.092844218 0.04067092
0.54531872 0.092342138 0.040662929
0.54492766 0.091840051 0.040654939
0.54453659 0.091337971 0.040646944
0.54414552 0.090835884 0.040638953
0.54375452 0.090333804 0.040630959
0.54336345 0.089831725 0.040622968
0.54369235 0.088759825 0.040218916
0.54330063 0.088256896 0.040210906
0.54290891 0.087753959 0.040202901
0.54323518 0.086678661 0.039798796
0.54284281 0.086174875 0.039790776
0.54245043 0.08567109 0.039782755
0.54205805 0.085167304 0.039774738
0.54166567 0.084663525 0.039766718
0.5412733 0.084159739 0.039758697
0.54088092 0.083655953 0.039750677
0.54120189 0.082573809 0.039346438
0.54080886 0.082069173 0.039338406
0.54041582 0.081564538 0.039330374
0.54002279 0.081059903 0.039322339
0.53962976 0.080555268 0.039314307
0.53923672 0.080050632 0.039306276
0.53955299 0.078962572 0.038901962
0.5391593 0.07845708 0.038893916
0.53876561 0.077951595 0.038885869
0.53837192 0.077446111 0.038877822
0.5386849 0.076353788 0.038473446
0.53899658 0.075259767 0.03806904
0.53860158 0.074752584 0.038060967
0.53891122 0.073656008 0.03765652
0.53921968 0.072557695 0.037252024
0.5395267 0.071457714 0.036847521
0.53983241 0.070356034 0.036442991
0.53943473 0.069845445 0.036434866
0.53973842 0.06874121 0.036030296
0.54004091 0.067635238 0.035625678
0.54034197 0.066527605 0.035221055
0.53994226 0.066014454 0.035212889
0.54024136 0.064904265 0.034808226
0.54053915 0.06379237 0.034403533
0.54013813 0.063277528 0.034395337
0.54043388 0.062163081 0.033990607
0.54072839 0.061046898 0.033585828
0.54171693 0.059327748 0.032784477
0.5420081 0.058207344 0.032379653
0.5422979 0.057085242 0.0319748
0.54258645 0.0559614 0.031569898
0.54287356 0.054835893 0.031164989
0.5424673 0.054314241 0.031156685
0.54344392 0.052579772 0.030355092
0.54303628 0.052056417 0.030346762
0.54262865 0.051533058 0.030338431
0.58479726 0.11802249 0.033881705
0.585163 0.1169985 0.033477407
0.58476001 0.1164811 0.03346917
0.58435702 0.1159637 0.033460934
0.58395404 0.1154463 0.033452697
0.58355111 0.1149289 0.03344446
0.58314812 0.1144115 0.033436224
0.58274513 0.1138941 0.033427991
0.58234215 0.1133767 0.033419754
0.5811764 0.11337355 0.033807702
0.58001196 0.11337212 0.034195699
0.5788489 0.11337237 0.034583699
0.57768714 0.11337432 0.034971729
0.5765267 0.11337797 0.035359785
0.57612705 0.11286483 0.035351615
0.57496864 0.11287104 0.035739712
0.57456964 0.11235874 0.035731558
0.57341313 0.11236753 0.036119718
0.572258 0.11237799 0.036507882
0.57186031 0.1118674 0.036499754
0.57146263 0.1113568 0.036491625
0.57031018 0.11137067 0.036879845
0.56915903 0.11138623 0.037268091
0.5680092 0.11140353 0.037656385
0.56686068 0.11142251 0.038044687
0.56646568 0.11091532 0.038036611
0.56531918 0.11093684 0.038424954
0.56492484 0.1104305 0.038416892
0.56378031 0.11045457 0.038805276
0.56338656 0.10994909 0.03879723
0.56299287 0.1094436 0.038789183
0.56185102 0.10947108 0.039177619
0.56145799 0.10896645 0.039169583
0.56106496 0.10846181 0.039161552
0.56067193 0.10795718 0.03915352
0.56027883 0.10745254 0.039145485
0.5598858 0.10694791 0.039137453
0.55949277 0.10644327 0.039129421
0.55835617 0.10647759 0.039517988
0.55796379 0.10597381 0.039509967
0.55757141 0.10547002 0.039501946
0.55643749 0.10550772 0.039890546
0.55604577 0.10500478 0.039882541
0.55491388 0.10504503 0.040271178
0.55452281 0.10454294 0.040263187
0.55413175 0.10404086 0.040255193
0.55374074 0.10353878 0.040247202
0.55334967 0.10303669 0.040239207
0.55295861 0.10253461 0.040231217
0.55256754 0.10203253 0.040223222
0.55217648 0.10153045 0.040215231
0.55178547 0.10102837 0.040207241
0.5513944 0.10052628 0.040199246
0.55100334 0.1000242 0.040191256
0.55061227 0.099522121 0.040183261
0.55022126 0.099020034 0.04017527
0.5498302 0.098517954 0.04016728
0.54943913 0.098015875 0.040159285
0.54904807 0.097513787 0.040151294
0.548657 0.097011708 0.0401433
0.54826599 0.096509628 0.040135309
0.54787493 0.096007541 0.040127318
0.54748386 0.095505461 0.040119324
0.5470928 0.095003374 0.040111333
0.54670179 0.094501294 0.040103339
0.54631072 0.093999214 0.040095348
0.54591966 0.093497127 0.040087357
0.54552859 0.092995048 0.040079363
0.54513752 0.092492968 0.040071372
0.54474652 0.091990881 0.040063377
0.54435545 0.091488801 0.040055387
0.54396439 0.090986721 0.040047396
0.54357332 0.090484634 0.040039402
0.54318231 0.089982554 0.040031411
0.54351091 0.088910915 0.039626356
0.54311919 0.088407978 0.039618347
0.54272747 0.087905042 0.039610341
0.54305339 0.086829998 0.039205231
0.54266101 0.086326219 0.039197214
0.54226863 0.085822433 0.039189193
0.54187626 0.085318647 0.039181173
0.54148388 0.084814861 0.039173156
0.5410915 0.084311076 0.039165135
0.54069912 0.083807297 0.039157115
0.54101986 0.082725406 0.038751874
0.54062676 0.08222077 0.038743842
0.54023373 0.081716135 0.038735807
0.5398407 0.0812115 0.038727775
0.53944767 0.080706865 0.038719743
0.53976434 0.079619907 0.038314443
0.53937066 0.079114422 0.038306396
0.53897691 0.078608938 0.03829835
0.53929096 0.077518575 0.037892994
0.53889656 0.077012233 0.037884932
0.53920859 0.075919323 0.037479538
0.53881359 0.075412132 0.037471466
0.53912365 0.074316666 0.037066031
0.53872794 0.073808625 0.037057944
0.53903604 0.072710574 0.036652442
0.53934276 0.071610846 0.03624694
0.53964818 0.070509419 0.035841409
0.53995228 0.069406293 0.035435852
0.53955394 0.068894856 0.035427708
0.53985608 0.067789137 0.035022091
0.54015684 0.066681758 0.034616463
0.53975713 0.066168614 0.034608297
0.54005593 0.065058678 0.034202628
0.54035336 0.063947037 0.033796936
0.54064947 0.062833697 0.033391215
0.54094434 0.061718624 0.032985445
0.54054201 0.061202075 0.032977223
0.54152995 0.059483435 0.032173868
0.54182076 0.058363289 0.031768039
0.54211032 0.057241444 0.031362187
0.54239851 0.056117855 0.030956279
0.54268533 0.054992601 0.03055037
0.5429709 0.053865649 0.030144433
0.54325509 0.052736994 0.029738469
0.54284745 0.052213639 0.029730139
0.54243982 0.05169028 0.029721808
0.58497632 0.11715394 0.0328678
0.58457333 0.11663653 0.032859564
0.58417034 0.11611913 0.032851327
0.58376735 0.11560173 0.032843091
0.58336443 0.11508434 0.032834858
0.58296144 0.11456694 0.032826621
0.58255845 0.11404953 0.032818384
0.58215547 0.11353213 0.032810148
0.58099002 0.11352872 0.033199098
0.58058769 0.11301217 0.033190876
0.57942426 0.11301135 0.03357989
0.57826215 0.11301219 0.033968907
0.57710135 0.11301474 0.034357954
0.57594192 0.11301898 0.034747023
0.57554227 0.11250584 0.034738857
0.57438481 0.11251264 0.035127971
0.57398576 0.11200034 0.035119817
0.57283026 0.11200973 0.03550899
0.57167614 0.11202078 0.035898171
0.57127845 0.11151019 0.035890043
0.5701263 0.1115238 0.036279265
0.56897545 0.11153911 0.036668513
0.56782591 0.11155616 0.03705781
0.5674302 0.11104812 0.037049726
0.56628269 0.11106768 0.037439037
0.56588763 0.11056049 0.037430964
0.56474215 0.11058261 0.037820321
0.56434774 0.11007627 0.037812263
0.56320423 0.11010094 0.03820166
0.56281048 0.10959546 0.038193613
0.56241679 0.10908997 0.038185567
0.5612759 0.10911804 0.03857502
0.56088287 0.10861341 0.038566984
0.56048983 0.10810877 0.038558953
0.5600968 0.10760414 0.038550921
0.55970377 0.1070995 0.038542885
0.55931067 0.10659487 0.038534854
0.55817443 0.10662893 0.038924422
0.55778205 0.10612515 0.038916405
0.55738968 0.10562137 0.038908385
0.55625606 0.1056588 0.039297983
0.55586433 0.10515587 0.039289977
0.55473274 0.10519586 0.03967962
0.55434167 0.10469377 0.039671626
0.55395061 0.10419169 0.039663635
0.55355954 0.10368961 0.039655644
0.55316854 0.10318752 0.03964765
0.55277747 0.10268544 0.039639659
0.5523864 0.10218336 0.039631665
0.55199534 0.10168128 0.039623674
0.55160427 0.1011792 0.039615683
0.55121326 0.10067712 0.039607689
0.5508222 0.10017503 0.039599698
0.55043113 0.099672951 0.039591704
0.55004007 0.099170864 0.039583713
0.54964906 0.098668784 0.039575718
0.54925799 0.098166704 0.039567728
0.54886693 0.097664617 0.039559737
0.54847586 0.097162537 0.039551742
0.5480848 0.096660458 0.039543752
0.54769379 0.09615837 0.039535757
0.54730272 0.095656291 0.039527766
0.54691166 0.095154211 0.039519776
0.54652059 0.094652124 0.039511781
0.54612958 0.094150044 0.03950379
0.54573852 0.093647964 0.039495796
0.54534745 0.093145877 0.039487805
0.54495639 0.092643797 0.039479814
0.54456532 0.09214171 0.03947182
0.54417431 0.09163963 0.039463829
0.54378325 0.091137551 0.039455835
0.54339218 0.090635464 0.039447844
0.54300112 0.090133384 0.039439853
0.54332942 0.089061998 0.039033793
0.5429377 0.088559061 0.039025787
0.54254597 0.088056132 0.039017782
0.54287165 0.086981341 0.038611669
0.54247928 0.086477555 0.038603649
0.5420869 0.085973777 0.038595632
0.54169452 0.085469991 0.038587611
0.54130214 0.084966205 0.038579591
0.54090977 0.084462419 0.03857157
0.5412308 0.083381638 0.038165342
0.54083776 0.082877003 0.038157307
0.54044473 0.082372367 0.038149275
0.5400517 0.081867732 0.038141243
0.53965861 0.081363097 0.038133208
0.53997564 0.080277249 0.03772692
0.53958195 0.079771765 0.037718873
0.53918827 0.079266272 0.037710827
0.53950262 0.07817702 0.037304483
0.53910828 0.077670686 0.037296422
0.53942066 0.07657887 0.036890037
0.5390256 0.076071687 0.036881965
0.53933603 0.074977323 0.036475539
0.53894031 0.074469283 0.036467455
0.53924876 0.073372334 0.036060967
0.53955585 0.072273716 0.035654474
0.53915888 0.071763977 0.03564636
0.53946394 0.070662811 0.035239823
0.53976774 0.069559939 0.034833264
0.5393694 0.069048494 0.03482512
0.53967124 0.067943037 0.034418501
0.53997165 0.06683591 0.034011871
0.54027081 0.065727077 0.033605218
0.54056859 0.064616553 0.033198532
0.54016763 0.064101703 0.03319034
0.54046345 0.062988617 0.032783616
0.54075795 0.061873801 0.032376844
0.54174662 0.060157377 0.031571511
0.54203779 0.059038337 0.031164693
0.54232764 0.057917595 0.03075785
0.54261625 0.056795117 0.030350955
0.54221058 0.05627431 0.030342665
0.54318929 0.054545119 0.02953713
0.54347384 0.053417571 0.029130178
0.54306626 0.052894216 0.029121846
0.54265863 0.052370857 0.029113514
0.54294056 0.051239867 0.028706485
0.58365643 0.11883895 0.033062588
0.58438665 0.11679196 0.032249957
0.58398366 0.11627457 0.032241724
0.58358073 0.11575717 0.032233488
0.58317775 0.11523977 0.032225251
0.58277476 0.11472236 0.032217015
0.58237177 0.11420497 0.032208778
0.58196878 0.11368757 0.032200541
0.5815658 0.11317016 0.032192305
0.58040136 0.11316735 0.032582276
0.57923818 0.11316627 0.032972291
0.57807636 0.11316685 0.03336231
0.57691592 0.11316914 0.033752356
0.57575679 0.11317313 0.034142431
0.57535708 0.11265999 0.034134265
0.57419997 0.11266653 0.034524381
0.57380092 0.11215424 0.034516227
0.57264572 0.11216337 0.034906402
0.5714919 0.11217417 0.035296585
0.57109421 0.11166358 0.035288457
0.56994236 0.11167693 0.035678681
0.56879181 0.11169198 0.036068935
0.5683955 0.11118309 0.036060836
0.56724691 0.11120073 0.03645115
0.5660997 0.11122005 0.036841463
0.56570464 0.11071286 0.036833391
0.56530964 0.11020567 0.036825318
0.56416506 0.11022838 0.037215691
0.56377071 0.10972205 0.03720763
0.56262815 0.10974731 0.037598044
0.5622344 0.10924182 0.037589997
0.56184071 0.10873634 0.03758195
0.56070077 0.10876501 0.03797242
0.56030774 0.10826037 0.037964389
0.55991471 0.10775574 0.037956357
0.55952168 0.1072511 0.037948322
0.55912864 0.10674646 0.03794029
0.55873561 0.10624183 0.037932258
0.55760026 0.10627649 0.03832284
0.55720788 0.1057727 0.038314823
0.55681551 0.10526893 0.038306803
0.5556829 0.10530695 0.038697418
0.55529118 0.10480402 0.038689412
0.55489945 0.10430109 0.038681407
0.55450773 0.10379815 0.038673401
0.5533784 0.10384044 0.039064083
0.55298734 0.10333835 0.039056093
0.55259633 0.10283627 0.039048102
0.55220526 0.10233419 0.039040107
0.5518142 0.10183211 0.039032117
0.55142313 0.10133003 0.039024122
0.55103207 0.10082795 0.039016131
0.55064106 0.10032586 0.039008141
0.55024999 0.09982378 0.039000146
0.54985893 0.099321701 0.038992155
0.54946786 0.098819613 0.038984161
0.54907686 0.098317534 0.03897617
0.54868579 0.097815454 0.038968179
0.54829472 0.097313367 0.038960185
0.54790366 0.096811287 0.038952194
0.54751259 0.0963092 0.0389442
0.54712158 0.09580712 0.038936209
0.54673052 0.09530504 0.038928214
0.54633945 0.094802953 0.038920224
0.54594839 0.094300874 0.038912233
0.54555732 0.093798794 0.038904238
0.54516631 0.093296707 0.038896248
0.54477525 0.092794627 0.038888253
0.54438418 0.092292547 0.038880263
0.54399312 0.09179046 0.038872272
0.54360211 0.09128838 0.038864277
0.54321104 0.090786293 0.038856287
0.5435397 0.089716017 0.038449239
0.54314798 0.089213088 0.038441233
0.54275626 0.088710152 0.038433228
0.54308224 0.087636471 0.038026124
0.54268986 0.087132685 0.038018107
0.54229748 0.086628899 0.038010087
0.54190511 0.086125113 0.038002066
0.54151273 0.085621335 0.037994046
0.54112035 0.085117549 0.037986029
0.54144174 0.08403787 0.03757881
0.54104871 0.083533235 0.037570775
0.54065567 0.0830286 0.037562743
0.54026264 0.082523964 0.037554711
0.54058069 0.081440076 0.037147444
0.540187 0.080934584 0.037139397
0.53979325 0.0804291 0.03713135
0.53939956 0.079923615 0.037123304
0.53971434 0.078835465 0.036715969
0.53931993 0.078329131 0.036707912
0.53963268 0.077238426 0.036300536
0.53923768 0.076731235 0.036292464
0.53884262 0.076224051 0.036284391
0.53915274 0.075129941 0.035876963
0.53946155 0.074034102 0.035469487
0.53976899 0.072936594 0.035062004
0.53937197 0.072426848 0.03505389
0.53967744 0.071326785 0.03464637
0.53927976 0.070816197 0.034638241
0.53958321 0.069713578 0.034230676
0.53918487 0.06920214 0.034222536
0.53948635 0.068096936 0.033814911
0.53978652 0.066990063 0.033407278
0.54008538 0.065881491 0.03299962
0.54038286 0.064771213 0.032591935
0.53998184 0.06425637 0.03258374
0.54027736 0.063143544 0.032176018
0.54057163 0.062028978 0.031768244
0.54155964 0.060313065 0.030960903
0.54185051 0.059194278 0.030553082
0.54214007 0.058073793 0.030145237
0.54242831 0.056951571 0.02973734
0.54271525 0.055827677 0.029329436
0.54300082 0.054702088 0.028921507
0.54328501 0.053574793 0.028513553
0.54356802 0.052445762 0.028105548
0.54315972 0.051921554 0.028097205
0.54275143 0.051397346 0.02808886
0.54234314 0.050873138 0.028080516
0.58347034 0.11899387 0.03245499
0.58460295 0.1174648 0.031648591
0.58419997 0.1169474 0.031640355
0.58379698 0.11643 0.031632118
0.58339405 0.1159126 0.031623881
0.58299106 0.1153952 0.031615645
0.58258808 0.1148778 0.031607408
0.58218509 0.1143604 0.031599171
0.5817821 0.11384299 0.031590939
0.58137912 0.1133256 0.031582702
0.58021498 0.11332253 0.031973671
0.57905209 0.11332119 0.032364689
0.57789063 0.11332152 0.03275571
0.57748961 0.11280667 0.032747518
0.57633013 0.11280956 0.033138581
0.57517195 0.11281414 0.033529673
0.57401514 0.11282043 0.033920791
0.57361609 0.11230814 0.033912636
0.57246119 0.11231702 0.034303814
0.57130766 0.11232755 0.034695003
0.57090998 0.11181697 0.034686875
0.56975842 0.11183006 0.035078101
0.56860822 0.11184486 0.035469357
0.56821185 0.11133597 0.035461254
0.56706357 0.11135335 0.035852574
0.56591672 0.11137241 0.036243889
0.56552166 0.11086522 0.036235817
0.56512666 0.11035804 0.036227744
0.56398237 0.11038049 0.036619119
0.56358802 0.10987415 0.036611062
0.56244576 0.10989916 0.037002478
0.56205201 0.10939368 0.036994431
0.56165832 0.10888819 0.036986385
0.56126463 0.1083827 0.036978338
0.56012565 0.10841197 0.037369821
0.55973262 0.10790733 0.037361789
0.55933958 0.1074027 0.037353758
0.55894655 0.10689806 0.037345722
0.55855352 0.10639343 0.037337691
0.55741847 0.10642783 0.037729278
0.55702609 0.10592405 0.037721258
0.55663371 0.10542026 0.037713241
0.5555014 0.10545804 0.038104858
0.55510968 0.10495511 0.038096853
0.55471796 0.10445217 0.038088847
0.55432624 0.10394924 0.038080841
0.55393457 0.1034463 0.038072836
0.5528062 0.10348919 0.038464535
0.55241513 0.1029871 0.038456541
0.55202407 0.10248502 0.03844855
0.55163306 0.10198294 0.038440559
0.55124199 0.10148086 0.038432565
0.55085093 0.10097878 0.038424574
0.55045986 0.10047669 0.038416579
0.55006886 0.09997461 0.038408589
0.54967779 0.09947253 0.038400598
0.54928672 0.098970443 0.038392603
0.54889566 0.098468363 0.038384613
0.54850459 0.097966284 0.038376618
0.54811358 0.097464196 0.038368627
0.54772252 0.096962117 0.038360637
0.54733145 0.096460037 0.038352642
0.54694039 0.09595795 0.038344651
0.54654938 0.09545587 0.038336657
0.54615831 0.094953783 0.038328666
0.54576725 0.094451703 0.038320672
0.54537618 0.093949623 0.038312681
0.54498512 0.093447536 0.03830469
0.54459411 0.092945457 0.038296696
0.54420304 0.092443377 0.038288705
0.54381198 0.09194129 0.038280711
0.54414165 0.090872973 0.037872691
0.54374993 0.090370037 0.037864685
0.54335821 0.0898671 0.037856679
0.54296649 0.089364171 0.037848674
0.54257476 0.088861234 0.037840664
0.5429005 0.087787807 0.037432563
0.54250813 0.087284029 0.037424542
0.54211575 0.086780243 0.037416525
0.54172337 0.086276457 0.037408505
0.54133099 0.085772671 0.037400484
0.54165274 0.084694102 0.036992274
0.54125971 0.084189467 0.036984242
0.54086667 0.083684832 0.036976211
0.54118574 0.082602903 0.036567967
0.54079199 0.082097411 0.036559921
0.5403983 0.081591927 0.036551874
0.54000461 0.081086442 0.036543828
0.53961092 0.080580957 0.036535781
0.53992599 0.07949391 0.036127459
0.53953165 0.078987576 0.036119401
0.53984475 0.077897981 0.035711035
0.53944969 0.07739079 0.035702962
0.53905469 0.076883599 0.03569489
0.53936511 0.075790606 0.035286475
0.5389694 0.075282566 0.035278387
0.53927791 0.074186981 0.034869909
0.53958505 0.073089726 0.034461424
0.53918803 0.07257998 0.03445331
0.5394932 0.071480177 0.034044784
0.53909552 0.070969582 0.034036655
0.53939867 0.069867224 0.033628091
0.53970057 0.068763129 0.033219475
0.54000103 0.067657359 0.032810856
0.53960139 0.067144215 0.03280269
0.53989989 0.066035897 0.032394025
0.54019707 0.064925879 0.031985339
0.53979611 0.064411029 0.031977143
0.54009128 0.063298464 0.031568415
0.54038525 0.062184155 0.031159637
0.54137266 0.060468752 0.030350296
0.54166323 0.059350222 0.029941473
0.54195249 0.05822999 0.029532623
0.54224044 0.057108026 0.029123724
0.54252702 0.055984389 0.028714819
0.5421207 0.055462733 0.028706513
0.54309618 0.053732015 0.02789693
0.54337889 0.052603241 0.027487922
0.5429706 0.052079033 0.027479578
0.54256231 0.051554821 0.027471233
0.54215401 0.051030613 0.027462889
0.58401328 0.11710283 0.031030748
0.58361036 0.11658543 0.031022511
0.58320737 0.11606803 0.031014277
0.58280438 0.11555063 0.03100604
0.58240139 0.11503323 0.030997803
0.58199841 0.11451583 0.030989567
0.58159542 0.11399843 0.030981332
0.58119243 0.11348103 0.030973095
0.58078945 0.11296363 0.030964859
0.57962626 0.11296115 0.031356845
0.57846439 0.11296041 0.03174888
0.57730389 0.11296134 0.032140918
0.5761447 0.11296397 0.032532986
0.57498682 0.1129683 0.032925081
0.57383025 0.11297433 0.033317201
0.57343125 0.11246204 0.033309046
0.57227665 0.11247066 0.03370123
0.57112342 0.11248095 0.034093417
0.57072574 0.11197035 0.034085289
0.56957453 0.11198319 0.034477517
0.56842464 0.11199774 0.034869775
0.56802827 0.11148885 0.034861676
0.56688029 0.11150598 0.035253994
0.56648457 0.11099794 0.035245907
0.56533867 0.11101758 0.035638243
0.56494361 0.11051039 0.03563017
0.56454861 0.11000321 0.035622098
0.56340533 0.11002626 0.03601449
0.56301093 0.10951993 0.036006428
0.56186968 0.10954553 0.036398862
0.56147593 0.10904004 0.036390815
0.56108224 0.10853456 0.036382768
0.55994362 0.10856356 0.036775257
0.55955058 0.10805893 0.036767222
0.55915755 0.10755429 0.03675919
0.55876446 0.10704966 0.036751159
0.55837142 0.10654502 0.036743123
0.55723673 0.10657918 0.037135717
0.55684435 0.10607539 0.037127696
0.55645198 0.10557161 0.037119675
0.5560596 0.10506782 0.037111659
0.55566722 0.10456403 0.037103638
0.55453652 0.10460326 0.037496284
0.5541448 0.10410032 0.037488278
0.55375308 0.1035974 0.037480272
0.55336136 0.10309446 0.037472267
0.55296963 0.10259152 0.037464261
0.55257791 0.10208859 0.037456255
0.55218625 0.10158566 0.03744825
0.55179453 0.10108273 0.037440244
0.55140281 0.10057979 0.037432238
0.55101109 0.10007686 0.037424233
0.55061936 0.099573925 0.037416227
0.55022764 0.099070989 0.037408222
0.54983592 0.09856806 0.037400216
0.5494442 0.098065123 0.03739221
0.54905248 0.097562194 0.037384205
0.54866076 0.097059257 0.037376199
0.54826909 0.096556328 0.037368193
0.54787737 0.096053392 0.037360188
0.54748565 0.095550455 0.037352182
0.54709393 0.095047526 0.037344176
0.54670221 0.09454459 0.037336167
0.54631048 0.09404166 0.037328161
0.54591876 0.093538724 0.037320156
0.54552704 0.093035787 0.03731215
0.54513532 0.092532858 0.037304144
0.5447436 0.092029922 0.037296139
0.54435194 0.091526993 0.037288133
0.54396021 0.091024056 0.037280127
0.54356849 0.090521127 0.037272122
0.54317677 0.09001819 0.037264116
0.54278505 0.089515254 0.03725611
0.54239333 0.089012325 0.037248105
0.54271871 0.087939151 0.036839001
0.54232633 0.087435365 0.03683098
0.54193395 0.086931586 0.03682296
0.54154158 0.0864278 0.036814939
0.54186368 0.085350342 0.036405742
0.54147065 0.084845707 0.03639771
0.54107761 0.084341072 0.036389675
0.54139704 0.083260238 0.035980448
0.54100335 0.082754754 0.035972401
0.54060966 0.082249269 0.035964355
0.5409264 0.081165031 0.035555068
0.54053205 0.080658697 0.035547011
0.54013765 0.080152355 0.035538949
0.5397433 0.079646021 0.035530888
0.54005677 0.078557529 0.035121538
0.53966171 0.078050345 0.035113465
0.53926671 0.077543154 0.035105392
0.53957748 0.076451264 0.034695987
0.53918183 0.075943224 0.034687899
0.5394907 0.074848741 0.03427843
0.53909433 0.074339852 0.034270328
0.53940117 0.073242858 0.03386084
0.53900415 0.072733112 0.033852726
0.53930897 0.071633562 0.033443198
0.53891128 0.071122967 0.033435073
0.53921413 0.070020862 0.033025503
0.53951573 0.068917029 0.032615885
0.5398159 0.067811519 0.032206263
0.53941625 0.067298368 0.032198098
0.53971446 0.06619031 0.031788431
0.54001135 0.065080546 0.031378742
0.54030693 0.063969083 0.030969024
0.54060119 0.062855877 0.030559259
0.54089409 0.061741009 0.030149486
0.54188025 0.060025267 0.029338125
0.54216981 0.058906145 0.028928285
0.54245818 0.057785284 0.028518397
0.54274511 0.056662753 0.028108504
0.54303074 0.055538524 0.027698584
0.54262376 0.055016018 0.027690265
0.54290736 0.053889234 0.027280305
0.5431897 0.052760717 0.026870295
0.54278147 0.052236509 0.026861951
0.54237318 0.051712301 0.026853606
0.54196489 0.051188093 0.026845261
0.5838266 0.11725826 0.030421143
0.58342367 0.11674086 0.030412909
0.58378518 0.11571475 0.03000354
0.58338153 0.1151965 0.029995291
0.58297789 0.11467825 0.029987041
0.58257425 0.11415999 0.029978791
0.58217061 0.11364175 0.029970542
0.58176696 0.11312349 0.029962292
0.58060277 0.11311906 0.030355256
0.57943988 0.11311633 0.030748244
0.5782783 0.11311533 0.031141281
0.5771181 0.113116 0.031534322
0.57595921 0.11311838 0.031927392
0.5755589 0.11260438 0.031919211
0.57440197 0.1126093 0.032312319
0.57324642 0.11261594 0.032705456
0.57209212 0.1126243 0.033098642
0.57093924 0.11263433 0.033491835
0.57054156 0.11212374 0.033483706
0.56939059 0.11213633 0.033876937
0.56899357 0.11162658 0.033868823
0.56784463 0.11164172 0.034262095
0.56744832 0.11113283 0.034253996
0.56630129 0.11115056 0.034647331
0.56590563 0.11064252 0.034639243
0.56550992 0.11013447 0.034631155
0.56436563 0.11015557 0.035024524
0.56397057 0.10964838 0.035016451
0.56282824 0.10967203 0.035409857
0.5624339 0.1091657 0.035401799
0.56129354 0.10919189 0.035795245
0.56089985 0.10868641 0.035787199
0.56050617 0.10818093 0.035779152
0.56011248 0.10767544 0.035771105
0.55897546 0.10770589 0.036164623
0.55858243 0.10720126 0.036156591
0.55818939 0.10669662 0.036148559
0.5577963 0.10619199 0.036140524
0.55740327 0.10568735 0.036132492
0.55701023 0.10518271 0.03612446
0.5558778 0.10521916 0.036518093
0.55548543 0.10471538 0.036510076
0.55509305 0.10421159 0.036502056
0.55396336 0.10425141 0.036895718
0.55357164 0.10374848 0.036887713
0.55317992 0.10324555 0.036879707
0.5527882 0.10274261 0.036871701
0.55239648 0.10223968 0.036863696
0.55200475 0.10173675 0.03685569
0.55161303 0.10123381 0.036847685
0.55122131 0.10073088 0.036839679
0.55082965 0.10022794 0.036831673
0.55043793 0.099725008 0.036823668
0.55004621 0.099222079 0.036815662
0.54965448 0.098719142 0.036807656
0.54926276 0.098216213 0.036799651
0.54887104 0.097713277 0.036791645
0.54847932 0.09721034 0.036783639
0.5480876 0.096707411 0.036775634
0.54769588 0.096204475 0.036767628
0.54730415 0.095701545 0.036759622
0.54691249 0.095198609 0.036751617
0.54652077 0.09469568 0.036743607
0.54612905 0.094192743 0.036735602
0.54573733 0.093689807 0.036727596
0.5453456 0.093186878 0.03671959
0.54495388 0.092683941 0.036711585
0.54456216 0.092181012 0.036703579
0.54417044 0.091678075 0.036695573
0.54377872 0.091175146 0.036687568
0.543387 0.09067221 0.036679562
0.54299527 0.090169273 0.036671557
0.54260361 0.089666344 0.036663551
0.54292935 0.08859428 0.036253456
0.54253697 0.088090494 0.036245435
0.5421446 0.087586708 0.036237419
0.54175222 0.087082922 0.036229398
0.54207468 0.086006574 0.03581921
0.54168165 0.085501939 0.035811175
0.54128855 0.084997304 0.035803143
0.54160833 0.083917581 0.035392925
0.54121464 0.083412096 0.035384879
0.54082096 0.082906604 0.035376832
0.54113805 0.081823476 0.034966558
0.54074371 0.081317142 0.034958497
0.54034936 0.0808108 0.034950439
0.54066384 0.079724275 0.034540109
0.54026878 0.079217084 0.034532037
0.53987378 0.078709893 0.034523964
0.53947872 0.07820271 0.034515891
0.53978992 0.077111922 0.034105495
0.5393942 0.076603882 0.034097411
0.53899848 0.076095842 0.034089323
0.53930706 0.07500162 0.033678852
0.53891069 0.07449273 0.03367075
0.53921723 0.073395982 0.03326026
0.53882021 0.072886243 0.033252146
0.53912473 0.071786948 0.032841615
0.53872705 0.071276359 0.032833487
0.5390296 0.070174508 0.032422915
0.5393309 0.06907092 0.032012299
0.53963077 0.067965671 0.031601671
0.53923112 0.067452528 0.031593505
0.53952903 0.066344716 0.031182837
0.53982556 0.065235212 0.030772144
0.54012084 0.064124003 0.030361425
0.54041481 0.063011058 0.029950656
0.54070741 0.061896443 0.029539881
0.54169297 0.060181212 0.028726513
0.54198223 0.059062343 0.028315673
0.54227024 0.057941739 0.027904781
0.54255688 0.056819465 0.027493885
0.54284221 0.055695489 0.027082961
0.54243523 0.055172984 0.027074644
0.54271853 0.054046456 0.026663681
0.54300058 0.052918196 0.026252668
0.54259229 0.052393988 0.026244324
0.542184 0.051869776 0.026235979
0.54177576 0.051345568 0.026227634
0.58363998 0.11741369 0.029811539
0.58323699 0.11689629 0.029803302
0.5835982 0.11587044 0.029392933
0.58319455 0.11535219 0.029384684
0.58279091 0.11483394 0.029376434
0.58238727 0.11431568 0.029368185
0.58198363 0.11379743 0.029359935
0.58157998 0.11327918 0.029351685
0.58041608 0.11327449 0.02974565
0.57925355 0.1132715 0.03013964
0.57809228 0.11327025 0.030533681
0.57693237 0.11327067 0.030927725
0.57653135 0.11275582 0.030919529
0.57537347 0.11275879 0.031313613
0.57421684 0.11276346 0.031707726
0.57306159 0.11276983 0.03210187
0.57190764 0.11277794 0.032496054
0.570755 0.11278772 0.032890249
0.57035732 0.11227713 0.03288212
0.56920671 0.11228946 0.033276357
0.56880969 0.11177971 0.033268243
0.56766105 0.1117946 0.033662517
0.56726468 0.11128571 0.033654418
0.566118 0.11130317 0.034048755
0.56572229 0.11079514 0.034040667
0.56532663 0.1102871 0.03403258
0.56493092 0.10977906 0.034024496
0.56378758 0.10980075 0.034418877
0.56339258 0.10929357 0.034410805
0.56225121 0.10931781 0.034805227
0.56111121 0.10934375 0.035199679
0.56071746 0.10883826 0.035191633
0.56032377 0.10833278 0.035183586
0.55993009 0.10782729 0.03517554
0.55879337 0.10785749 0.035570059
0.55840033 0.10735285 0.035562027
0.5580073 0.10684822 0.035553992
0.55761427 0.10634358 0.03554596
0.55722123 0.10583895 0.035537928
0.55682814 0.10533431 0.035529893
0.55643511 0.10482968 0.035521861
0.55604208 0.10432504 0.035513829
0.55491132 0.10436293 0.03590849
0.55451894 0.10385915 0.03590047
0.55412656 0.10335537 0.035892453
0.55373418 0.10285158 0.035884432
0.55334181 0.1023478 0.035876412
0.55294943 0.10184401 0.035868395
0.55255705 0.10134023 0.035860375
0.55216467 0.10083645 0.035852354
0.5517723 0.10033266 0.035844337
0.55137992 0.099828877 0.035836317
0.55098754 0.099325091 0.035828296
0.55059516 0.098821305 0.035820279
0.55020273 0.098317526 0.035812259
0.54981035 0.09781374 0.035804238
0.54941797 0.097309954 0.035796221
0.5490256 0.096806169 0.035788201
0.54863322 0.096302383 0.03578018
0.54824084 0.095798604 0.035772163
0.54784846 0.095294818 0.035764143
0.54745609 0.094791032 0.035756122
0.54706371 0.094287246 0.035748105
0.54667133 0.093783461 0.035740085
0.54627895 0.093279682 0.035732064
0.54588658 0.092775896 0.035724044
0.5454942 0.09227211 0.035716027
0.54510182 0.091768324 0.035708006
0.54470944 0.091264538 0.035699986
0.54431707 0.09076076 0.035691969
0.54392469 0.090256974 0.035683949
0.54353231 0.089753188 0.035675928
0.54313993 0.089249402 0.035667911
0.54274756 0.088745616 0.035659891
0.54235518 0.088241838 0.03565187
0.5419628 0.087738052 0.035643853
0.54157043 0.087234266 0.035635833
0.54189259 0.086158171 0.035224643
0.54149956 0.085653536 0.035216611
0.54181969 0.084574915 0.034805402
0.541426 0.084069431 0.034797356
0.54103225 0.083563946 0.034789309
0.54134977 0.082481921 0.034378048
0.54095536 0.081975587 0.034369987
0.54127091 0.080891013 0.033958685
0.54087585 0.080383822 0.033950612
0.54048085 0.079876639 0.033942539
0.54008579 0.079369448 0.033934463
0.53969079 0.078862257 0.03392639
0.54000229 0.07777258 0.033515006
0.53960657 0.07726454 0.033506919
0.53921092 0.0767565 0.033498835
0.5388152 0.07624846 0.033490747
0.53912348 0.075154491 0.03307927
0.5387271 0.074645601 0.033071171
0.53903329 0.073549114 0.03265968
0.53863627 0.073039375 0.032651566
0.53894049 0.071940333 0.032240029
0.53854287 0.071429744 0.032231905
0.53884506 0.070328154 0.031820327
0.53914601 0.06922482 0.031408709
0.53944564 0.068119824 0.030997079
0.53904593 0.06760668 0.030988911
0.53934354 0.066499129 0.030577242
0.53963983 0.065389872 0.030165548
0.53993475 0.064278923 0.029753825
0.54022843 0.063166231 0.029342052
0.54052073 0.062051874 0.028930277
0.54150563 0.060337152 0.028114902
0.54179466 0.059218541 0.02770306
0.54208231 0.058098193 0.027291166
0.54236865 0.056976173 0.026879266
0.54265368 0.055852454 0.02646734
0.5422467 0.055329952 0.026459021
0.5425297 0.054203678 0.026047058
0.54281145 0.053075671 0.025635041
0.54240316 0.052551463 0.025626697
0.54199487 0.052027255 0.025618352
0.54158658 0.051503047 0.025610007
0.5834533 0.11756913 0.029201934
0.58305031 0.11705173 0.029193697
0.58341122 0.11602613 0.028782325
0.58300757 0.11550788 0.028774075
0.58260393 0.11498962 0.028765826
0.58220029 0.11447138 0.028757576
0.58179665 0.11395312 0.028749326
0.581393 0.11343487 0.028741077
0.5802294 0.11342993 0.029136045
0.57982641 0.11291253 0.029127808
0.57866484 0.11291014 0.029522816
0.57750452 0.11290947 0.029917872
0.57634562 0.11291049 0.030312929
0.57518798 0.1129132 0.030708021
0.57403171 0.11291762 0.031103134
0.57287675 0.11292373 0.031498276
0.5717231 0.11293159 0.031893469
0.57132477 0.11242014 0.031885326
0.57017308 0.11243051 0.032280538
0.5697754 0.11191992 0.03227241
0.56862575 0.11193284 0.032667659
0.56822872 0.11142311 0.032659546
0.56708109 0.11143858 0.03305484
0.56668472 0.11092969 0.033046737
0.56628835 0.1104208 0.033038639
0.56589198 0.10991191 0.033030536
0.56474763 0.10993168 0.033425916
0.56435192 0.10942364 0.033417832
0.56320953 0.10944593 0.033813227
0.56206852 0.10946991 0.034208655
0.56167418 0.10896358 0.034200594
0.56127977 0.10845724 0.034192536
0.56014138 0.10848463 0.034588017
0.5597477 0.10797914 0.03457997
0.55935401 0.10747366 0.034571923
0.55896032 0.10696817 0.034563877
0.55856657 0.10646269 0.034555834
0.55817288 0.1059572 0.034547787
0.55777919 0.10545171 0.034539741
0.55738544 0.10494623 0.034531694
0.55625308 0.10498127 0.034927294
0.55585998 0.10447664 0.034919262
0.55546695 0.103972 0.03491123
0.55433714 0.10401049 0.035306908
0.55394477 0.10350671 0.035298888
0.55355239 0.10300293 0.035290871
0.55316001 0.10249914 0.03528285
0.55276763 0.10199536 0.03527483
0.55237526 0.10149157 0.035266813
0.55198288 0.10098778 0.035258792
0.5515905 0.10048401 0.035250772
0.55119812 0.09998022 0.035242755
0.55080575 0.099476434 0.035234734
0.55041337 0.098972648 0.035226714
0.55002099 0.098468862 0.035218697
0.54962862 0.097965084 0.035210676
0.54923624 0.097461298 0.035202656
0.54884386 0.096957512 0.035194639
0.54845148 0.096453726 0.035186619
0.54805911 0.09594994 0.035178598
0.54766673 0.095446162 0.035170581
0.54727435 0.094942376 0.035162561
0.54688197 0.09443859 0.03515454
0.5464896 0.093934804 0.035146523
0.54609722 0.093431018 0.035138503
0.54570484 0.09292724 0.035130482
0.54531246 0.092423454 0.035122462
0.54492009 0.091919668 0.035114445
0.54452771 0.091415882 0.035106424
0.54413533 0.090912096 0.035098404
0.54374295 0.090408318 0.035090387
0.54335058 0.089904532 0.035082366
0.5429582 0.089400746 0.035074346
0.54256582 0.08889696 0.035066329
0.54217345 0.088393174 0.035058308
0.54178107 0.087889396 0.035050288
0.54138869 0.08738561 0.035042271
0.5417105 0.086309768 0.034630079
0.54203099 0.085232258 0.034217883
0.5416373 0.084726773 0.034209836
0.54124361 0.084221281 0.03420179
0.54156142 0.083140373 0.033789534
0.54116708 0.082634032 0.033781476
0.54148293 0.081550568 0.033369184
0.54108787 0.081043378 0.033361111
0.54069287 0.080536187 0.033353038
0.54029781 0.080029003 0.033344962
0.53990281 0.079521812 0.033336889
0.54021466 0.078433238 0.032924518
0.539819 0.077925198 0.03291643
0.53942329 0.077417158 0.032908343
0.53902757 0.076909125 0.032900255
0.5393362 0.075816259 0.032487795
0.53893983 0.075307369 0.032479692
0.53854346 0.07479848 0.032471593
0.53884941 0.073702246 0.032059096
0.53845239 0.073192507 0.032050982
0.53875631 0.072093718 0.031638447
0.53835863 0.071583129 0.031630319
0.53866053 0.070481792 0.031217743
0.53896117 0.069378719 0.030805118
0.53926045 0.068273976 0.030392487
0.53955841 0.067167535 0.029979829
0.53915811 0.066653535 0.029971648
0.53945404 0.065544538 0.029558947
0.53974873 0.064433843 0.029146224
0.54004204 0.063321404 0.028733451
0.54033405 0.062207304 0.02832067
0.54131836 0.060493097 0.027503293
0.54160702 0.059374742 0.027090447
0.54189444 0.058254648 0.026677549
0.54218042 0.057132885 0.026264647
0.54246515 0.056009419 0.025851719
0.54205817 0.055486917 0.025843402
0.54234087 0.0543609 0.025430435
0.54262233 0.05323315 0.025017414
0.54221404 0.052708942 0.02500907
0.54180574 0.052184731 0.025000725
0.54139745 0.051660523 0.024992382
0.58326662 0.11772456 0.028592328
0.58286363 0.11720715 0.028584091
0.58322424 0.11618181 0.028171718
0.58282059 0.11566357 0.028163468
0.58241695 0.11514531 0.028155219
0.58201331 0.11462706 0.028146969
0.58160961 0.11410881 0.028138719
0.58120596 0.11359055 0.02813047
0.58004272 0.11358536 0.028526438
0.57963973 0.11306795 0.028518204
0.57847846 0.11306531 0.028914213
0.57731849 0.11306439 0.029310273
0.57615983 0.11306515 0.029706333
0.57575887 0.1125503 0.029698137
0.57460219 0.11255361 0.030094242
0.57269192 0.11307763 0.030894687
0.57153857 0.11308523 0.031290881
0.57114023 0.11257379 0.031282742
0.56998885 0.1125839 0.031678952
0.56959116 0.11207331 0.031670824
0.56919348 0.11156271 0.031662699
0.56804484 0.11157624 0.032058965
0.56764781 0.11106649 0.032050852
0.56725079 0.11055675 0.032042738
0.56685376 0.11004701 0.032034621
0.5657084 0.11006479 0.032430958
0.56531203 0.1095559 0.032422855
0.56416863 0.10957626 0.032819256
0.56302655 0.10959829 0.033215657
0.56263155 0.1090911 0.03320758
0.56149149 0.10911568 0.033604026
0.56109709 0.10860935 0.033595964
0.56070274 0.10810301 0.033587903
0.55956531 0.108131 0.0339844
0.55917162 0.10762551 0.033976354
0.55877793 0.10712002 0.033968307
0.55838418 0.10661454 0.033960264
0.55799049 0.10610905 0.033952218
0.5575968 0.10560357 0.033944171
0.55720311 0.10509808 0.033936124
0.55680937 0.10459259 0.033928078
0.55641568 0.10408711 0.033920031
0.55528492 0.1041236 0.034316663
0.55489182 0.10361896 0.034308631
0.55449879 0.10311433 0.034300599
0.55337065 0.10315426 0.034697305
0.55297828 0.10265048 0.034689289
0.5525859 0.1021467 0.034681268
0.55219352 0.10164291 0.034673247
0.55180115 0.10113913 0.034665231
0.55140871 0.10063534 0.03465721
0.55101633 0.10013156 0.03464919
0.55062395 0.099627778 0.034641173
0.55023158 0.099123992 0.034633152
0.5498392 0.098620206 0.034625132
0.54944682 0.09811642 0.034617115
0.54905444 0.097612642 0.034609094
0.54866207 0.097108856 0.034601074
0.54826969 0.09660507 0.034593057
0.54787731 0.096101284 0.034585036
0.54748493 0.095597498 0.034577016
0.54709256 0.09509372 0.034568999
0.54670018 0.094589934 0.034560978
0.5463078 0.094086148 0.034552958
0.54591542 0.093582362 0.034544937
0.54552305 0.093078576 0.03453692
0.54513067 0.092574798 0.0345289
0.54473829 0.092071012 0.034520879
0.54434592 0.091567226 0.034512863
0.54395354 0.09106344 0.034504842
0.54356116 0.090559654 0.034496821
0.54316878 0.090055875 0.034488805
0.54277641 0.08955209 0.034480784
0.54238403 0.089048304 0.034472764
0.54199165 0.088544518 0.034464747
0.54159927 0.088040732 0.034456726
0.5419215 0.086966 0.034043543
0.54224235 0.085889593 0.033630356
0.5418486 0.085384108 0.033622313
0.54145491 0.084878623 0.033614267
0.54177314 0.083798818 0.033201024
0.54137874 0.083292477 0.033192962
0.54169494 0.082210116 0.032779686
0.54129994 0.081702933 0.03277161
0.54090488 0.081195742 0.032763537
0.54121846 0.080109976 0.032350205
0.54082274 0.079601936 0.032342117
0.54042709 0.079093896 0.03233403
0.54003137 0.078585863 0.032325942
0.53963566 0.078077823 0.032317854
0.5399453 0.076986916 0.031904418
0.53954893 0.076478027 0.031896316
0.53915256 0.075969137 0.031888217
0.53875625 0.075460248 0.031880114
0.53835988 0.074951358 0.031872015
0.53866547 0.073855378 0.031458516
0.53826845 0.073345639 0.031450402
0.53857207 0.07224711 0.031036863
0.53887439 0.071146876 0.030623296
0.53847599 0.070635438 0.030615155
0.53877634 0.069532618 0.030201528
0.53907531 0.068428129 0.029787894
0.53937298 0.067321941 0.029374234
0.53966928 0.066214055 0.028960546
0.53996432 0.065104462 0.028546834
0.54025799 0.063993134 0.02813307
0.53985566 0.063476585 0.028124848
0.54014736 0.062362738 0.027711065
0.54113108 0.060649041 0.026891682
0.54141945 0.05953094 0.026477832
0.5417065 0.058411103 0.026063934
0.54199225 0.057289597 0.02565003
0.54227662 0.056166388 0.025236098
0.54186964 0.055643883 0.02522778
0.54215205 0.054518122 0.02481381
0.5424332 0.053390626 0.024399787
0.54202491 0.052866418 0.024391444
0.54161662 0.05234221 0.0243831
0.54120833 0.051818002 0.024374755
0.58384454 0.117374 0.027577609
0.5834409 0.11685576 0.027569359
0.58303726 0.1163375 0.02756111
0.58263361 0.11581925 0.02755286
0.58222997 0.115301 0.02754461
0.58182627 0.11478275 0.027536361
0.58142263 0.1142645 0.027528111
0.58101898 0.11374625 0.027519861
0.58061534 0.11322799 0.027511612
0.57945305 0.11322339 0.027908597
0.57829207 0.11322048 0.028305609
0.5771324 0.11321931 0.028702671
0.57673073 0.11270362 0.028694462
0.57557309 0.11270497 0.029091541
0.57366145 0.11322592 0.02989395
0.57326174 0.11271278 0.029885782
0.57210809 0.11271923 0.030282944
0.57095569 0.11272743 0.030680152
0.57055736 0.11221598 0.03067201
0.56940699 0.11222669 0.031069241
0.5690093 0.1117161 0.031061113
0.56861162 0.11120551 0.031052986
0.56746387 0.11121962 0.031450268
0.56706685 0.11070988 0.031442154
0.56666988 0.11020014 0.031434041
0.56552482 0.11021766 0.03183138
0.56512845 0.10970877 0.031823277
0.56398535 0.10972888 0.03222068
0.56358963 0.10922084 0.032212593
0.56244856 0.10924347 0.032610007
0.5620535 0.10873628 0.032601934
0.5616585 0.10822909 0.032593861
0.56052005 0.10825512 0.032991335
0.56012565 0.10774878 0.032983273
0.55898923 0.10777736 0.033380788
0.55859554 0.10727188 0.033372741
0.55820185 0.10676639 0.033364695
0.5578081 0.1062609 0.033356648
0.55741441 0.10575542 0.033348601
0.55702072 0.10524993 0.033340555
0.55662704 0.10474444 0.033332508
0.55623329 0.10423896 0.033324461
0.55510283 0.1042752 0.033722099
0.55470979 0.10377056 0.033714067
0.55431676 0.10326593 0.033706032
0.55392367 0.10276129 0.033698
0.55353063 0.10225666 0.033689968
0.5531376 0.10175202 0.033681933
0.55274457 0.10124739 0.033673901
0.55235153 0.10074275 0.033665869
0.5519585 0.10023811 0.033657834
0.55156547 0.099733479 0.033649802
0.55117244 0.099228844 0.03364177
0.55077934 0.098724209 0.033633735
0.55038631 0.098219573 0.033625703
0.54999328 0.097714938 0.033617672
0.54960024 0.097210303 0.03360964
0.54920721 0.096705668 0.033601604
0.54881418 0.096201032 0.033593573
0.54842114 0.095696397 0.033585541
0.54802805 0.095191762 0.033577505
0.54763502 0.094687127 0.033569474
0.54724199 0.094182491 0.033561442
0.54684895 0.093677856 0.033553407
0.54645592 0.093173221 0.033545375
0.54606289 0.092668585 0.033537343
0.54566985 0.09216395 0.033529308
0.54527676 0.091659315 0.033521276
0.54488373 0.09115468 0.033513244
0.54449069 0.090650044 0.033505209
0.54409766 0.090145409 0.033497177
0.54370463 0.089640774 0.033489145
0.5433116 0.089136139 0.03348111
0.54291856 0.088631503 0.033473078
0.54252547 0.088126868 0.033465046
0.54213244 0.087622233 0.033457015
0.5417394 0.087117597 0.033448979
0.54205996 0.086041451 0.03303479
0.54166627 0.085535966 0.033026744
0.5419848 0.084457263 0.032612514
0.54159045 0.083950922 0.032604452
0.54190701 0.082869671 0.032190185
0.54151195 0.08236248 0.032182109
0.54111695 0.081855297 0.032174036
0.54143083 0.080770634 0.031759713
0.54103518 0.080262594 0.031751629
0.54063946 0.079754561 0.031743541
0.54024374 0.079246521 0.031735454
0.53984809 0.078738481 0.031727366
0.53945237 0.078230441 0.031719279
0.53976166 0.077139795 0.031304836
0.53936535 0.076630898 0.031296737
0.53896898 0.076122008 0.031288635
0.53857261 0.075613119 0.031280536
0.5381763 0.075104229 0.031272434
0.53848153 0.07400851 0.030857934
0.53878552 0.072911091 0.030443406
0.53838784 0.072400495 0.030435279
0.53868985 0.071300521 0.030020708
0.5389905 0.070198812 0.029606095
0.53928983 0.069095433 0.02919147
0.53958786 0.067990348 0.028776823
0.53988451 0.066883564 0.028362144
0.54017991 0.065775082 0.027947443
0.54047394 0.064664863 0.027532689
0.54007161 0.064148307 0.027524468
0.54036367 0.06303557 0.027109696
0.54065436 0.061921127 0.026694896
0.54094374 0.060804982 0.026280072
0.54123181 0.059687141 0.02586522
0.54151863 0.058567557 0.025450319
0.54180402 0.057446305 0.025035411
0.54208809 0.056323353 0.024620477
0.54168117 0.055800848 0.02461216
0.54196322 0.054675344 0.024197185
0.54155564 0.054151986 0.024188856
0.54114801 0.053628631 0.024180524
0.54142749 0.052499685 0.023765475
0.5410192 0.051975477 0.02375713
0.58365756 0.11752969 0.026967002
0.58325392 0.11701144 0.026958752
0.58285028 0.11649319 0.026950503
0.58244658 0.11597494 0.026942253
0.58204293 0.11545669 0.026934003
0.58163929 0.11493844 0.026925754
0.58123565 0.11442018 0.026917504
0.580832 0.11390194 0.026909254
0.58042836 0.11338368 0.026901005
0.57926637 0.11337882 0.027298992
0.57810575 0.11337566 0.027697006
0.57770342 0.11285912 0.027688785
0.5765447 0.11285854 0.028086862
0.57538736 0.11285963 0.028484942
