# .PCD v0.7 - Point Cloud Data file format
VERSION 0.7
FIELDS x y z
SIZE 4 4 4
TYPE F F F
COUNT 1 1 1
WIDTH 1331
HEIGHT 1
VIEWPOINT 0 0 0 1 0 0 0
POINTS 1331
DATA ascii
0.5483675 -0.061837427 0.020222249
0.54790938 -0.062418208 0.020198992
0.54805905 -0.063696824 0.01975497
0.54820734 -0.064977147 0.01931088
0.54774797 -0.065559626 0.019287555
0.5478943 -0.066842489 0.018843362
0.54803932 -0.068127066 0.018399078
0.54757857 -0.068711236 0.018375685
0.54711783 -0.069295406 0.018352292
0.54726011 -0.070583336 0.017907897
0.54679871 -0.071168348 0.017884471
0.54633731 -0.071753375 0.017861042
0.5464769 -0.073044695 0.017416513
0.54601485 -0.073630549 0.017393053
0.54615247 -0.074924417 0.016948419
0.5456897 -0.075511128 0.016924923
0.54582536 -0.076807521 0.016480191
0.54595971 -0.078105658 0.016035363
0.54609263 -0.079405442 0.015590494
0.5462243 -0.080706932 0.015145557
0.54635459 -0.082010105 0.014700552
0.54648358 -0.083315022 0.014255453
0.54661119 -0.084621586 0.013810312
0.54673743 -0.085929833 0.013365105
0.54686242 -0.08723978 0.012919828
0.54698598 -0.088551432 0.012474484
0.54710835 -0.089864798 0.012029046
0.54722929 -0.09117981 0.011583568
0.54852962 -0.093936242 0.010294729
0.54864663 -0.095256388 0.0098490203
0.54817319 -0.095856637 0.0098249828
0.54828811 -0.097179301 0.0093791978
0.54851395 -0.099829674 0.0084874248
0.54803848 -0.10043246 0.0084632859
0.60500735 -0.036477022 0.0079587754
0.60122716 -0.03393162 0.01002976
0.60075104 -0.034535263 0.010005587
0.59961611 -0.034506522 0.010400567
0.59848255 -0.034476124 0.01079559
0.5973503 -0.034444034 0.011190682
0.5968762 -0.035045136 0.01116661
0.59574598 -0.035010509 0.011561803
0.59414428 -0.035573557 0.011933084
0.59301734 -0.035534695 0.012328446
0.59189183 -0.035494141 0.012723876
0.59076756 -0.035451896 0.013119373
0.58964467 -0.035407953 0.013514939
0.58852309 -0.035362285 0.013910597
0.58740288 -0.035314951 0.014306298
0.58628398 -0.03526593 0.014702068
0.58516645 -0.035215218 0.015097904
0.58405024 -0.035162807 0.015493808
0.58293533 -0.035108674 0.015889805
0.5818218 -0.035052881 0.016285846
0.58070958 -0.034995392 0.016681954
0.57959872 -0.034936208 0.01707813
0.57848912 -0.034875304 0.017474398
0.57738096 -0.034812745 0.017870709
0.5762741 -0.034748483 0.01826709
0.57581198 -0.035334341 0.018243628
0.57534993 -0.035920199 0.018220166
0.57424569 -0.035852555 0.01861668
0.57378429 -0.036437567 0.018593254
0.57268214 -0.036367379 0.01898987
0.57158124 -0.03629547 0.019386578
0.57112116 -0.036878787 0.019363219
0.57002228 -0.036804371 0.019760007
0.56956285 -0.037386846 0.019736681
0.56846601 -0.037309885 0.020133568
0.56800729 -0.037891515 0.020110277
0.56691247 -0.037812009 0.020507265
0.56645435 -0.03839279 0.020484008
0.56599629 -0.038973574 0.020460751
0.56553823 -0.039554354 0.020437492
0.56508017 -0.040135138 0.020414235
0.56462204 -0.040715922 0.020390976
0.56416398 -0.041296702 0.020367719
0.56370592 -0.041877482 0.020344462
0.56324786 -0.042458262 0.020321203
0.56278974 -0.043039043 0.020297946
0.56233168 -0.043619823 0.020274689
0.56187361 -0.044200603 0.020251431
0.56141555 -0.044781383 0.020228174
0.56033003 -0.044690035 0.020625638
0.55987263 -0.04526997 0.020602414
0.55941522 -0.045849904 0.020579191
0.55895782 -0.046429835 0.020555967
0.55850041 -0.04700977 0.020532742
0.558043 -0.047589708 0.020509519
0.5575856 -0.048169643 0.020486295
0.55712819 -0.048749577 0.020463072
0.55667078 -0.049329508 0.020439848
0.55621338 -0.04990945 0.020416623
0.55513519 -0.049808748 0.020814486
0.55467844 -0.050387837 0.020791296
0.55422169 -0.050966926 0.020768106
0.55376494 -0.051546011 0.020744916
0.55330819 -0.052125104 0.020721726
0.5528515 -0.052704189 0.020698536
0.55239475 -0.053283274 0.020675346
0.551938 -0.053862367 0.020652156
0.55148125 -0.054441452 0.020628966
0.5510245 -0.055020537 0.020605778
0.55056775 -0.05559963 0.020582587
0.55011106 -0.056178715 0.020559398
0.55026704 -0.057448599 0.020114714
0.54980963 -0.058028534 0.020091491
0.54935223 -0.058608465 0.020068267
0.54889482 -0.059188399 0.020045044
0.54843742 -0.059768338 0.02002182
0.54858941 -0.061043262 0.019576959
0.54813135 -0.06162405 0.0195537
0.54767323 -0.06220483 0.019530443
0.54782254 -0.063483134 0.019085448
0.54797053 -0.064763151 0.018640382
0.54811716 -0.066044845 0.018195251
0.54765707 -0.066628173 0.018171892
0.54780179 -0.067912444 0.017726632
0.54734105 -0.068496615 0.017703239
0.54748362 -0.06978339 0.017257905
0.54702222 -0.070368402 0.017234476
0.54716289 -0.071657725 0.01678904
0.54670078 -0.072243586 0.01676558
0.54623872 -0.072829448 0.016742118
0.54577661 -0.073415302 0.016718658
0.54591393 -0.074708864 0.01627305
0.54545116 -0.075295568 0.016249554
0.54558647 -0.076591656 0.015803847
0.54572046 -0.07788948 0.015358044
0.54585308 -0.07918895 0.014912201
0.54598433 -0.080490135 0.014466289
0.54611427 -0.081792995 0.014020309
0.54624295 -0.083097599 0.013574236
0.54637021 -0.08440385 0.013128121
0.54649615 -0.085711785 0.012681939
0.54662073 -0.087021425 0.012235687
0.54674399 -0.088332765 0.011789368
0.546866 -0.089645818 0.011342958
0.54698658 -0.090960518 0.010896503
0.5482859 -0.093716025 0.0096047409
0.54840255 -0.095035858 0.0091580581
0.54792911 -0.095636107 0.0091340207
0.54804367 -0.096958458 0.0086872606
0.54837948 -0.10093566 0.0073465505
0.60608107 -0.037512675 0.0064190389
0.60296112 -0.035600848 0.008074794
0.60116476 -0.034944668 0.0088906568
0.60002953 -0.03491712 0.0092865536
0.59889555 -0.03488785 0.0096825417
0.597763 -0.034856919 0.010078573
0.59663177 -0.034824293 0.010474673
0.5955019 -0.034789976 0.010870839
0.59390056 -0.035353336 0.011243097
0.59277397 -0.035314783 0.011639433
0.59164876 -0.035274543 0.012035837
0.59052491 -0.035232607 0.012432309
0.58940232 -0.035188977 0.012828849
0.5882811 -0.035143618 0.013225482
0.58716124 -0.035096597 0.013622158
0.5860427 -0.035047889 0.014018901
0.58492547 -0.034997482 0.014415711
0.58380961 -0.034945384 0.014812591
0.58269507 -0.034891564 0.015209563
0.58158183 -0.03483608 0.015606578
0.58046997 -0.034778904 0.016003661
0.57935947 -0.034720033 0.01640081
0.57825023 -0.034659438 0.016798053
0.5777868 -0.035246991 0.016774524
0.57667965 -0.035183895 0.017171845
0.5755738 -0.035119098 0.017569233
0.57511169 -0.035704955 0.017545771
0.57464963 -0.036290821 0.017522311
0.57418752 -0.036876682 0.017498849
0.57308501 -0.036807653 0.017896406
0.57198381 -0.036736928 0.018294031
0.57152307 -0.037321098 0.018270638
0.5704239 -0.037247799 0.018668389
0.56932604 -0.037172846 0.019066185
0.56886661 -0.037755322 0.019042859
0.56777078 -0.037677824 0.019440753
0.56731206 -0.038259454 0.019417463
0.56685328 -0.03884108 0.01939417
0.56639457 -0.039422709 0.01937088
0.56530207 -0.039340977 0.019768946
0.56484401 -0.039921761 0.019745687
0.56438589 -0.040502541 0.01972243
0.56392783 -0.041083325 0.019699173
0.56346977 -0.041664105 0.019675914
0.56301171 -0.042244885 0.019652657
0.56255358 -0.042825665 0.019629398
0.56209552 -0.043406446 0.019606141
0.56163746 -0.043987226 0.019582884
0.5611794 -0.044568006 0.019559626
0.56072134 -0.04514879 0.019536369
0.56026322 -0.045729574 0.019513112
0.55980515 -0.046310354 0.019489853
0.55934709 -0.046891134 0.019466596
0.55888903 -0.047471918 0.019443339
0.55843091 -0.048052698 0.01942008
0.55797285 -0.048633479 0.019396823
0.55751479 -0.049214259 0.019373564
0.55705673 -0.049795039 0.019350307
0.55597758 -0.049696382 0.019749051
0.55552018 -0.050276317 0.019725826
0.55444294 -0.050175082 0.020124698
0.55398625 -0.050754171 0.020101508
0.5535295 -0.051333256 0.020078318
0.55307275 -0.051912345 0.020055128
0.552616 -0.052491434 0.020031938
0.55215925 -0.053070519 0.020008748
0.5517025 -0.053649612 0.019985558
0.55124581 -0.054228697 0.019962369
0.55078906 -0.054807782 0.019939179
0.55033231 -0.055386875 0.019915989
0.55048865 -0.056655593 0.019470366
0.55003124 -0.057235532 0.01944714
0.54957384 -0.057815466 0.019423917
0.54911643 -0.058395401 0.019400693
0.54865903 -0.058975331 0.01937747
0.54881132 -0.060249105 0.018931668
0.54835325 -0.060829885 0.018908411
0.54789519 -0.061410673 0.018885154
0.5480448 -0.062687829 0.018439217
0.5481931 -0.063966677 0.017993212
0.54773366 -0.064549148 0.017969886
0.54787999 -0.065830536 0.01752378
0.54802501 -0.067113645 0.01707758
0.54756427 -0.067697816 0.017054187
0.5477072 -0.068983451 0.01660791
0.5472458 -0.069568463 0.016584484
0.54678434 -0.070153467 0.016561056
0.54692465 -0.071442477 0.016114645
0.5464626 -0.072028339 0.016091185
0.54600048 -0.072614208 0.016067723
0.54553843 -0.073200062 0.016044261
0.54567534 -0.074493311 0.01559768
0.54521257 -0.075080015 0.015574185
0.54534757 -0.07637579 0.015127502
0.5454812 -0.077673301 0.014680726
0.54561347 -0.078972466 0.014233908
0.54574442 -0.08027333 0.013787021
0.545874 -0.081575885 0.013340067
0.54600227 -0.082880177 0.012893019
0.54612923 -0.084186114 0.012445929
0.54625481 -0.085493743 0.011998772
0.54637909 -0.086803071 0.011551547
0.54650199 -0.088114098 0.011104253
0.54662365 -0.089426845 0.010656867
0.54674393 -0.090741232 0.010209438
0.54804218 -0.093495801 0.0089147529
0.54815847 -0.094815321 0.008467094
0.54768503 -0.095415577 0.0084430566
0.54779929 -0.096737608 0.0079953233
0.5487197 -0.10143819 0.006227891
0.60451299 -0.03603036 0.0065593072
0.6027146 -0.035378139 0.0073770098
0.60157776 -0.035353452 0.0077737784
0.59978408 -0.034695346 0.008591691
0.59865046 -0.034666386 0.0089886552
0.59751827 -0.034635764 0.0093856612
0.59638739 -0.03460345 0.0097827353
0.59525782 -0.034569442 0.010179876
0.59365684 -0.035133116 0.010553109
0.59253061 -0.035094876 0.010950419
0.59140575 -0.035054944 0.011347798
0.5902822 -0.035013318 0.011745244
0.58916003 -0.03497 0.012142759
0.5880391 -0.03492495 0.012540367
0.58691955 -0.034878243 0.012938017
0.58580136 -0.034829844 0.013335735
0.58468449 -0.03477975 0.01373352
0.58356899 -0.034727965 0.014131375
0.58245474 -0.034674454 0.01452932
0.58134192 -0.034619283 0.01492731
0.58023041 -0.034562416 0.015325367
0.57976562 -0.035151664 0.01530177
0.57865614 -0.035092257 0.015699929
0.57754791 -0.035031125 0.016098181
0.57708448 -0.035618681 0.016074652
0.57597834 -0.035555046 0.016472979
0.57551557 -0.036141753 0.016449485
0.5750528 -0.03672846 0.01642599
0.57394934 -0.036661435 0.016824454
0.57348722 -0.037247296 0.016800992
0.57238573 -0.03717773 0.017199557
0.57192433 -0.037762746 0.017176131
0.5708248 -0.037690639 0.017574798
0.56972659 -0.037616812 0.017973559
0.5686298 -0.037541322 0.018372361
0.56817037 -0.03812379 0.018349035
0.56707555 -0.038045764 0.018747941
0.56661683 -0.03862739 0.018724648
0.56615806 -0.039209019 0.018701358
0.56569934 -0.039790649 0.018678065
0.56524056 -0.040372275 0.018654773
0.56478184 -0.040953904 0.018631482
0.56432307 -0.04153553 0.01860819
0.56386435 -0.04211716 0.0185849
0.56340557 -0.042698789 0.018561607
0.56294686 -0.043280412 0.018538317
0.56248814 -0.043862037 0.018515024
0.56202936 -0.044443667 0.018491732
0.56157064 -0.045025293 0.018468441
0.56111187 -0.045606922 0.018445149
0.56065315 -0.046188552 0.018421859
0.56019437 -0.046770178 0.018398566
0.55973566 -0.047351807 0.018375276
0.55927694 -0.047933433 0.018351983
0.55881816 -0.048515063 0.018328691
0.55835944 -0.049096692 0.0183054
0.55790067 -0.049678318 0.018282108
0.55744195 -0.050259948 0.018258817
0.55636245 -0.050162442 0.018658502
0.55590439 -0.05074323 0.018635243
0.55482692 -0.050643183 0.01903503
0.55436951 -0.051223114 0.019011807
0.5539121 -0.051803056 0.018988581
0.5534547 -0.052382987 0.018965358
0.55299729 -0.052962922 0.018942134
0.55253989 -0.053542856 0.018918911
0.55208248 -0.054122787 0.018895688
0.55162507 -0.054702725 0.018872462
0.55116767 -0.05528266 0.018849239
0.55071026 -0.055862594 0.018826015
0.55025285 -0.056442525 0.018802792
0.54979545 -0.057022467 0.018779568
0.54933804 -0.057602398 0.018756345
0.54888064 -0.058182333 0.018733121
0.54903322 -0.059454944 0.018286379
0.54857516 -0.060035724 0.01826312
0.5481171 -0.060616508 0.018239863
0.54826707 -0.061892502 0.017792985
0.54780829 -0.062474135 0.017769694
0.54795629 -0.063752674 0.017322714
0.54810286 -0.065032907 0.016875667
0.54824823 -0.066314869 0.016428526
0.54778749 -0.066899024 0.016405134
0.54732668 -0.067483194 0.016381741
0.54746932 -0.068768516 0.01593449
0.54700792 -0.069353528 0.015911063
0.54714853 -0.070641376 0.015463711
0.54668641 -0.07122723 0.01544025
0.54622436 -0.071813099 0.015416788
0.54576224 -0.072398961 0.015393327
0.54530019 -0.072984815 0.015369866
0.5454368 -0.074277751 0.01492231
0.54557204 -0.075572371 0.014474686
0.54570603 -0.07686872 0.01402697
0.54524195 -0.077457123 0.014003406
0.54537386 -0.078755975 0.013555614
0.54550445 -0.080056533 0.013107752
0.54563373 -0.081358775 0.012659824
0.54576164 -0.082662754 0.012211802
0.54588825 -0.083968386 0.011763737
0.54601353 -0.085275702 0.011315606
0.54613745 -0.086584717 0.010867406
0.54626 -0.087895431 0.010419138
0.54638129 -0.089207865 0.0099707777
0.54650122 -0.090521947 0.0095223747
0.54779845 -0.093275584 0.0082247648
0.54791439 -0.094594792 0.0077761314
0.54744095 -0.095195048 0.007752094
0.54755485 -0.096516766 0.007303386
0.54905921 -0.10194012 0.0051072827
0.60492563 -0.036435902 0.0054376232
0.60312724 -0.035785154 0.0062572407
0.60199004 -0.035761617 0.0066549499
0.60019636 -0.035104979 0.0074747792
0.5990625 -0.035077211 0.0078726579
0.59792995 -0.035047717 0.0082706297
0.59679872 -0.035016559 0.0086686444
0.59566885 -0.034983713 0.0090667261
0.5945403 -0.034949165 0.0094648758
0.59294033 -0.035512302 0.0098391166
0.59181511 -0.035473529 0.010237436
0.59069127 -0.035433058 0.010635823
0.58956873 -0.035390895 0.011034278
0.58844757 -0.035347037 0.011432801
0.58732766 -0.035301462 0.011831417
0.58620912 -0.035254214 0.012230076
0.58509195 -0.035205279 0.012628802
0.58397609 -0.035154652 0.013027596
0.5828616 -0.035102334 0.013426458
0.58174837 -0.035048287 0.013825414
0.58063656 -0.034992572 0.014224412
0.57952607 -0.034935176 0.014623476
0.57906127 -0.03552442 0.014599879
0.5779528 -0.035464481 0.014999047
0.57684559 -0.035402812 0.015398307
0.57638216 -0.035990369 0.015374778
0.57527703 -0.035926197 0.015774114
0.57481426 -0.036512904 0.015750621
0.57435149 -0.037099615 0.015727125
0.57324898 -0.037032053 0.016126597
0.57278693 -0.037617918 0.016103135
0.57168645 -0.037547816 0.01650271
0.57058728 -0.037476018 0.016902352
0.56948942 -0.037402499 0.017302087
0.56902933 -0.037985817 0.017278727
0.56793356 -0.037909791 0.017678538
0.56747413 -0.038492266 0.017655212
0.56701469 -0.039074741 0.017631888
0.56655532 -0.039657217 0.017608562
0.56609589 -0.040239692 0.017585237
0.56563646 -0.040822167 0.017561911
0.56517708 -0.041404642 0.017538585
0.56471765 -0.041987114 0.017515261
0.56425822 -0.042569589 0.017491935
0.56379884 -0.043152064 0.017468609
0.56333941 -0.043734539 0.017445283
0.56287998 -0.044317015 0.017421959
0.56242061 -0.04489949 0.017398633
0.56196117 -0.045481961 0.017375307
0.5615018 -0.046064436 0.017351981
0.56104237 -0.046646912 0.017328657
0.56058294 -0.047229387 0.017305331
0.56012356 -0.047811862 0.017282005
0.55966413 -0.048394337 0.017258679
0.5592047 -0.048976813 0.017235354
0.55874532 -0.04955928 0.01721203
0.55828589 -0.050141759 0.017188704
0.55782646 -0.050724234 0.017165378
0.55674672 -0.050627887 0.017566003
0.55566823 -0.050529853 0.017966695
0.55521017 -0.051110633 0.017943438
0.55475211 -0.051691413 0.017920181
0.55429399 -0.052272193 0.017896922
0.55383593 -0.052852973 0.017873665
0.55337787 -0.053433754 0.017850408
0.55291981 -0.054014534 0.017827149
0.55246168 -0.054595318 0.017803892
0.55200362 -0.055176098 0.017780634
0.55154556 -0.055756878 0.017757377
0.5510875 -0.056337666 0.01773412
0.55062938 -0.056918446 0.017710861
0.55017132 -0.057499226 0.017687604
0.54971325 -0.058080006 0.017664347
0.54925519 -0.058660787 0.017641088
0.54879707 -0.059241567 0.017617831
0.54833901 -0.059822347 0.017594572
0.54848927 -0.061097194 0.017146755
0.54803056 -0.061678816 0.017123463
0.54817885 -0.062956199 0.016675543
0.54771942 -0.063538678 0.016652217
0.54786569 -0.064818598 0.016204195
0.54801065 -0.066100247 0.01575608
0.54754996 -0.066684403 0.015732687
0.54769289 -0.067968555 0.015284496
0.54723144 -0.068553582 0.015261069
0.5473724 -0.069840267 0.014812776
0.54691029 -0.070426136 0.014789315
0.54644823 -0.07101199 0.014765854
0.54598612 -0.071597852 0.014742393
0.54552406 -0.072183721 0.014718931
0.54506195 -0.072769575 0.014695471
0.5451982 -0.074062198 0.01424694
0.54533315 -0.075356506 0.013798342
0.54546678 -0.076652542 0.01334965
0.54559904 -0.077950247 0.012900917
0.54572994 -0.079249635 0.012452115
0.54585952 -0.08055073 0.012003246
0.54598778 -0.081853546 0.011554283
0.54611474 -0.083158009 0.011105279
0.54624027 -0.084464185 0.010656205
0.54636455 -0.085772038 0.010207064
0.54648745 -0.087081589 0.0097578568
0.54660904 -0.088392869 0.0093085552
0.54672927 -0.089705795 0.0088592116
0.54743785 -0.091738187 0.0079842899
0.54814374 -0.093774006 0.0071092062
0.5476703 -0.094374262 0.0070851687
0.54778457 -0.095694818 0.0066355197
0.5478974 -0.097017072 0.0061858031
0.60353923 -0.036191568 0.0051354975
0.60174358 -0.035538904 0.0059571648
0.60060805 -0.035513986 0.0063559171
0.59947383 -0.03548738 0.006754736
0.5976848 -0.034826253 0.0075767431
0.59655398 -0.034795403 0.007975732
0.59542441 -0.034762871 0.0083747888
0.59429628 -0.034728631 0.0087739136
0.59269661 -0.035292082 0.0091491286
0.59157175 -0.035253618 0.0095484219
0.5904482 -0.035213459 0.0099477842
0.58932602 -0.035171606 0.010347214
0.58820522 -0.035128061 0.010746711
0.58708566 -0.035082795 0.011146301
0.58596748 -0.03503586 0.011545935
0.58485067 -0.034987237 0.011945636
0.58373517 -0.03493692 0.012345404
0.58262098 -0.034884911 0.012745242
0.5815081 -0.034831177 0.013145171
0.58039659 -0.034775775 0.013545143
0.5799312 -0.035365868 0.013521513
0.57882172 -0.035307929 0.013921587
0.57771355 -0.035248302 0.014321728
0.57724947 -0.035836704 0.014298165
0.57614326 -0.035774503 0.014698434
0.57567984 -0.036362056 0.014674905
0.57457566 -0.036297347 0.01507525
0.57411295 -0.036884062 0.015051754
0.5730108 -0.036816806 0.015452202
0.57254869 -0.037402671 0.015428741
0.57208663 -0.037988532 0.01540528
0.57098716 -0.037917893 0.015805863
0.56988901 -0.037845567 0.016206512
0.56879216 -0.037771508 0.016607257
0.56769669 -0.037695792 0.017008042
0.56723726 -0.038278267 0.016984716
0.56677788 -0.038860742 0.01696139
0.56631845 -0.039443217 0.016938064
0.56585908 -0.040025692 0.01691474
0.56539965 -0.040608168 0.016891414
0.56494021 -0.041190643 0.016868088
0.56448084 -0.041773114 0.016844762
0.56402141 -0.04235559 0.016821438
0.56356198 -0.042938065 0.016798113
0.5631026 -0.04352054 0.016774787
0.56264317 -0.044103015 0.016751461
0.56218374 -0.04468549 0.016728135
0.56172436 -0.045267958 0.016704811
0.56126493 -0.045850437 0.016681485
0.5608055 -0.046432912 0.016658159
0.56034613 -0.047015388 0.016634833
0.55988669 -0.047597863 0.016611509
0.55942726 -0.048180338 0.016588183
0.55896789 -0.048762813 0.016564857
0.55850846 -0.049345281 0.016541531
0.55804908 -0.049927756 0.016518207
0.55758965 -0.050510231 0.016494881
0.55713022 -0.051092707 0.016471555
0.55605143 -0.050995827 0.016873188
0.55559272 -0.051577453 0.016849898
0.55451596 -0.051478036 0.017251633
0.55405784 -0.052058816 0.017228374
0.55359977 -0.052639596 0.017205117
0.55314171 -0.053220376 0.01718186
0.55268365 -0.053801157 0.017158601
0.55222553 -0.054381937 0.017135344
0.55176747 -0.054962721 0.017112086
0.55130941 -0.055543501 0.017088829
0.55085135 -0.056124285 0.017065572
0.55039322 -0.056705065 0.017042313
0.55054653 -0.057975363 0.016593691
0.55008781 -0.058556993 0.016570399
0.54962903 -0.059138618 0.016547106
0.54917032 -0.059720248 0.016523816
0.54871154 -0.060301874 0.016500523
0.54825282 -0.060883503 0.016477233
0.54840142 -0.062159725 0.016028371
0.54794198 -0.062742203 0.016005047
0.54808861 -0.064020954 0.015556084
0.54823387 -0.065301456 0.015107027
0.54777312 -0.065885626 0.015083634
0.54731238 -0.066469781 0.015060241
0.54745501 -0.067753628 0.014611076
0.54699355 -0.068338647 0.014587648
0.54713416 -0.069625027 0.014138381
0.54667211 -0.070210889 0.01411492
0.54620999 -0.070796743 0.014091459
0.54574794 -0.071382612 0.014067998
0.54528582 -0.071968473 0.014044536
0.54542243 -0.073259935 0.013595065
0.54495966 -0.073846646 0.01357157
0.54509425 -0.07514064 0.013121998
0.54522753 -0.076436371 0.012672332
0.54535943 -0.077733755 0.012222623
0.54549003 -0.079032838 0.011772848
0.54561925 -0.080333613 0.011323003
0.54574716 -0.081636123 0.010873066
0.54587376 -0.08294028 0.010423087
0.54599899 -0.084246136 0.0099730389
0.54612285 -0.085553683 0.0095229242
0.5462454 -0.086862922 0.0090727406
0.54636669 -0.088173889 0.0086224647
0.54648656 -0.08948651 0.008172147
0.54660511 -0.090800829 0.0077217603
0.54789966 -0.093553476 0.0064182435
0.54801422 -0.094872884 0.0059676538
0.54812741 -0.096193977 0.0055169961
0.54823929 -0.09751676 0.0050662709
0.60036188 -0.035291586 0.0056591071
0.59922802 -0.035265293 0.0060589006
0.59809554 -0.035237301 0.0064587626
0.5969643 -0.035207581 0.0068587172
0.59583443 -0.035176199 0.0072587146
0.59470594 -0.035143126 0.0076587801
0.59357876 -0.035108354 0.0080589131
0.5919801 -0.035671271 0.0084351366
0.59085625 -0.035632268 0.0088354386
0.58973378 -0.035591576 0.0092358086
0.58861262 -0.03554919 0.0096362466
0.58749276 -0.035505109 0.010036753
0.58637422 -0.035459302 0.010437353
0.58525705 -0.035411831 0.010837994
0.58414125 -0.03536268 0.011238704
0.58302677 -0.035311826 0.01163948
0.58191359 -0.035259273 0.012040325
0.58080173 -0.035205003 0.012441264
0.57969123 -0.035149071 0.012842244
0.57858211 -0.035091441 0.013243293
0.57811737 -0.035680693 0.013219696
0.57701021 -0.035620525 0.013620846
0.57590437 -0.035558634 0.01402209
0.57544094 -0.03614619 0.013998561
0.57497752 -0.036733743 0.013975032
0.57387435 -0.036668506 0.014376385
0.57341164 -0.037255213 0.01435289
0.57231051 -0.037187427 0.014754346
0.57184839 -0.037773289 0.014730885
0.57074928 -0.037702959 0.015132441
0.56965148 -0.037630945 0.015534067
0.56919074 -0.038215108 0.015510673
0.56809491 -0.03814052 0.015912425
0.56763482 -0.038723841 0.015889065
0.56717473 -0.039307166 0.015865706
0.56671464 -0.039890483 0.015842346
0.56625456 -0.040473804 0.015818987
0.56579453 -0.041057128 0.015795628
0.56533444 -0.041640449 0.015772268
0.56487435 -0.042223766 0.015748909
0.56441426 -0.042807091 0.015725549
0.56395417 -0.043390412 0.01570219
0.56349409 -0.043973729 0.01567883
0.56303406 -0.044557054 0.015655471
0.56257397 -0.045140374 0.015632112
0.56211388 -0.045723699 0.015608753
0.56165379 -0.046307016 0.015585394
0.5611937 -0.046890337 0.015562034
0.56073362 -0.047473662 0.015538675
0.56027353 -0.048056979 0.015515315
0.5598135 -0.0486403 0.015491956
0.55935341 -0.049223624 0.015468596
0.55889332 -0.049806945 0.015445237
0.55843323 -0.050390262 0.015421878
0.55797315 -0.050973587 0.015398518
0.55643398 -0.051461183 0.015777733
0.55597454 -0.052043658 0.015754407
0.55489749 -0.051945392 0.016157083
0.55443871 -0.052527022 0.016133791
0.55397999 -0.053108647 0.0161105
0.55352122 -0.053690277 0.016087208
0.5530625 -0.054271907 0.016063917
0.55260372 -0.054853532 0.016040625
0.552145 -0.055435162 0.016017335
0.55168629 -0.056016788 0.015994042
0.55122751 -0.056598417 0.01597075
0.55076879 -0.057180047 0.015947459
0.55031002 -0.057761673 0.015924167
0.5498513 -0.058343302 0.015900876
0.54939252 -0.058924928 0.015877584
0.5489338 -0.059506558 0.015854293
0.54847503 -0.060088187 0.015831001
0.54801631 -0.060669813 0.015807709
0.54816455 -0.061945725 0.015357874
0.54831147 -0.063223332 0.014907972
0.54785138 -0.063806646 0.014884613
0.54799634 -0.065086834 0.014434582
0.5475356 -0.065671004 0.014411189
0.54767853 -0.066953681 0.013961082
0.54721713 -0.067538694 0.013937655
0.54735804 -0.068823919 0.013487447
0.54689592 -0.06940978 0.013463985
0.54643387 -0.069995649 0.013440524
0.54597181 -0.070581503 0.013417063
0.5455097 -0.071167365 0.013393602
0.54564661 -0.072457679 0.01294319
0.54518384 -0.073044382 0.012919695
0.54531878 -0.074337214 0.012469183
0.54545236 -0.07563179 0.012018575
0.54558462 -0.076928012 0.011567927
0.54571551 -0.07822594 0.01111721
0.54584503 -0.07952556 0.010666425
0.5459733 -0.080826908 0.010215547
0.5461002 -0.082129911 0.0097646266
0.54622573 -0.083434612 0.0093136393
0.54634994 -0.084741004 0.008862583
0.54647285 -0.086049087 0.0084114596
0.54659444 -0.087358892 0.0079602432
0.54671466 -0.088670358 0.0075089838
0.54683352 -0.089983515 0.007057657
0.54812902 -0.09273269 0.0057513183
0.54824394 -0.094050936 0.005299788
0.59898221 -0.035043206 0.0053630653
0.59785008 -0.035015523 0.0057639014
0.59671921 -0.034986116 0.0061648311
0.5955897 -0.034955043 0.0065658032
0.5944615 -0.034922283 0.0069668423
0.59333467 -0.03488782 0.0073679504
0.59173638 -0.035451051 0.0077451481
0.59061289 -0.035412356 0.0081464248
0.58949071 -0.035371978 0.0085477699
0.58836991 -0.035329901 0.0089491829
0.58725041 -0.035286132 0.0093506631
0.58613223 -0.035240639 0.0097522363
0.58501542 -0.035193477 0.010153853
0.58389992 -0.035144635 0.010555536
0.58278579 -0.03509409 0.010957289
0.58167297 -0.035041854 0.011359109
0.58056146 -0.034987893 0.011761022
0.57945132 -0.034932271 0.012162976
0.57898587 -0.035522368 0.012139346
0.57787776 -0.035464201 0.012541403
0.57677096 -0.035404351 0.012943528
0.57630688 -0.035992749 0.012919964
0.57520205 -0.035930324 0.013322216
0.57473862 -0.036517877 0.013298688
0.57363582 -0.036452953 0.013701015
0.57317305 -0.037039656 0.01367752
0.57207227 -0.036972184 0.014079951
0.57161021 -0.037558042 0.01405649
0.5705114 -0.037488028 0.01445902
0.56941396 -0.037416324 0.01486162
0.56895322 -0.038000487 0.014838227
0.56785774 -0.037926208 0.015240953
0.56739765 -0.038509529 0.015217594
0.56693757 -0.039092854 0.015194234
0.56647748 -0.039676171 0.015170875
0.56601739 -0.040259492 0.015147516
0.5655573 -0.040842816 0.015124156
0.56509721 -0.041426141 0.015100797
0.56463718 -0.042009454 0.015077438
0.5641771 -0.042592779 0.015054079
0.56371701 -0.043176103 0.015030719
0.56325692 -0.043759417 0.01500736
0.56279683 -0.044342741 0.014984
0.56233674 -0.044926066 0.014960641
0.56250274 -0.04617884 0.014510721
0.562042 -0.046763007 0.014487327
0.56158125 -0.047347177 0.014463934
0.56112051 -0.04793134 0.014440541
0.56065977 -0.04851551 0.014417147
0.56019902 -0.04909968 0.014393754
0.55973828 -0.049683843 0.014370361
0.55927753 -0.050268013 0.014346967
0.55881679 -0.05085218 0.014323574
0.55835605 -0.05143635 0.014300181
0.55727589 -0.051342599 0.014703687
0.5568158 -0.051925916 0.014680329
0.55573773 -0.051829658 0.015083911
0.5552783 -0.052412134 0.015060585
0.55481893 -0.052994605 0.01503726
0.5543595 -0.05357708 0.015013934
0.55390006 -0.054159556 0.014990609
0.55344069 -0.054742031 0.014967283
0.55298126 -0.055324506 0.014943957
0.55252182 -0.055906981 0.014920632
0.55206245 -0.056489453 0.014897306
0.55160302 -0.057071928 0.014873981
0.55114359 -0.057654403 0.014850656
0.55068421 -0.058236878 0.014827331
0.55022478 -0.058819354 0.014804005
0.54976535 -0.059401829 0.01478068
0.54930598 -0.059984304 0.014757354
0.54884654 -0.060566776 0.014734029
0.54838711 -0.061149251 0.014710703
0.54792774 -0.061731726 0.014687377
0.54807431 -0.063009016 0.0142365
0.54761422 -0.063592337 0.014213141
0.54775882 -0.064872213 0.013762135
0.54729807 -0.065456383 0.013738742
0.54744065 -0.066738747 0.013287662
0.54697925 -0.067323759 0.013264234
0.5471198 -0.068608671 0.012813052
0.54665774 -0.06919454 0.01278959
0.54679632 -0.070481986 0.012338306
0.54633355 -0.071068697 0.01231481
0.54587078 -0.071655415 0.012291315
0.54540801 -0.072242118 0.012267821
0.54554325 -0.073533803 0.011816367
0.54567719 -0.074827209 0.011364819
0.54580975 -0.076122284 0.01091323
0.545941 -0.07741905 0.010461573
0.54607087 -0.078717507 0.010009848
0.54619944 -0.080017701 0.0095580285
0.54632664 -0.081319548 0.0091061676
0.54645252 -0.082623094 0.0086542387
0.54657704 -0.083928317 0.0082022427
0.5467003 -0.085235246 0.0077501782
0.54682219 -0.086543895 0.0072980206
0.54694271 -0.087854192 0.0068458216
0.54706192 -0.089166202 0.0063935542
0.54776907 -0.091195889 0.0055128187
0.547885 -0.092512161 0.0050603556
0.59712851 -0.035397384 0.0050448673
0.59599864 -0.03536744 0.0054468056
0.59487015 -0.035335839 0.0058487859
0.59374297 -0.035302538 0.0062508336
0.59261715 -0.035267547 0.0066529503
0.59149265 -0.03523083 0.0070551597
0.58989739 -0.035791013 0.0074334415
0.58877623 -0.035750095 0.0078357952
0.58765644 -0.035707481 0.0082382159
0.58653796 -0.035663176 0.0086407047
0.58542079 -0.035617147 0.0090432875
0.58430499 -0.035569455 0.0094459122
0.5831905 -0.035520073 0.0098486049
0.58207738 -0.035468992 0.010251365
0.58096558 -0.035416223 0.010654192
0.57985508 -0.035361726 0.011057114
0.57874596 -0.035305567 0.011460078
0.57763815 -0.035247713 0.011863109
0.57717341 -0.035836961 0.011839513
0.57606763 -0.035776574 0.012242646
0.57496315 -0.035714455 0.012645872
0.57449973 -0.036302011 0.012622343
0.57339728 -0.036237396 0.013025645
0.57293451 -0.036824103 0.013002151
0.57183403 -0.03675694 0.013405555
0.57137197 -0.037342798 0.013382094
0.57027352 -0.037273094 0.0137856
0.56917644 -0.037201703 0.014189173
0.56871569 -0.037785865 0.014165781
0.56825495 -0.038370036 0.014142388
0.5677942 -0.038954206 0.014118994
0.56733346 -0.039538369 0.014095601
0.56687272 -0.040122539 0.014072208
0.56641197 -0.040706705 0.014048815
0.56595117 -0.041290876 0.014025421
0.56549042 -0.041875038 0.014002028
0.56502968 -0.042459209 0.013978634
0.56456894 -0.043043379 0.013955241
0.56410819 -0.043627545 0.013931848
0.56364745 -0.044211715 0.013908454
0.56318671 -0.044795878 0.013885061
0.56272596 -0.045380048 0.013861668
0.56226522 -0.045964219 0.013838274
0.56180447 -0.046548381 0.013814881
0.56196809 -0.047803357 0.013363911
0.56150663 -0.048388369 0.013340483
0.56104523 -0.048973385 0.013317056
0.56058383 -0.049558397 0.01329363
0.56012243 -0.05014341 0.013270202
0.55966097 -0.050728429 0.013246775
0.55919957 -0.051313441 0.013223347
0.55873817 -0.051898457 0.01319992
0.55765772 -0.051805899 0.013604342
0.55657864 -0.051711604 0.014008856
0.55611855 -0.052294925 0.013985497
0.55504149 -0.052198134 0.014390088
0.55458206 -0.052780606 0.014366763
0.55412263 -0.053363081 0.014343437
0.55366325 -0.053945556 0.014320112
0.55320382 -0.054528031 0.014296786
0.55274439 -0.055110507 0.01427346
0.55228502 -0.055692982 0.014250135
0.55182558 -0.05627545 0.01422681
0.55136621 -0.056857929 0.014203484
0.55090678 -0.057440404 0.014180158
0.55044734 -0.058022879 0.014156833
0.55059761 -0.059294783 0.013705185
0.55013752 -0.059878107 0.013681825
0.54967743 -0.060461421 0.013658466
0.54921734 -0.061044745 0.013635106
0.54875726 -0.06162807 0.013611747
0.54829717 -0.062211391 0.013588388
0.54783714 -0.062794708 0.013565028
0.54798204 -0.064073421 0.013113082
0.54752129 -0.064657591 0.013089689
0.54766423 -0.065938801 0.012637667
0.54720277 -0.066523813 0.012614241
0.54734367 -0.067807578 0.012162117
0.54688162 -0.068393432 0.012138656
0.54702049 -0.06967973 0.011686431
0.54655772 -0.070266433 0.011662936
0.54609495 -0.070853144 0.011639441
0.54563224 -0.071439862 0.011615946
0.54576778 -0.072730377 0.011163551
0.54530436 -0.073317938 0.011140022
0.54543793 -0.074611031 0.0106875
0.54557014 -0.075905792 0.010234936
0.54570103 -0.077202246 0.0097823041
0.54583055 -0.078500398 0.0093296049
0.54595882 -0.079800278 0.0088768117
0.54608566 -0.081101812 0.0084239757
0.54621118 -0.082405046 0.0079710726
0.5463354 -0.083709963 0.0075181019
0.54645824 -0.085016578 0.0070650629
0.54657984 -0.086324915 0.0066119307
0.54670006 -0.087634906 0.006158757
0.54681891 -0.088946603 0.0057055149
0.59462541 -0.035114683 0.005155874
0.59349859 -0.035081696 0.0055588968
0.59237313 -0.035047017 0.0059619872
0.59124893 -0.03501061 0.0063651712
0.58965403 -0.035571102 0.0067444281
0.58853322 -0.035530496 0.0071477559
0.58741373 -0.035488196 0.0075511518
0.5862956 -0.0354442 0.0079546152
0.58517879 -0.035398483 0.0083581721
0.58406335 -0.035351101 0.008761771
0.58294922 -0.035302028 0.0091654379
0.5818364 -0.03525126 0.0095691727
0.58072495 -0.0351988 0.0099729756
0.57961482 -0.035144616 0.010376872
0.57850599 -0.035088766 0.010780809
0.5773986 -0.035031226 0.011184815
0.5769338 -0.035620473 0.011161219
0.57582837 -0.035560396 0.011565327
0.57536429 -0.036148798 0.011541763
0.57426083 -0.036086146 0.011945998
0.5737974 -0.036673699 0.01192247
0.57269597 -0.036608547 0.012326781
0.5722332 -0.037195254 0.012303285
0.57113373 -0.037127554 0.012707699
0.57003564 -0.03705816 0.013112179
0.56957424 -0.037643179 0.013088752
0.56847817 -0.037571244 0.013493335
0.56801742 -0.038155414 0.013469941
0.56755668 -0.038739584 0.013446548
0.56709594 -0.039323747 0.013423155
0.56663513 -0.039907917 0.013399761
0.56617439 -0.040492084 0.013376368
0.56571364 -0.041076254 0.013352975
0.5652529 -0.041660417 0.013329581
0.56479216 -0.042244587 0.013306188
0.56433141 -0.042828757 0.013282795
0.56387067 -0.04341292 0.013259402
0.56340992 -0.04399709 0.013236009
0.56294918 -0.044581257 0.013212616
0.56248844 -0.045165427 0.013189222
0.56202769 -0.045749597 0.013165829
0.56219161 -0.047003407 0.012713917
0.56235421 -0.048258912 0.012261938
0.56189209 -0.048844777 0.012238476
0.56143004 -0.049430635 0.012215015
0.56096792 -0.050016496 0.012191555
0.56050587 -0.050602362 0.012168094
0.56004375 -0.051188219 0.012144633
0.5595817 -0.051774077 0.012121172
0.55911958 -0.052359942 0.01209771
0.55803889 -0.052268535 0.012503073
0.55695945 -0.05217544 0.012908502
0.55588138 -0.052080616 0.013314025
0.55542129 -0.052663937 0.013290666
0.5549612 -0.053247262 0.013267307
0.55450112 -0.053830579 0.013243947
0.55404103 -0.0544139 0.013220588
0.55358094 -0.054997224 0.013197228
0.55312091 -0.055580545 0.013173869
0.55266082 -0.056163862 0.01315051
0.55220073 -0.056747187 0.013127151
0.55174065 -0.057330508 0.013103791
0.55128056 -0.057913825 0.013080432
0.55082047 -0.058497149 0.013057073
0.55036038 -0.05908047 0.013033713
0.54990035 -0.059663795 0.013010354
0.54944026 -0.060247112 0.012986994
0.54898018 -0.060830433 0.012963635
0.54852009 -0.061413758 0.012940275
0.54806 -0.061997078 0.012916916
0.54820526 -0.063274629 0.01246403
0.54774451 -0.0638588 0.012440637
0.54728377 -0.06444297 0.012417244
0.54742634 -0.065723866 0.011964247
0.54696494 -0.066308878 0.01194082
0.54710543 -0.06759233 0.011487721
0.54664338 -0.068178184 0.011464261
0.5467819 -0.069464169 0.011011061
0.54631919 -0.07005088 0.010987566
0.54585642 -0.070637584 0.010964071
0.54599231 -0.071926951 0.010510736
0.54552889 -0.072514512 0.010487207
0.54566276 -0.073806457 0.010033744
0.54579532 -0.075100064 0.0095802397
0.54592651 -0.076395355 0.0091266669
0.54605639 -0.077692352 0.0086730262
0.54618496 -0.078991063 0.0082192933
0.54631215 -0.080291435 0.0077655171
0.54643798 -0.081593521 0.0073116729
0.54656249 -0.082897283 0.0068577607
0.5466857 -0.084202744 0.0064037815
0.54680759 -0.085509934 0.0059497086
0.54692811 -0.086818755 0.0054955943
0.54704726 -0.088129297 0.0050414111
0.59212905 -0.034826484 0.0052710245
0.59053242 -0.035389792 0.0056511797
0.58941066 -0.035351191 0.0060554142
0.58829015 -0.035310898 0.0064597167
0.58717108 -0.035268907 0.0068640872
0.58605325 -0.035225224 0.0072685252
0.5849368 -0.035179816 0.0076730568
0.58382165 -0.035132747 0.0080776298
0.58270788 -0.035083983 0.0084822718
0.58159542 -0.035033528 0.0088869818
0.58048433 -0.034981381 0.0092917578
0.57937449 -0.034927506 0.0096966289
0.57826608 -0.034871969 0.010101542
0.57780063 -0.035462067 0.01007791
0.57669425 -0.035403986 0.010482925
0.57622945 -0.035993233 0.010459329
0.57512504 -0.035932619 0.010864445
0.57402188 -0.035870276 0.011269654
0.57355851 -0.036457833 0.011246125
0.57245737 -0.03639299 0.011651411
0.5719946 -0.036979698 0.011627916
0.57089555 -0.036912311 0.012033303
0.56979781 -0.036843229 0.012438758
0.56933635 -0.037428245 0.012415331
0.56824064 -0.037356623 0.012820888
0.5677799 -0.037940793 0.012797495
0.56731915 -0.038524963 0.012774101
0.56685835 -0.039109126 0.012750708
0.56639761 -0.039693296 0.012727316
0.56593686 -0.040277462 0.012703922
0.56547612 -0.040861629 0.012680529
0.56501538 -0.041445795 0.012657136
0.56455463 -0.042029966 0.012633742
0.56409389 -0.042614136 0.012610349
0.56363314 -0.043198299 0.012586956
0.5631724 -0.043782469 0.012563562
0.56271166 -0.044366635 0.012540169
0.56225091 -0.044950806 0.012516776
0.56241512 -0.046203461 0.012063923
0.56257808 -0.04745781 0.011611003
0.56211597 -0.048043668 0.011587542
0.5622769 -0.049300559 0.011134521
0.56181413 -0.04988727 0.011111026
0.56135136 -0.050473977 0.011087531
0.56088865 -0.051060684 0.011064036
0.56042588 -0.051647387 0.011040541
0.55996311 -0.052234095 0.011017046
0.5595004 -0.052820809 0.010993551
0.55841929 -0.05273056 0.011399854
0.55733961 -0.05263862 0.011806224
0.55626118 -0.052544989 0.012212663
0.55518413 -0.052449629 0.012619195
0.55472404 -0.05303295 0.012595835
0.55426395 -0.053616267 0.012572476
0.55380386 -0.054199591 0.012549116
0.55334377 -0.054782912 0.012525757
0.55288368 -0.055366237 0.012502397
0.5524236 -0.055949554 0.012479038
0.55196357 -0.056532875 0.012455679
0.55150348 -0.057116199 0.012432319
0.55104339 -0.057699516 0.012408961
0.5505833 -0.058282837 0.012385601
0.55012321 -0.058866162 0.012362242
0.55027151 -0.060139164 0.011908551
0.54981071 -0.060723335 0.011885157
0.54934996 -0.061307505 0.011861764
0.54888922 -0.061891675 0.01183837
0.54842848 -0.062475834 0.011814977
0.54796773 -0.063060001 0.011791584
0.54750699 -0.063644171 0.01176819
0.54764986 -0.064923927 0.011314253
0.54718846 -0.065508939 0.011290826
0.54732931 -0.066791221 0.010836788
0.54686725 -0.06737709 0.010813327
0.54640514 -0.067962945 0.010789866
0.54654336 -0.069248617 0.010335691
0.54608059 -0.06983532 0.010312196
0.54561788 -0.070422031 0.010288701
0.54575342 -0.071711086 0.009834392
0.54588765 -0.073001876 0.0093799885
0.54602051 -0.074294321 0.0089255432
0.546152 -0.075588457 0.0084710298
0.54628217 -0.076884292 0.0080164485
0.5464111 -0.078181855 0.007561774
0.54653859 -0.079481073 0.0071070576
0.54666477 -0.080781989 0.0066522728
0.54678959 -0.082084604 0.0061974199
0.54691309 -0.083388895 0.0057425001
0.54703534 -0.084694929 0.0052874866
0.58916724 -0.035131283 0.0053664003
0.58804715 -0.0350913 0.0057716775
0.58692837 -0.035049621 0.0061770226
0.5858109 -0.035006247 0.0065824352
0.5846948 -0.034961149 0.006987941
0.58358002 -0.034914393 0.0073934896
0.58246654 -0.034865942 0.0077991057
0.58135444 -0.034815792 0.0082047898
0.58024371 -0.034763958 0.008610541
0.57913423 -0.034710396 0.0090163862
0.57866812 -0.035301331 0.0089927213
0.57756072 -0.035245266 0.0093986429
0.57645464 -0.035187498 0.0098046316
0.5759899 -0.035776746 0.0097810356
0.57488579 -0.035716444 0.010187126
0.5744217 -0.036304843 0.010163563
0.57331955 -0.036241967 0.010569781
0.57221884 -0.036177438 0.010976041
0.57175606 -0.036764145 0.010952546
0.57065731 -0.036697067 0.011358908
0.57019526 -0.037282925 0.011335447
0.56909847 -0.037213314 0.01174191
0.56863707 -0.037798323 0.011718484
0.56817567 -0.038383342 0.011695056
0.56708157 -0.038310342 0.012101656
0.56662083 -0.038894504 0.012078262
0.56616008 -0.039478675 0.012054869
0.56569934 -0.040062837 0.012031476
0.5652386 -0.040647008 0.012008082
0.56477785 -0.041231174 0.011984689
0.56431711 -0.041815344 0.011961296
0.56385636 -0.042399514 0.011937902
0.56339562 -0.042983677 0.011914509
0.5635615 -0.044233482 0.011460785
0.5631001 -0.044818502 0.011437357
0.5626387 -0.04540351 0.01141393
0.5628019 -0.046656705 0.010960069
0.56296378 -0.047911588 0.010506141
0.56250107 -0.048498295 0.010482647
0.5620383 -0.049085002 0.010459151
0.56157553 -0.049671713 0.010435656
0.56111282 -0.05025842 0.010412161
0.56065005 -0.050845128 0.010388666
0.56018728 -0.051431835 0.010365171
0.55972457 -0.052018542 0.010341676
0.5592618 -0.052605253 0.010318181
0.55818111 -0.052515313 0.010725459
0.55710173 -0.052423686 0.011132804
0.55602366 -0.052330367 0.011540216
0.55556291 -0.05291453 0.011516823
0.55510217 -0.0534987 0.01149343
0.55464143 -0.054082863 0.011470037
0.55418068 -0.054667033 0.011446644
0.55371994 -0.055251203 0.011423251
0.55325919 -0.05583537 0.011399857
0.55279845 -0.05641954 0.011376464
0.55233771 -0.057003703 0.011353071
0.55187696 -0.057587873 0.011329677
0.55141622 -0.058172043 0.011306284
0.55095547 -0.05875621 0.011282891
0.55049467 -0.05934038 0.011259497
0.55003393 -0.059924543 0.011236104
0.54957318 -0.060508713 0.01121271
0.54911244 -0.061092883 0.011189317
0.5486517 -0.061677054 0.011165924
0.54819095 -0.062261213 0.011142531
0.54773021 -0.062845379 0.011119138
0.54787344 -0.064123981 0.01066426
0.54741198 -0.064708993 0.010640833
0.54695058 -0.065294005 0.010617405
0.54709113 -0.066575982 0.010162393
0.54662901 -0.067161843 0.010138931
0.54616696 -0.067747697 0.010115471
0.54630482 -0.069033064 0.0096603213
0.54584205 -0.069619767 0.0096368268
0.54597789 -0.070907667 0.0091815758
0.54611248 -0.072197296 0.0087262318
0.54624563 -0.073488593 0.0082708457
0.5457809 -0.07407783 0.0082472498
0.54591209 -0.07537166 0.0077917618
0.54604191 -0.076667182 0.0073362063
0.54617047 -0.077964433 0.0068805572
0.54629761 -0.079263344 0.0064248657
0.54642344 -0.080563948 0.0059691067
0.54654795 -0.081866249 0.0055132792
0.54667109 -0.083170235 0.0050573847
0.58780408 -0.034871701 0.0050836387
0.58668566 -0.034830332 0.005489958
0.58556855 -0.034787267 0.0058963452
0.58445275 -0.034742486 0.0063028256
0.58333832 -0.034696039 0.0067093484
0.58222526 -0.034647897 0.0071159392
0.58111352 -0.03459806 0.0075225979
0.58000308 -0.034546535 0.0079293242
0.57889396 -0.034493286 0.0083361436
0.57842785 -0.035084222 0.0083124787
0.57732075 -0.035028465 0.0087193744
0.57621503 -0.03497101 0.0091263382
0.57575029 -0.035560258 0.0091027413
0.57528549 -0.036149506 0.0090791453
0.57418245 -0.036088668 0.0094862441
0.57308066 -0.036026102 0.0098934369
0.57261723 -0.036613654 0.009869908
0.57151753 -0.036548588 0.010277176
0.57041913 -0.036481824 0.010684513
0.56995702 -0.037067682 0.010661052
0.56886065 -0.03699838 0.01106849
0.56839919 -0.037583392 0.011045063
0.56793779 -0.038168408 0.011021635
0.56747639 -0.03875342 0.010998208
0.56701499 -0.03933844 0.010974781
0.56655353 -0.039923452 0.010951354
0.56609213 -0.040508468 0.010927927
0.56563073 -0.04109348 0.010904499
0.56516933 -0.041678492 0.010881073
0.56470788 -0.042263508 0.010857645
0.56424648 -0.04284852 0.010834218
0.56378508 -0.04343354 0.010810791
0.56332368 -0.044018548 0.010787364
0.56348789 -0.045269739 0.010332596
0.56302577 -0.045855597 0.010309136
0.56318802 -0.047109328 0.0098542664
0.56272525 -0.047696035 0.009830771
0.56226248 -0.048282743 0.0098072765
0.56179976 -0.048869446 0.0097837811
0.56133699 -0.049456161 0.0097602867
0.56087422 -0.050042868 0.0097367913
0.56041151 -0.050629571 0.0097132968
0.55994874 -0.051216278 0.0096898014
0.55948597 -0.051802985 0.0096663069
0.55902326 -0.052389696 0.0096428115
0.55794287 -0.052300069 0.010051063
0.55686384 -0.052208755 0.010459383
0.55640244 -0.052793767 0.010435956
0.55532539 -0.052699909 0.010844378
0.55486465 -0.053284079 0.010820984
0.5544039 -0.053868242 0.010797591
0.55394316 -0.054452412 0.010774197
0.55348241 -0.055036582 0.010750804
0.55302167 -0.055620749 0.010727411
0.55256093 -0.056204919 0.010704017
0.55210018 -0.056789082 0.010680624
0.55163944 -0.057373252 0.010657231
0.55117869 -0.057957422 0.010633837
0.55071789 -0.058541585 0.010610444
0.55025715 -0.059125755 0.010587052
0.5497964 -0.059709921 0.010563658
0.54933566 -0.060294092 0.010540265
0.54948121 -0.061568983 0.010084548
0.54901975 -0.062153999 0.010061121
0.54855835 -0.062739015 0.010037694
0.54809695 -0.063324027 0.010014267
0.54763556 -0.063909046 0.0099908393
0.5471741 -0.064494058 0.0099674119
0.5467127 -0.065079071 0.0099439844
0.54685289 -0.066360734 0.0094879968
0.54639083 -0.066946603 0.0094645359
0.546529 -0.0682308 0.0090084467
0.54606622 -0.068817504 0.0089849513
0.54620242 -0.070104241 0.0085287606
0.545739 -0.070691802 0.0085052317
0.54587322 -0.071981125 0.0080489134
0.54600602 -0.073272102 0.0075925523
0.54613751 -0.074564777 0.0071361237
0.54626769 -0.075859137 0.006679628
0.54639655 -0.077155232 0.0062230378
0.54652405 -0.078452975 0.0057664062
0.54665023 -0.079752415 0.0053097066
0.58532625 -0.034568291 0.0052102553
0.58421075 -0.034523819 0.0056177103
0.58309668 -0.034477685 0.0060252077
0.58198392 -0.034429852 0.0064327731
0.58087254 -0.034380328 0.006840406
0.57976246 -0.034329116 0.0072481069
0.57865369 -0.034276173 0.0076559009
0.57818758 -0.034867112 0.0076322365
0.57708085 -0.034811668 0.0080401069
0.57661539 -0.035401758 0.0080164764
0.57551068 -0.03534377 0.0084244478
0.57504594 -0.035933018 0.0084008519
0.57458115 -0.036522266 0.0083772549
0.57347912 -0.036460891 0.0087853624
0.57237834 -0.036397789 0.0091935638
0.57127893 -0.036333032 0.0096018063
0.57081622 -0.036919739 0.0095783118
0.56971884 -0.036852438 0.0099866567
0.56925672 -0.037438303 0.0099631948
0.56879467 -0.038024161 0.0099397339
0.56833255 -0.038610023 0.0099162729
0.5678705 -0.039195884 0.009892812
0.56740838 -0.039781746 0.0098693511
0.56694633 -0.040367603 0.0098458901
0.56648421 -0.040953469 0.0098224292
0.56602216 -0.041539326 0.0097989673
0.56556004 -0.042125188 0.0097755063
0.56509799 -0.042711053 0.0097520454
0.56463587 -0.043296911 0.0097285844
0.56417382 -0.043882769 0.0097051235
0.5637117 -0.044468634 0.0096816625
0.56324965 -0.045054495 0.0096582016
0.56278759 -0.045640353 0.0096347397
0.56294942 -0.046893772 0.0091788964
0.56248671 -0.047480479 0.009155402
0.56202394 -0.048067186 0.0091319066
0.56156117 -0.048653893 0.0091084121
0.56109846 -0.049240604 0.0090849167
0.56063569 -0.049827311 0.0090614213
0.56017292 -0.050414018 0.0090379268
0.5597102 -0.051000722 0.0090144314
0.55924743 -0.051587429 0.0089909369
0.55878466 -0.052174143 0.0089674415
0.55770469 -0.052084826 0.0093766684
0.55724257 -0.052670684 0.0093532074
0.55616456 -0.052578833 0.0097625349
0.55570316 -0.053163849 0.0097391075
0.5552417 -0.053748861 0.009715681
0.5547803 -0.054333881 0.0096922535
0.5543189 -0.054918893 0.0096688261
0.55385745 -0.055503909 0.0096453987
0.55339605 -0.056088921 0.0096219722
0.55293465 -0.056673933 0.0095985448
0.55247325 -0.057258949 0.0095751174
0.55201185 -0.057843961 0.0095516909
0.55155039 -0.05842898 0.0095282635
0.55108899 -0.059013993 0.0095048361
0.55062759 -0.059599008 0.0094814086
0.55016613 -0.060184021 0.0094579821
0.54970473 -0.060769036 0.0094345547
0.54924333 -0.061354049 0.0094111273
0.54878193 -0.061939068 0.0093876999
0.54832047 -0.06252408 0.0093642734
0.54785907 -0.063109092 0.009340846
0.54739767 -0.063694112 0.0093174186
0.54693627 -0.064279124 0.0092939911
0.54707676 -0.065559626 0.0088370629
0.54661465 -0.066145487 0.0088136019
0.54615259 -0.066731356 0.008790141
0.5462904 -0.068015248 0.0083330767
0.54582769 -0.068601951 0.0083095822
0.54596353 -0.069888376 0.0078524165
0.5455001 -0.070475936 0.0078288876
0.54563397 -0.071764946 0.0073715942
0.54576647 -0.07305561 0.0069142589
0.5458976 -0.074347973 0.0064568557
0.54602742 -0.07564202 0.0059993854
0.54615593 -0.07693781 0.005541821
0.54628313 -0.078235246 0.0050842143
0.58285505 -0.03425933 0.005341067
0.58174264 -0.034211811 0.0057496065
0.58063155 -0.034162596 0.0061582145
0.57952183 -0.034111694 0.0065668896
0.57841337 -0.034059063 0.0069756582
0.57794732 -0.034650002 0.0069519938
0.57684088 -0.034594867 0.0073608388
0.57637548 -0.035184957 0.0073372084
0.57591003 -0.035775054 0.0073135775
0.57480633 -0.03571653 0.007722558
0.5743416 -0.036305778 0.0076989611
0.57323986 -0.036244713 0.0081080431
0.57277578 -0.036833115 0.0080844807
0.57167602 -0.036769476 0.0084936898
0.57057762 -0.036704186 0.0089029418
0.5694806 -0.036637194 0.0093122609
0.56901848 -0.03722306 0.0092887999
0.56855643 -0.037808917 0.009265339
0.56809437 -0.038394775 0.0092418781
0.56763226 -0.03898064 0.0092184171
