# .PCD v0.7 - Point Cloud Data file format
VERSION 0.7
FIELDS x y z
SIZE 4 4 4
TYPE F F F
COUNT 1 1 1
WIDTH 1310
HEIGHT 1
VIEWPOINT 0 0 0 1 0 0 0
POINTS 1310
DATA ascii
0.45045364 -0.031442787 0.012049338
0.45060754 -0.032715444 0.011604819
0.4524146 -0.036275897 0.0098511837
0.45311472 -0.038317405 0.0089701824
0.45326191 -0.039598547 0.0085255522
0.45395732 -0.041645989 0.0076444815
0.45465013 -0.043696862 0.0067633344
0.45479205 -0.044984806 0.0063185929
0.45548022 -0.047041632 0.0054373508
0.49061462 -6.1808802e-05 0.0059903199
0.48899722 0.0008005409 0.0068545411
0.4885909 0.00027888844 0.0068462375
0.48758104 0.00045178932 0.007274237
0.48536664 0.0020172377 0.0085749188
0.48436072 0.0021952391 0.009002992
0.48335618 0.002374948 0.0094311005
0.48235288 0.0025563883 0.0098592564
0.48135096 0.0027395042 0.010287419
0.47975078 0.0036239757 0.011151992
0.47875217 0.0038113445 0.011580221
0.47775486 0.0040004505 0.0120085
0.4767589 0.0041912203 0.012436784
0.47576427 0.0043836944 0.012865092
0.47477096 0.0045778663 0.013293426
0.47377896 0.0047737802 0.013721813
0.47239327 0.0044641676 0.014142132
0.47140461 0.0046643009 0.014570565
0.47041729 0.0048661372 0.014999025
0.46943128 0.0050696717 0.015427512
0.46844655 0.0052749431 0.015856048
0.46805418 0.0047711595 0.015848029
0.46707147 0.0049789473 0.016276579
0.46667975 0.0044760155 0.016268574
0.46628803 0.0039730836 0.016260568
0.46530798 0.0041842777 0.016689178
0.46491694 0.0036821975 0.016681185
0.46452588 0.0031801115 0.016673192
0.46413484 0.0026780316 0.0166652
0.4631581 0.0028934793 0.017093873
0.46276772 0.002392251 0.017085895
0.46237731 0.0018910167 0.017077915
0.46198693 0.0013897825 0.017069938
0.46159655 0.00088856014 0.017061958
0.46120614 0.00038732594 0.01705398
0.46081576 -0.00011390824 0.017046001
0.45984429 0.00010838627 0.017474808
0.45945457 -0.00039200205 0.017466843
0.45906484 -0.00089237862 0.017458878
0.45809606 -0.00066671096 0.017887717
0.45770699 -0.0011662417 0.017879765
0.45731792 -0.0016657724 0.017871814
0.45692885 -0.0021653031 0.017863862
0.45653978 -0.0026648338 0.017855911
0.45615074 -0.0031643645 0.017847959
0.45576167 -0.0036638952 0.017840007
0.4553726 -0.0041634259 0.017832056
0.45498353 -0.0046629566 0.017824104
0.45402139 -0.0044287834 0.018253079
0.45363298 -0.004927468 0.01824514
0.45324457 -0.0054261414 0.018237203
0.45285618 -0.005924826 0.018229265
0.45246777 -0.006423499 0.018221326
0.45207936 -0.006922184 0.018213388
0.45169097 -0.007420857 0.018205451
0.45130256 -0.0079195416 0.018197512
0.45091417 -0.0084182154 0.018189574
0.45052576 -0.0089168884 0.018181635
0.45013738 -0.0094155613 0.018173698
0.45031476 -0.010657301 0.017728684
0.44992569 -0.011156832 0.017720733
0.45010111 -0.012401122 0.01727568
0.44971138 -0.01290151 0.017267713
0.44932166 -0.013401886 0.017259749
0.44949445 -0.014649617 0.016814617
0.44910404 -0.015150852 0.01680664
0.44871366 -0.015652087 0.01679866
0.44888377 -0.016903179 0.016353503
0.44849271 -0.01740527 0.01634551
0.44866082 -0.018658923 0.015900306
0.44882759 -0.019914281 0.01545508
0.44843522 -0.020418065 0.015447061
0.44860008 -0.021676004 0.015001768
0.44876355 -0.022935612 0.01455647
0.4489257 -0.024196927 0.014111145
0.44908652 -0.025459941 0.013665793
0.44980058 -0.027482225 0.012783086
0.44995809 -0.028749494 0.01233767
0.45011428 -0.030018467 0.011892227
0.4508217 -0.032049257 0.011009384
0.45097458 -0.033322483 0.01056387
0.4527798 -0.036882792 0.0088061858
0.45347857 -0.038924612 0.007923197
0.45362481 -0.040206343 0.0074775466
0.454319 -0.042254157 0.0065944334
0.45501047 -0.044305339 0.0057112882
0.45515141 -0.045593884 0.0052655297
0.4904258 9.5412142e-05 0.0053736982
0.48941359 0.00026465702 0.0058026435
0.48900661 -0.00025785304 0.0057943258
0.48739314 0.00060824375 0.0066606216
0.48517963 0.0021729255 0.0079643102
0.48417404 0.002350671 0.0083933864
0.48316979 0.0025301243 0.0088224979
0.4821668 0.0027113087 0.0092516579
0.4811652 0.0028941687 0.0096808234
0.48016492 0.0030787275 0.010110012
0.47916597 0.0032649885 0.010539232
0.47816834 0.0034529474 0.010968477
0.47717199 0.0036426501 0.01139777
0.47617701 0.0038340159 0.01182707
0.47518334 0.0040270793 0.012256399
0.47419101 0.0042218538 0.012685746
0.47319996 0.0044183577 0.01311515
0.47181526 0.0041093472 0.013536486
0.47082755 0.004310071 0.013965932
0.46984118 0.0045125037 0.014395408
0.46885616 0.0047166338 0.014824913
0.46787238 0.0049225017 0.015254462
0.46689001 0.005130033 0.01568402
0.46649829 0.0046271011 0.015676014
0.46610656 0.0041241692 0.015668008
0.46571487 0.0036212376 0.015660003
0.46473578 0.0038330276 0.016089629
0.46434474 0.0033309415 0.016081637
0.46395367 0.0028288616 0.016073644
0.46356261 0.0023267756 0.016065652
0.46317157 0.0018246956 0.016057659
0.46219647 0.0020415918 0.01648736
0.46180609 0.0015403576 0.01647938
0.46141571 0.0010391352 0.016471403
0.4610253 0.00053790101 0.016463423
0.46063492 3.6666821e-05 0.016455445
0.46024451 -0.00046456736 0.016447466
0.45927402 -0.00024168281 0.01687729
0.4588843 -0.00074205938 0.016869325
0.45849457 -0.001242436 0.016861359
0.45810482 -0.0017428242 0.016853394
0.4571377 -0.001515709 0.017283265
0.45674863 -0.0020152396 0.017275313
0.45635957 -0.0025147703 0.017267361
0.4559705 -0.0030143009 0.01725941
0.45558143 -0.0035138319 0.017251458
0.45519236 -0.0040133623 0.017243506
0.45480329 -0.004512893 0.017235555
0.45441425 -0.0050124121 0.017227603
0.45402518 -0.0055119428 0.017219651
0.45363611 -0.0060114735 0.0172117
0.45324704 -0.0065110042 0.017203748
0.45285797 -0.0070105349 0.017195797
0.45246893 -0.0075100656 0.017187845
0.45207986 -0.0080095967 0.017179893
0.45169079 -0.0085091274 0.017171942
0.45130172 -0.0090086581 0.01716399
0.45091265 -0.0095081888 0.017156038
0.45052359 -0.010007707 0.017148087
0.45013455 -0.010507238 0.017140135
0.44974548 -0.011006769 0.017132184
0.44992056 -0.012250802 0.016686127
0.44953084 -0.012751191 0.01667816
0.44914111 -0.013251567 0.016670195
0.44931361 -0.014499042 0.016224062
0.4489232 -0.015000276 0.016216082
0.44909367 -0.016250268 0.015769938
0.4487026 -0.016752349 0.015761945
0.44831157 -0.01725444 0.015753953
0.44847935 -0.018507838 0.015307747
0.44864583 -0.019762939 0.014861514
0.44881102 -0.021019777 0.014415234
0.44841799 -0.021524407 0.014407202
0.44858116 -0.02278376 0.013960901
0.44874302 -0.024044817 0.013514572
0.44945839 -0.026064005 0.012629925
0.44961697 -0.02732935 0.012183507
0.45032772 -0.029354483 0.011298768
0.45048293 -0.030624058 0.010852304
0.4511891 -0.03265518 0.0099674454
0.45299575 -0.036211073 0.0082058059
0.45314434 -0.037489142 0.0077592074
0.45384184 -0.039531298 0.0068741976
0.45398709 -0.040813632 0.0064275344
0.45468 -0.042861789 0.0055424008
0.48922506 0.00042162216 0.0051870248
0.48881811 -0.0001008879 0.0051787077
0.4878082 7.0656381e-05 0.0056086965
0.48559496 0.001633719 0.0069153812
0.48398736 0.0025061022 0.007783785
0.48298341 0.0026853003 0.0082138954
0.48198074 0.002866229 0.0086440593
0.48097944 0.0030488342 0.0090742242
0.47997946 0.0032331361 0.0095044198
0.47898081 0.0034191424 0.0099346386
0.47798347 0.0036068454 0.010364889
0.47698745 0.0037962925 0.010795184
0.47599277 0.0039874022 0.011225488
0.47499943 0.0041802106 0.011655816
0.4740074 0.0043747295 0.012086167
0.47301665 0.0045709778 0.012516574
0.47163224 0.0042617121 0.012938909
0.47064486 0.0044621793 0.013369363
0.46965882 0.0046643568 0.013799839
0.46867406 0.0048682312 0.014230346
0.46769062 0.0050738435 0.0146609
0.46729824 0.0045700599 0.01465288
0.46631682 0.0047781873 0.015083455
0.46592513 0.0042752554 0.015075449
0.46553341 0.0037723235 0.015067443
0.46514168 0.0032693858 0.015059438
0.46416357 0.0034817725 0.015490077
0.46377254 0.0029796925 0.015482084
0.46338147 0.0024776065 0.015474092
0.4629904 0.0019755266 0.0154661
0.46259937 0.0014734464 0.015458107
0.46162522 0.0016909319 0.015888827
0.46123484 0.0011897094 0.015880849
0.46084446 0.00068847521 0.01587287
0.46045408 0.00018724099 0.015864892
0.46006367 -0.00031399319 0.015856912
0.45967329 -0.00081521564 0.015848935
0.45870376 -0.00059174013 0.016279772
0.45831403 -0.0010921167 0.016271807
0.45792431 -0.001592505 0.016263841
0.45753458 -0.0020928816 0.016255876
0.45714486 -0.0025932582 0.016247911
0.4567551 -0.0030936464 0.016239945
0.45636538 -0.0035940229 0.01623198
0.45597565 -0.0040943995 0.016224016
0.45558593 -0.004594788 0.016216051
0.4551962 -0.0050951643 0.016208084
0.45480648 -0.0055955411 0.01620012
0.45441675 -0.0060959295 0.016192155
0.45402703 -0.0065963059 0.016184188
0.4536373 -0.0070966827 0.016176224
0.45324758 -0.0075970707 0.016168259
0.45285785 -0.0080974475 0.016160294
0.45246813 -0.0085978238 0.016152328
0.4520784 -0.0090982001 0.016144363
0.45168865 -0.0095985886 0.016136399
0.45129892 -0.010098966 0.016128434
0.4509092 -0.010599342 0.016120467
0.45051947 -0.011099731 0.016112503
0.45012975 -0.011600107 0.016104538
0.44974002 -0.012100483 0.016096573
0.4493503 -0.012600872 0.016088607
0.44952315 -0.013847234 0.015641488
0.44913274 -0.014348468 0.015633509
0.44874236 -0.014849702 0.015625531
0.4489125 -0.016099438 0.015178378
0.44852147 -0.016601518 0.015170386
0.44868961 -0.017853813 0.014723193
0.44885644 -0.019107813 0.01427597
0.44846407 -0.019611597 0.01426795
0.44862896 -0.02086818 0.013820668
0.44879249 -0.022126419 0.013373378
0.44895467 -0.023386376 0.012926063
0.44911554 -0.024648022 0.012478718
0.44982973 -0.02666758 0.011592029
0.45054117 -0.028690511 0.010705314
0.45069674 -0.029958973 0.01025786
0.45085105 -0.031229159 0.0098103611
0.45155588 -0.033260595 0.0089235036
0.45336065 -0.03681631 0.0071578412
0.45350826 -0.038094983 0.006710229
0.45420447 -0.040137485 0.0058231954
0.45434883 -0.041420441 0.0053754933
0.48540765 0.0017896626 0.0063037691
0.48380068 0.0026615341 0.0071741794
0.48279706 0.0028404766 0.0076052933
0.48179469 0.0030211504 0.008036457
0.48079368 0.0032034996 0.0084676249
0.47979403 0.0033875457 0.0088988245
0.47879568 0.0035732961 0.0093300464
0.47779864 0.0037607444 0.0097612962
0.47680292 0.0039499346 0.010192598
0.47580856 0.0041407896 0.010623902
0.47481549 0.004333342 0.011055233
0.47382379 0.0045276042 0.011486591
0.47283334 0.0047235973 0.011917998
0.47144926 0.004414076 0.012341337
0.47046217 0.0046142885 0.012772789
0.46947643 0.004816209 0.013204273
0.468492 0.0050198287 0.01363578
0.46809897 0.0045151934 0.013627747
0.46711648 0.0047214017 0.014059317
0.4667241 0.0042176181 0.014051298
0.46633172 0.0037138287 0.014043278
0.46535194 0.0039234092 0.014474884
0.46496022 0.0034204717 0.014466877
0.4645685 0.0029175398 0.014458871
0.46359137 0.0031305223 0.014890527
0.4632003 0.0026284365 0.014882536
0.46280926 0.0021263564 0.014874543
0.4624182 0.0016242764 0.014866551
0.46202716 0.0011221963 0.014858559
0.4616361 0.00062010455 0.014850566
0.46066362 0.00083905022 0.015282314
0.46027321 0.00033781605 0.015274335
0.45988283 -0.00016341812 0.015266356
0.45949244 -0.00066464057 0.015258377
0.45852321 -0.00044142088 0.015690219
0.45813349 -0.00094179745 0.015682254
0.45774376 -0.0014421858 0.015674287
0.45735404 -0.0019425624 0.015666323
0.45696431 -0.002442939 0.015658358
0.45657456 -0.0029433272 0.015650392
0.45618483 -0.0034437038 0.015642427
0.45579511 -0.0039440803 0.015634462
0.45540538 -0.0044444688 0.015626498
0.45501566 -0.0049448451 0.015618532
0.45462593 -0.0054452219 0.015610566
0.45423621 -0.0059456103 0.015602602
0.45384648 -0.0064459867 0.015594636
0.45345676 -0.0069463635 0.015586671
0.45306703 -0.0074467515 0.015578706
0.45267731 -0.0079471283 0.01557074
0.45228758 -0.0084475046 0.015562776
0.45189786 -0.0089478809 0.01555481
0.4515081 -0.0094482694 0.015546845
0.45111838 -0.0099486466 0.01553888
0.45072868 -0.010449023 0.015530915
0.45033893 -0.010949411 0.015522949
0.4499492 -0.011449788 0.015514985
0.44955948 -0.011950164 0.015507019
0.44916975 -0.012450553 0.015499054
0.44934231 -0.013696658 0.015050931
0.4489519 -0.014197893 0.015042952
0.4491224 -0.015446528 0.014594814
0.44873136 -0.015948607 0.014586822
0.44889987 -0.01719979 0.014138639
0.44850817 -0.017702729 0.014130633
0.44867468 -0.018956471 0.013682407
0.44883993 -0.020211941 0.013234135
0.44900382 -0.021469081 0.012785858
0.44916636 -0.022727922 0.01233755
0.44932759 -0.023988469 0.011889218
0.45004246 -0.02600581 0.011000553
0.45020038 -0.027270621 0.010552154
0.45091057 -0.029293887 0.0096634151
0.45106521 -0.030562971 0.0092149228
0.45121849 -0.031833727 0.0087664295
0.45302531 -0.035384167 0.0069968244
0.45372492 -0.037421048 0.0061078696
0.45387155 -0.03870032 0.0056592403
0.48582205 0.0012512177 0.0052518304
0.48421505 0.0021217368 0.0061242376
0.48321104 0.0022995665 0.0065563377
0.48220834 0.0024791048 0.0069884686
0.48060793 0.0033581643 0.0078610294
0.47960857 0.0035419555 0.0082932282
0.47861052 0.00372745 0.0087254541
0.47761381 0.0039146421 0.009157707
0.47661838 0.0041035777 0.0095900092
0.47562432 0.0042941761 0.01002232
0.47463158 0.0044864728 0.010454654
0.47364017 0.0046804799 0.010887012
0.47265005 0.0048762173 0.011319422
0.47225437 0.0043681809 0.011311335
0.47087124 0.0040592495 0.011735691
0.46988514 0.0042600636 0.012168161
0.46890035 0.0044625755 0.012600657
0.46791688 0.0046667908 0.01303318
0.46693471 0.004872743 0.013465754
0.46654233 0.0043689595 0.013457734
0.46614996 0.0038651703 0.013449715
0.46575758 0.0033613867 0.013441696
0.4653652 0.0028576031 0.013433676
0.46438706 0.0030686266 0.013866309
0.46399534 0.0025656947 0.013858302
0.46301916 0.0027792666 0.014290979
0.46262813 0.0022771864 0.014282987
0.46223706 0.0017751064 0.014274995
0.46184602 0.0012730263 0.014267002
0.46145496 0.00077093457 0.01425901
0.46106389 0.00026885452 0.014251018
0.46009237 0.00048839021 0.014683782
0.45970199 -1.2843956e-05 0.014675803
0.4593116 -0.00051406637 0.014667825
0.45892119 -0.0010153006 0.014659846
0.45795295 -0.00079147908 0.015092704
0.45756322 -0.0012918675 0.015084738
0.4571735 -0.001792244 0.015076773
0.45678377 -0.0022926205 0.015068808
0.45639405 -0.0027930089 0.015060843
0.45600432 -0.0032933855 0.015052877
0.4556146 -0.0037937621 0.015044913
0.45522484 -0.0042941505 0.015036947
0.45483512 -0.0047945268 0.015028981
0.45444539 -0.0052949036 0.015021017
0.45405567 -0.0057952916 0.015013051
0.45366594 -0.0062956684 0.015005087
0.45327622 -0.0067960448 0.014997121
0.45288649 -0.0072964332 0.014989156
0.45249677 -0.00779681 0.014981191
0.45210704 -0.0082971863 0.014973226
0.45171732 -0.0087975627 0.01496526
0.45132759 -0.0092979511 0.014957296
0.45093787 -0.0097983275 0.01494933
0.45054814 -0.010298705 0.014941365
0.45015839 -0.010799093 0.0149334
0.44976866 -0.01129947 0.014925435
0.44994223 -0.012543628 0.014476336
0.44955182 -0.013044862 0.014468357
0.44916144 -0.013546085 0.014460378
0.4493323 -0.014793618 0.01401125
0.44894126 -0.015295697 0.014003257
0.44855019 -0.015797777 0.013995266
0.44871843 -0.017048704 0.013546077
0.44832671 -0.017551642 0.01353807
0.44849291 -0.018805129 0.013088844
0.44865787 -0.020060344 0.012639568
0.44882143 -0.021317227 0.012190288
0.44898367 -0.022575814 0.011740981
0.4491446 -0.023836104 0.011291645
0.44985884 -0.025852935 0.010400973
0.45001647 -0.027117491 0.0099515747
0.45072603 -0.029140243 0.0090608262
0.45088038 -0.030409073 0.0086113345
0.45158532 -0.032437783 0.0077204942
0.45339027 -0.035988048 0.0059468667
0.45353791 -0.03726536 0.0054972642
0.48402804 0.0022774246 0.0055136285
0.48302436 0.0024549987 0.0059467321
0.48202199 0.0026342811 0.0063798665
0.48042217 0.0035128298 0.0072544306
0.47942311 0.003696365 0.0076876325
0.47842538 0.0038816039 0.0081208618
0.47742897 0.0040685404 0.0085541178
0.47643384 0.0042572198 0.008987423
0.47544011 0.0044475631 0.0094207339
0.47444767 0.0046396041 0.0098540708
0.47345656 0.0048333555 0.010287432
0.47306022 0.0043244674 0.010279331
0.47207105 0.0045208009 0.010712759
0.47068822 0.0042116134 0.011138118
0.46970245 0.0044121728 0.011571587
0.46871796 0.0046144286 0.012005088
0.46773481 0.0048183883 0.012438615
0.46734178 0.004313753 0.012430581
0.46636057 0.0045203012 0.012864172
0.46596819 0.0040165121 0.012856152
0.46557581 0.0035127283 0.012848133
0.46518344 0.0030089449 0.012840114
0.46479106 0.0025051613 0.012832094
0.46381387 0.0027167806 0.013265743
0.46342215 0.0022138488 0.013257737
0.46303043 0.001710911 0.013249732
0.46205592 0.0019259372 0.013683435
0.46166486 0.0014238572 0.013675443
0.46127379 0.00092176546 0.01366745
0.46088275 0.00041968538 0.013659458
0.46049169 -8.2394668e-05 0.013651466
0.45952114 0.0001377311 0.014085247
0.45913076 -0.00036349133 0.014077269
0.45874035 -0.0008647255 0.01406929
0.45834997 -0.0013659596 0.01406131
0.45738268 -0.0011415482 0.014495185
0.45699295 -0.0016419247 0.01448722
0.45660323 -0.0021423013 0.014479254
0.4562135 -0.0026426897 0.01447129
0.45582378 -0.0031430663 0.014463324
0.45543405 -0.0036434429 0.014455359
0.4550443 -0.0041438313 0.014447394
0.45465457 -0.0046442077 0.014439429
0.45426485 -0.0051445845 0.014431464
0.45387512 -0.0056449724 0.014423498
0.4534854 -0.0061453492 0.014415533
0.45309567 -0.0066457256 0.014407568
0.45270595 -0.007146114 0.014399603
0.45231622 -0.0076464904 0.014391637
0.4519265 -0.0081468672 0.014383673
0.45153677 -0.0086472435 0.014375707
0.45114705 -0.0091476319 0.014367742
0.45075732 -0.0096480083 0.014359777
0.4503676 -0.010148386 0.014351812
0.44997784 -0.010648773 0.014343847
0.45015177 -0.011891819 0.013893758
0.44976139 -0.012393053 0.013885778
0.44937098 -0.012894287 0.0138778
0.4489806 -0.01339551 0.013869821
0.44915116 -0.014642786 0.01341969
0.44876009 -0.015144867 0.013411698
0.44892865 -0.016394692 0.012961523
0.44853696 -0.016897619 0.012953517
0.44870353 -0.018150004 0.0125033
0.44886881 -0.019404117 0.012053035
0.44903275 -0.020659886 0.011602765
0.44919536 -0.021917371 0.011152468
0.44935662 -0.023176562 0.010702146
0.44951656 -0.024437442 0.010251795
0.45022956 -0.026454607 0.0093591064
0.4503862 -0.027719753 0.0089086872
0.45109454 -0.029742874 0.0080158999
0.45124787 -0.031012272 0.0075654127
0.45139986 -0.032283373 0.0071148984
0.45320359 -0.035832614 0.0053372611
0.48283768 0.0026104306 0.0053371266
0.4818356 0.002789458 0.0057712612
0.48023641 0.0036674943 0.006647835
0.47923768 0.0038507737 0.0070820404
0.47824025 0.0040357579 0.0075162691
0.47724414 0.0042224382 0.0079505285
0.47624934 0.004410862 0.0083848378
0.47525588 0.0046009505 0.0088191479
0.47426376 0.0047927354 0.0092534889
0.47386673 0.0042829956 0.0092453742
0.47287661 0.0044773431 0.0096797524
0.47188777 0.0046734205 0.010114183
0.47050524 0.0043639783 0.010540541
0.46951976 0.0045642806 0.010975018
0.46912539 0.004057942 0.010966958
0.46814188 0.0042607938 0.011401474
0.46774817 0.0037553071 0.011393429
0.46676666 0.0039607151 0.011827983
0.46578643 0.0041678534 0.012262589
0.46539405 0.00366407 0.01225457
0.46500167 0.0031602865 0.01224655
0.4646093 0.0026565029 0.012238531
0.46421692 0.0021527193 0.012230512
0.46324068 0.0023649347 0.012665178
0.46284899 0.0018619968 0.012657172
0.46245727 0.0013590592 0.012649166
0.46148372 0.0015746872 0.013083886
0.46109265 0.0010725955 0.013075894
0.46070158 0.00057051535 0.013067902
0.46031055 6.8435322e-05 0.013059909
0.45991948 -0.00043364472 0.013051917
0.45952845 -0.00093572476 0.013043925
0.45855951 -0.00071415049 0.013478733
0.45816913 -0.0012153847 0.013470754
0.45777872 -0.0017166188 0.013462775
0.45738834 -0.002217853 0.013454797
0.45699796 -0.0027190754 0.013446818
0.45660755 -0.0032203097 0.013438839
0.45621717 -0.0037215438 0.013430861
0.45582679 -0.0042227781 0.013422882
0.45543638 -0.0047240006 0.013414904
0.455046 -0.0052252347 0.013406925
0.45465562 -0.0057264687 0.013398945
0.45426521 -0.0062277028 0.013390967
0.45387483 -0.0067289253 0.013382988
0.45348445 -0.0072301598 0.013375009
0.45309404 -0.0077313939 0.013367031
0.45270365 -0.008232628 0.013359052
0.45231327 -0.0087338621 0.013351073
0.45192289 -0.009235085 0.013343095
0.45153248 -0.0097363191 0.013335116
0.4511421 -0.010237553 0.013327138
0.45075169 -0.010738787 0.013319158
0.45036131 -0.011240009 0.01331118
0.44997093 -0.011741243 0.013303201
0.44958052 -0.012242478 0.013295222
0.44919014 -0.012743712 0.013287243
0.44936106 -0.013989877 0.012836126
0.44896999 -0.014491957 0.012828134
0.44913894 -0.015740668 0.012376969
0.44874722 -0.016243607 0.012368963
0.44891414 -0.017494868 0.011917757
0.44852176 -0.017998664 0.011909737
0.44868675 -0.01925252 0.011458469
0.44885036 -0.020508034 0.011007199
0.44901267 -0.021765264 0.010555898
0.44917363 -0.023024196 0.010104571
0.44988799 -0.025038302 0.0092099151
0.45004565 -0.026301477 0.0087585235
0.45020199 -0.027566366 0.0083071012
0.4509097 -0.029588977 0.0074123107
0.45106271 -0.030858118 0.0069608204
0.4512144 -0.032128964 0.0065093064
0.48164925 0.0029446343 0.0051626586
0.48064876 0.0031251367 0.0055978489
0.47964966 0.0033073095 0.0060330406
0.47865188 0.0034911849 0.0064682625
0.47765541 0.0036767647 0.0069035087
0.47666028 0.0038640413 0.0073387851
0.47566646 0.0040530618 0.0077741072
0.47467399 0.004243745 0.0082094381
0.47368282 0.0044361274 0.0086447913
0.472693 0.0046302187 0.0090801734
0.47170445 0.0048260414 0.0095156031
0.47032225 0.0045163422 0.0099429693
0.46992722 0.0040091518 0.0099348957
0.4689427 0.0042100502 0.010370389
0.46854833 0.0037037116 0.010362329
0.4675658 0.0039071604 0.010797859
0.46658459 0.0041123116 0.01123342
0.46619153 0.0036076764 0.011225387
0.46521229 0.0038154116 0.011661007
0.46481991 0.003311628 0.011652987
0.46442753 0.0028078444 0.011644968
0.46403515 0.0023040611 0.011636949
0.46364275 0.0018002716 0.01162893
0.46266752 0.0020130826 0.012064612
0.4622758 0.001510145 0.012056606
0.46188408 0.0010072191 0.0120486
0.46149236 0.00050428143 0.012040595
0.46052045 0.00072134624 0.012476342
0.46012938 0.00021926619 0.012468349
0.45973834 -0.00028281385 0.012460358
0.45934728 -0.00078489393 0.012452365
0.45895621 -0.0012869857 0.012444372
0.45798826 -0.0010648104 0.012880201
0.45759788 -0.0015660446 0.012872223
0.4572075 -0.0020672788 0.012864243
0.45681712 -0.0025685013 0.012856265
0.45642671 -0.0030697354 0.012848286
0.45603633 -0.0035709697 0.012840307
0.45564592 -0.0040722038 0.012832329
0.45525554 -0.0045734262 0.01282435
0.45486516 -0.0050746603 0.012816371
0.45447478 -0.0055758948 0.012808393
0.45408437 -0.0060771289 0.012800414
0.45369399 -0.0065783514 0.012792435
0.45330361 -0.0070795855 0.012784457
0.45291319 -0.0075808195 0.012776478
0.45252281 -0.0080820536 0.012768499
0.4521324 -0.0085832877 0.01276052
0.45174202 -0.0090845106 0.012752541
0.45135164 -0.0095857447 0.012744563
0.45096126 -0.010086979 0.012736584
0.45057085 -0.010588213 0.012728605
0.45018047 -0.011089436 0.012720627
0.44979009 -0.01159067 0.012712648
0.44939968 -0.012091904 0.012704669
0.44957095 -0.013336954 0.012252559
0.44917989 -0.013839046 0.012244566
0.44934916 -0.015086656 0.011792415
0.44895747 -0.015589583 0.011784409
0.44912475 -0.016839743 0.011332213
0.44873238 -0.017343527 0.011324194
0.44889772 -0.018596282 0.010871939
0.44906169 -0.019850694 0.010419676
0.44922435 -0.021106822 0.0099673886
0.44938567 -0.022364642 0.0095150713
0.44899064 -0.022871833 0.0095069977
0.45025876 -0.025638605 0.0081660552
0.45041543 -0.026902381 0.0077136462
0.45057079 -0.028167874 0.0072612064
0.45072487 -0.029435078 0.0068087215
0.45087758 -0.030703966 0.0063562281
0.45102894 -0.031974554 0.0059037106
0.47946391 0.003461974 0.005426445
0.47846642 0.0036455945 0.0058626668
0.47747028 0.0038309186 0.0062989159
0.47647545 0.0040179393 0.0067351959
0.47548193 0.004206704 0.0071715214
0.47448975 0.0043971324 0.0076078516
0.47349891 0.0045892578 0.0080442121
0.47250938 0.0047830939 0.0084805936
0.47152114 0.004978661 0.0089170272
0.47112545 0.0044706189 0.0089089405
0.46974421 0.0041615157 0.0093373228
0.46836564 0.0038558205 0.0097657554
0.46738341 0.0040590134 0.01020229
0.4669897 0.0035535265 0.010194243
0.46600947 0.0037592738 0.010630821
0.46561643 0.0032546385 0.010622787
0.46463814 0.0034629698 0.011059425
0.46424577 0.0029591862 0.011051405
0.46385339 0.0024554026 0.011043386
0.46346098 0.0019516132 0.011035366
0.4630686 0.0014478297 0.011027347
0.46209434 0.0016612317 0.011464044
0.46170262 0.0011583058 0.011456038
0.46131092 0.00065536815 0.011448031
0.4609192 0.00015244221 0.011440026
0.45994824 0.00037009618 0.011876794
0.45955718 -0.00013198386 0.011868801
0.45916614 -0.00063406391 0.011860808
0.45877507 -0.0011361557 0.011852817
0.45780742 -0.00091423542 0.012289644
0.45741704 -0.0014154696 0.012281666
0.45702663 -0.0019167038 0.012273687
0.45663625 -0.0024179262 0.012265708
0.45624587 -0.0029191603 0.01225773
0.45585549 -0.0034203946 0.012249751
0.45546508 -0.0039216289 0.012241772
0.4550747 -0.0044228514 0.012233794
0.45468432 -0.0049240855 0.012225815
0.45429391 -0.0054253195 0.012217836
0.45390353 -0.0059265536 0.012209858
0.45351315 -0.0064277761 0.012201879
0.45312274 -0.0069290102 0.0121939
0.45273235 -0.0074302447 0.012185921
0.45234197 -0.0079314783 0.012177942
0.45195156 -0.0084327133 0.012169964
0.45156118 -0.0089339353 0.012161985
0.4511708 -0.0094351694 0.012154006
0.45078039 -0.0099364035 0.012146028
0.45039001 -0.010437638 0.012138049
0.44999963 -0.01093886 0.01213007
0.45017192 -0.012181964 0.011676987
0.44978085 -0.012684043 0.011668994
0.44938982 -0.013186124 0.011661002
0.44955945 -0.014432632 0.011207857
0.44916773 -0.01493557 0.011199852
0.44877601 -0.015438496 0.011191846
0.44894299 -0.016688401 0.01073865
0.44910869 -0.017940054 0.010285405
0.44927302 -0.019193353 0.0098321522
0.44943604 -0.020448368 0.0093788756
0.44959772 -0.021705087 0.008925572
0.44975805 -0.022963509 0.0084722377
0.44936237 -0.023471545 0.0084641501
0.45007482 -0.025485475 0.007565476
0.45023122 -0.026748994 0.0071120602
0.45038626 -0.028014231 0.0066586207
0.45054004 -0.02928118 0.0062051327
0.45124382 -0.031306151 0.005306297
0.47828096 0.003800004 0.005257071
0.47728515 0.0039850725 0.0056943237
0.47629061 0.0041718371 0.0061316066
0.47529739 0.0043603461 0.0065689352
0.47430554 0.0045505189 0.0070062689
0.473315 0.0047423891 0.0074436301
0.47232577 0.0049359696 0.0078810146
0.47133785 0.005131281 0.0083184512
0.47094214 0.0046232385 0.0083103646
0.46956122 0.0043138806 0.0087397462
0.46818295 0.0040079285 0.0091691865
0.46778858 0.0035015901 0.0091611259
0.46680734 0.0037053789 0.009598677
0.46641362 0.0031998919 0.0095906304
0.46543434 0.0034062359 0.010028222
0.46504131 0.0029016007 0.010020188
0.46464828 0.0023969654 0.010012155
0.46367159 0.0026067442 0.010449823
0.46327922 0.0021029548 0.010441803
0.46288684 0.0015991713 0.010433784
0.46249446 0.0010953877 0.010425765
0.46152118 0.0013093916 0.010863478
0.46112946 0.00080645393 0.010855472
0.46073774 0.00030352801 0.010847466
0.46034601 -0.00019940964 0.01083946
0.45937604 1.8847004e-05 0.011277242
0.45898497 -0.00048323305 0.011269249
0.4585939 -0.00098532485 0.011261256
0.45820287 -0.0014874049 0.011253265
0.4578118 -0.001989485 0.011245272
0.45742077 -0.002491565 0.01123728
0.45645541 -0.0022673511 0.011675152
0.45606503 -0.0027685855 0.011667173
0.45567462 -0.0032698195 0.011659195
0.45528424 -0.0037710536 0.011651216
0.45489386 -0.0042722761 0.011643237
0.45450348 -0.0047735102 0.011635259
0.45411307 -0.0052747447 0.011627279
0.45372269 -0.0057759788 0.011619301
0.4533323 -0.0062772012 0.011611322
0.45294189 -0.0067784353 0.011603343
0.45255151 -0.0072796694 0.011595365
0.4521611 -0.0077809035 0.011587386
0.45177072 -0.008282138 0.011579407
0.45138034 -0.00878336 0.011571429
0.45098996 -0.0092845941 0.01156345
0.45059955 -0.0097858291 0.011555471
0.45020917 -0.010287063 0.011547493
0.45038182 -0.011529053 0.011093419
0.44999075 -0.012031133 0.011085426
0.44959971 -0.012533213 0.011077435
0.44976971 -0.013778609 0.010623303
0.44937798 -0.014281547 0.010615298
0.44898626 -0.014784484 0.010607292
0.4491536 -0.016033275 0.010153106
0.44876122 -0.016537059 0.010145088
0.4489266 -0.017788457 0.0096908389
0.44909063 -0.019041501 0.0092365863
0.44925335 -0.020296261 0.0087823067
0.4494147 -0.021552723 0.0083279954
0.44957474 -0.022810889 0.0078736618
0.44973353 -0.024070781 0.0074192784
0.44989091 -0.025332343 0.0069648931
0.45004699 -0.026595607 0.006510478
0.45020172 -0.027860589 0.0060560349
0.4503552 -0.029127283 0.0056015435
0.47709998 0.004139225 0.0050897347
0.47610578 0.0043257358 0.0055280142
0.47511286 0.0045139892 0.0059663462
0.4741213 0.0047039059 0.006404683
0.47313106 0.0048955204 0.0068430472
0.47214216 0.0050888453 0.0072814352
0.47174582 0.0045799515 0.0072733345
0.47075886 0.0047758585 0.0077117882
0.47036317 0.004267822 0.007703701
0.46937823 0.0044662445 0.0081421733
0.46800026 0.0041600377 0.0085726129
0.46760589 0.0036536991 0.0085645532
0.46721154 0.0031473662 0.0085564936
0.46623123 0.003351745 0.0089950608
0.46525228 0.0035578334 0.0094336551
0.46485925 0.0030531981 0.0094256224
0.46446618 0.0025485628 0.0094175898
0.46407315 0.0020439276 0.0094095562
0.46309745 0.0022542966 0.0098482408
0.46270508 0.001750513 0.0098402211
0.4623127 0.0012467294 0.0098322015
0.46192032 0.00074294588 0.0098241828
0.46094799 0.00095753971 0.010262912
0.46055627 0.00045461382 0.010254906
0.46016455 -4.8323836e-05 0.010246901
0.45977286 -0.00055126147 0.010238895
0.45880383 -0.00033240305 0.010677692
0.45841277 -0.00083449483 0.0106697
0.45802173 -0.0013365749 0.010661708
0.45763066 -0.001838655 0.010653716
0.45723963 -0.0023407349 0.010645724
0.45684856 -0.0028428151 0.010637731
0.4564575 -0.003344907 0.010629739
0.45606646 -0.0038469869 0.010621747
0.45567539 -0.0043490669 0.010613754
0.45528436 -0.0048511471 0.010605762
0.45489329 -0.0053532273 0.01059777
0.45450222 -0.0058553186 0.010589777
0.45411119 -0.0063573988 0.010581786
0.45372012 -0.006859479 0.010573793
0.45332909 -0.0073615592 0.010565801
0.45293802 -0.0078636389 0.010557809
0.45254698 -0.0083657308 0.010549816
0.45215592 -0.0088678105 0.010541824
0.45176488 -0.0093698911 0.010533832
0.45137382 -0.0098719709 0.010525839
0.45098278 -0.010374051 0.010517848
0.45059171 -0.010876142 0.010509855
0.45020065 -0.011378223 0.010501863
0.44980961 -0.011880303 0.010493871
0.44997996 -0.013124597 0.010038749
0.44958824 -0.013627524 0.010030744
0.44919652 -0.014130461 0.010022738
0.4488048 -0.014633399 0.010014732
0.44897184 -0.015881933 0.0095595438
0.44913757 -0.017132219 0.0091043059
0.44930196 -0.018384174 0.0086490633
0.44890827 -0.018889649 0.0086410167
0.44907066 -0.020144152 0.0081857331
0.44923171 -0.021400359 0.007730423
0.44939145 -0.02265827 0.0072750854
0.44954991 -0.023917906 0.006819699
0.449707 -0.025179211 0.0063643106
0.44986278 -0.02644222 0.005908892
0.45001718 -0.027706945 0.0054534459
0.47452998 0.0041561881 0.0053556189
0.47353938 0.0043466948 0.0057949731
0.47255012 0.0045389114 0.0062343539
0.47156221 0.0047328272 0.0066737551
0.47057554 0.004928478 0.0071132123
0.47017986 0.004420442 0.0071051251
0.46880022 0.0041114241 0.0075365277
0.46781757 0.004312146 0.007976044
0.4674232 0.0038058073 0.0079679843
0.46702886 0.0032994745 0.0079599237
0.46604887 0.0035035983 0.0083994912
0.46565515 0.0029981113 0.0083914446
0.46467716 0.0032047955 0.0088310558
0.46428412 0.0027001603 0.0088230232
0.46389109 0.002195525 0.0088149905
0.46349803 0.0016908896 0.0088069569
0.46252331 0.0019018545 0.0092466585
0.46213093 0.0013980711 0.0092386389
0.46173856 0.00089428748 0.0092306193
0.46134618 0.00039050396 0.0092226006
0.46037483 0.00060569961 0.0096623469
0.45998311 0.00010276197 0.0096543413
0.45959139 -0.00040017569 0.0096463356
0.45919967 -0.00090310164 0.00963833
0.45880795 -0.0014060392 0.0096303234
0.45784056 -0.0011857441 0.010070148
0.45744953 -0.001687824 0.010062156
0.45705846 -0.0021899042 0.010054164
0.45666742 -0.0026919842 0.010046172
0.45627636 -0.003194076 0.010038179
0.45588529 -0.003696156 0.010030187
0.45549425 -0.0041982359 0.010022195
0.45510319 -0.0047003161 0.010014202
0.45471215 -0.0052023963 0.01000621
0.45432109 -0.0057044881 0.0099982182
0.45393002 -0.0062065679 0.0099902255
0.45353898 -0.0067086481 0.0099822329
0.45314792 -0.0072107282 0.0099742413
0.45275688 -0.007712808 0.0099662486
0.45236582 -0.0082149003 0.009958256
0.45197478 -0.00871698 0.0099502644
0.45158371 -0.0092190597 0.0099422717
0.45119268 -0.0097211404 0.0099342801
0.45080161 -0.01022322 0.0099262875
0.45041054 -0.010725312 0.0099182948
0.45001951 -0.011227392 0.0099103032
0.45019022 -0.012470574 0.0094541954
0.44979849 -0.012973512 0.0094461897
0.44940677 -0.013476438 0.0094381841
0.44901505 -0.013979375 0.0094301784
0.44918245 -0.015226809 0.0089739999
0.44879007 -0.015730593 0.0089659812
0.44895551 -0.016980622 0.0085097393
0.44911957 -0.01823232 0.0080534937
0.44872588 -0.018737795 0.0080454471
0.44888797 -0.019992044 0.0075891642
0.44904873 -0.021247994 0.0071328501
0.44920814 -0.022505648 0.0066765095
0.4493663 -0.023765029 0.0062201195
0.44952309 -0.025026081 0.0057637314
0.44967854 -0.026288835 0.0053073093
0.47295749 0.0039894907 0.005185259
0.47196922 0.0041823029 0.0056256573
0.47098222 0.0043768147 0.0060660751
0.46999654 0.0045730616 0.0065065492
0.4686172 0.004263788 0.0069389548
0.46724051 0.0039579165 0.0073714112
0.46684617 0.0034515834 0.0073633511
0.46586648 0.0036554507 0.0078039248
0.46547276 0.0031499637 0.0077958787
0.46449509 0.003356393 0.0082364893
0.46410206 0.0028517577 0.0082284566
0.463709 0.0023471224 0.0082204239
0.46331596 0.001842487 0.0082123913
0.46292293 0.0013378459 0.0082043577
0.46194917 0.0015494126 0.0086450763
0.46155679 0.0010456291 0.0086370567
0.46116441 0.00054184557 0.0086290371
0.46077204 3.8062048e-05 0.0086210174
0.45980164 0.00025384864 0.009061778
0.45940992 -0.000249089 0.0090537723
0.4590182 -0.00075201492 0.0090457667
0.45862648 -0.0012549526 0.0090377601
0.45765942 -0.0010349141 0.0094785914
0.45726836 -0.0015369941 0.0094705997
0.45687732 -0.0020390742 0.0094626071
0.45648625 -0.0025411542 0.0094546154
0.45609519 -0.003043246 0.0094466228
0.45570415 -0.0035453259 0.0094386302
0.45531309 -0.0040474059 0.0094306385
0.45492205 -0.0045494861 0.0094226459
0.45453098 -0.0050515663 0.0094146542
0.45413992 -0.0055536581 0.0094066616
0.45374888 -0.0060557378 0.009398669
0.45335782 -0.006557818 0.0093906773
0.45296678 -0.0070598982 0.0093826847
0.45257571 -0.007561978 0.0093746921
0.45218468 -0.0080640698 0.0093667004
0.45179361 -0.0085661504 0.0093587078
0.45140257 -0.0090682302 0.0093507152
0.45101151 -0.0095703099 0.0093427235
0.45062047 -0.010072391 0.0093347309
0.45022941 -0.010574482 0.0093267383
0.45040047 -0.011816549 0.0088696387
0.45000875 -0.012319488 0.008861633
0.44961703 -0.012822425 0.0088536264
0.44978544 -0.0140679 0.0083964756
0.44939306 -0.014571683 0.0083884569
0.44900069 -0.015075468 0.0083804373
0.44860831 -0.015579251 0.0083724177
0.44877344 -0.016829023 0.0079151737
0.44893721 -0.018080467 0.0074579273
0.44909963 -0.019333601 0.0070006512
0.44926074 -0.020588441 0.0065433513
0.44942054 -0.021844981 0.0060860207
0.44957906 -0.02310326 0.0056286408
0.44973618 -0.02436321 0.0051712631
0.47178528 0.0043354342 0.0050250744
0.47079864 0.0045296894 0.0054664994
0.46981326 0.0047256816 0.0059079733
0.46843421 0.0044161528 0.0063413787
0.46705782 0.0041100243 0.0067748418
0.46666348 0.0036036917 0.0067667817
0.46626911 0.0030973528 0.0067587215
0.4652904 0.003301817 0.0072003091
0.46489668 0.0027963358 0.0071922624
0.46391997 0.0030033551 0.0076338905
0.46352693 0.0024987198 0.0076258578
0.4631339 0.0019940846 0.0076178247
0.46274084 0.0014894434 0.0076097916
0.46234781 0.00098481402 0.0076017589
0.46137503 0.0011969707 0.0080434931
0.46098265 0.00069318718 0.0080354745
0.46059027 0.00018940367 0.0080274548
0.45962018 0.00040493446 0.0084692184
0.45922846 -9.8003205e-05 0.0084612127
0.45883676 -0.00060092914 0.0084532071
0.45844504 -0.0011038667 0.0084452005
0.45805332 -0.0016068044 0.0084371949
0.4576616 -0.0021097304 0.0084291892
0.45726988 -0.0026126681 0.0084211836
0.45687816 -0.0031156058 0.0084131779
0.45648646 -0.0036185316 0.0084051723
0.45609474 -0.0041214693 0.0083971657
0.45570302 -0.0046243952 0.00838916
0.4553113 -0.0051273326 0.0083811544
0.45491958 -0.0056302706 0.0083731487
0.45452788 -0.0061331964 0.0083651431
0.45413616 -0.0066361339 0.0083571365
0.45374444 -0.0071390718 0.0083491309
0.45335272 -0.0076419977 0.0083411252
0.452961 -0.0081449356 0.0083331196
0.45256931 -0.0086478731 0.0083251139
0.45217758 -0.0091507994 0.0083171083
0.45178586 -0.0096537368 0.0083091017
0.45139414 -0.010156662 0.008301096
0.45100242 -0.010659601 0.0082930904
0.45061073 -0.011162538 0.0082850847
0.45021901 -0.011665463 0.0082770791
0.44982728 -0.012168402 0.0082690734
0.44999605 -0.013412775 0.0078109321
0.44960368 -0.013916559 0.007802913
0.4492113 -0.014420343 0.0077948933
0.44881892 -0.014924126 0.0077868742
0.44898441 -0.016172785 0.0073286402
0.44859135 -0.016677426 0.0073206071
0.44875482 -0.017928613 0.0068623577
0.44891694 -0.019181494 0.0064040818
0.44907776 -0.020436075 0.0059457752
0.44923723 -0.021692362 0.0054874443
0.44939545 -0.022950385 0.0050290651
0.46962994 0.0048783012 0.0053093969
0.46923426 0.0043702591 0.0053013097
0.4678562 0.0040613264 0.0057357321
0.46687514 0.0042621335 0.0061782687
0.46648079 0.0037558007 0.0061702086
0.46608642 0.003249462 0.0061621489
0.46471432 0.0029481889 0.0065966928
0.4643206 0.002442702 0.0065886467
0.46392688 0.0019372092 0.0065806
0.46295181 0.0021456811 0.0070232619
0.46255878 0.0016410399 0.0070152287
0.46216574 0.0011364105 0.0070071961
0.46080089 0.00084452884 0.0074419114
0.46040851 0.00034074529 0.0074338918
0.46001613 -0.00016303825 0.0074258726
0.45904699 5.3082596e-05 0.0078686532
0.4586553 -0.00044984333 0.0078606475
0.45826358 -0.000952781 0.0078526409
0.45787185 -0.0014557187 0.0078446353
0.45748013 -0.0019586445 0.0078366296
0.45708841 -0.0024615822 0.007828624
0.45669672 -0.0029645199 0.0078206183
0.456305 -0.0034674457 0.0078126118
0.45591328 -0.0039703837 0.0078046061
0.45552155 -0.0044733095 0.0077966005
0.45512986 -0.004976247 0.0077885948
0.45473814 -0.0054791849 0.0077805887
0.45434642 -0.0059821107 0.007772583
0.4539547 -0.0064850482 0.0077645774
0.45356297 -0.0069879862 0.0077565713
0.45317128 -0.007490912 0.0077485656
0.45277956 -0.0079938499 0.00774056
0.45238784 -0.0084967874 0.0077325539
0.45199612 -0.0089997128 0.0077245482
0.4516044 -0.0095026512 0.0077165426
0.4512127 -0.010005577 0.0077085369
0.45082098 -0.010508514 0.0077005308
0.45042926 -0.011011452 0.0076925252
0.45003754 -0.011514378 0.007684519
0.44964582 -0.012017315 0.0076765134
0.44981429 -0.013261434 0.007217369
0.44942191 -0.013765217 0.0072093499
0.44902954 -0.014269001 0.0072013307
0.44863716 -0.014772784 0.0071933111
0.44880232 -0.016021188 0.0067340774
0.44896615 -0.017271273 0.0062748347
0.44857243 -0.017776761 0.0062667886
0.44873425 -0.019029384 0.0058075087
0.44889477 -0.020283712 0.0053482023
0.46767318 0.0042136903 0.0051381597
0.46727818 0.0037065058 0.0051300861
0.46590373 0.00340157 0.0055655795
0.46550936 0.0028952314 0.0055575194
0.46413821 0.0025945543 0.0059930803
0.46374452 0.0020890615 0.0059850337
0.4633508 0.0015835745 0.0059769875
0.46198365 0.0012880079 0.00641263
0.46159062 0.00078336679 0.0064045968
0.46022674 0.00049208693 0.0068403292
0.45983437 -1.1696628e-05 0.0068323095
0.45847383 -0.00029875751 0.0072680875
0.45808211 -0.00080169516 0.0072600814
0.45769039 -0.0013046329 0.0072520757
0.4572987 -0.0018075587 0.0072440701
0.45690697 -0.0023104965 0.0072360639
0.45651525 -0.002813434 0.0072280583
0.45612353 -0.0033163601 0.0072200526
0.45573181 -0.0038192978 0.0072120465
0.45534012 -0.0043222234 0.0072040409
0.4549484 -0.0048251613 0.0071960352
0.45455667 -0.0053280988 0.0071880291
0.45416495 -0.0058310246 0.0071800235
0.45377323 -0.0063339625 0.0071720178
0.45338151 -0.0068369 0.0071640117
0.45298982 -0.0073398259 0.0071560061
0.45259809 -0.0078427633 0.0071480004
0.45220637 -0.0083457017 0.0071399943
0.45181465 -0.0088486271 0.0071319886
0.45142293 -0.0093515646 0.0071239825
0.45103124 -0.0098544909 0.0071159769
0.45063952 -0.010357428 0.0071079712
0.45024779 -0.010860366 0.0070999651
0.44985607 -0.011363292 0.0070919595
0.44946438 -0.01186623 0.0070839538
0.44963253 -0.013110092 0.0066238064
0.44924015 -0.013613875 0.0066157868
0.44884777 -0.014117659 0.0066077677
0.44901329 -0.015364962 0.0061475439
0.44862026 -0.015869591 0.0061395112
0.44878376 -0.017119421 0.0056792689
0.44894594 -0.018370943 0.0052189995
0.46356213 0.0022409149 0.0053894641
0.46316844 0.0017354278 0.0053814179
0.46180159 0.0014396054 0.0058180634
0.46140856 0.00093496422 0.0058100307
0.46101549 0.00043033485 0.0058019976
0.4596526 0.000139645 0.0062387465
0.45926023 -0.00036413854 0.0062307273
0.45790064 -0.0006506085 0.0066675185
0.45750892 -0.0011535462 0.0066595124
0.45711723 -0.0016564721 0.0066515068
0.45672551 -0.0021594097 0.0066435011
0.45633379 -0.0026623474 0.006635495
0.45594206 -0.0031652732 0.0066274893
0.45555034 -0.0036682109 0.0066194837
0.45515865 -0.0041711368 0.006611478
0.45476693 -0.0046740747 0.0066034719
0.45437521 -0.0051770122 0.0065954663
0.45398349 -0.005679938 0.0065874606
0.45359176 -0.0061828759 0.0065794545
0.45320007 -0.0066858134 0.0065714489
0.45280835 -0.0071887393 0.0065634428
0.45241663 -0.0076916772 0.0065554371
0.45202491 -0.0081946151 0.006547431
0.45163321 -0.0086975405 0.0065394253
0.45124149 -0.009200478 0.0065314197
0.45084977 -0.0097034043 0.006523414
0.45045805 -0.010206342 0.0065154079
0.45062789 -0.0114474 0.0060543013
0.45023552 -0.011951183 0.0060462821
0.44984311 -0.012454967 0.0060382625
0.44945073 -0.01295875 0.0060302434
0.44905835 -0.013462534 0.0060222242
0.44866598 -0.013966317 0.0060142046
0.44883123 -0.015213365 0.0055529778
0.44899508 -0.01646208 0.0050917454
0.44860137 -0.016967569 0.0050836992
0.46122646 0.0010865617 0.0052154642
0.46083343 0.00058193225 0.0052074315
0.4604404 7.729113e-05 0.0051993984
0.45907843 -0.00021279692 0.0056371642
0.45868605 -0.00071658043 0.0056291451
0.45829368 -0.001220364 0.0056211255
0.4579013 -0.0017241475 0.0056131063
0.45750892 -0.0022279311 0.0056050871
0.45711654 -0.0027317263 0.0055970675
0.45672417 -0.0032355099 0.0055890479
0.45633179 -0.0037392934 0.0055810288
0.45593941 -0.0042430768 0.0055730096
0.45554703 -0.0047468604 0.00556499
0.45515466 -0.0052506439 0.0055569708
0.45476228 -0.0057544275 0.0055489512
0.4543699 -0.0062582111 0.0055409321
0.45397753 -0.0067619947 0.0055329129
0.45358515 -0.0072657783 0.0055248933
0.45319277 -0.0077695614 0.0055168741
0.45280039 -0.0082733454 0.0055088545
0.45240802 -0.0087771285 0.0055008354
0.45201564 -0.0092809238 0.0054928157
0.45162326 -0.0097847078 0.0054847966
0.45123085 -0.010288491 0.005476777
0.45083848 -0.010792275 0.0054687578
0.4504461 -0.011296058 0.0054607382
0.45005372 -0.011799841 0.0054527191
0.44966134 -0.012303625 0.0054446999
0.44926897 -0.012807408 0.0054366803
0.44887659 -0.013311192 0.0054286611
0.44848421 -0.013814976 0.0054206415
0.45850429 -0.00056523882 0.005035582
0.45811191 -0.0010690223 0.0050275628
0.45771953 -0.0015728059 0.0050195432
0.45732716 -0.0020765895 0.0050115241
0.45693478 -0.0025803847 0.0050035045
0.45491606 -0.0061811642 0.060309786
0.45524132 -0.0051244227 0.060326781
0.45556659 -0.0040676808 0.060343776
0.45589188 -0.0030109391 0.060360771
0.45621714 -0.0019541974 0.060377765
0.4582952 -0.0016386603 0.061066642
0.45861983 -0.00058398442 0.061083604
0.45982027 9.7991877e-05 0.061436485
0.46014458 0.0011516277 0.061453432
0.47059536 0.006142885 0.064610854
0.47178933 0.0068042157 0.064963363
0.47211045 0.0078475159 0.064980142
0.4724316 0.0088908151 0.064996921
0.47449598 0.0091618877 0.065685086
0.47655919 0.0094287861 0.066373207
0.47687903 0.010467947 0.066389918
0.45313784 -0.016114265 0.059420273
0.45346281 -0.015058557 0.059437249
0.45378774 -0.014002855 0.059454229
0.45398137 -0.0069399225 0.05888192
0.45518461 -0.0062475111 0.059235986
0.4555099 -0.0051907692 0.059252981
0.45583516 -0.0041340278 0.059269976
0.45616043 -0.0030772858 0.059286971
0.45648569 -0.0020205441 0.059303965
0.45856324 -0.0017048772 0.05999494
0.45888788 -0.00065020134 0.060011905
0.46008804 3.1839645e-05 0.060365833
0.46041235 0.0010854754 0.06038278
0.46073669 0.0021391185 0.060399722
0.46193558 0.0028170354 0.060753595
0.46313375 0.0034929139 0.061107401
0.46433139 0.0041666916 0.061461199
0.46465474 0.0052172286 0.061478093
0.46672466 0.0055080703 0.062168673
0.4687933 0.0057947729 0.062859178
0.47086075 0.0060773171 0.063549653
0.47205448 0.0067387125 0.06390322
0.4723756 0.0077820122 0.063919999
0.47269672 0.0088253124 0.063936777
0.47476059 0.0090965144 0.064627044
0.47682327 0.0093635432 0.065317258
0.47714314 0.010402704 0.06533397
0.47485173 0.01260935 0.064340599
0.47604257 0.013261443 0.064694025
0.47723287 0.013911442 0.065047443
0.47755307 0.014951636 0.065064169
0.45619106 -0.02321326 0.059954427
0.45651442 -0.022162715 0.059971321
0.45595646 -0.02075927 0.059649877
0.45539922 -0.019353785 0.059328496
0.45484251 -0.017946193 0.059007112
0.45516682 -0.016892558 0.059024058
0.45461106 -0.015481859 0.058702737
0.45405605 -0.014069137 0.058381472
0.45350158 -0.012654308 0.058060214
0.45382684 -0.011597566 0.058077209
0.45415211 -0.010540824 0.058094203
0.45447737 -0.0094840825 0.058111198
0.45480263 -0.0084273415 0.058128193
0.45512792 -0.0073705995 0.058145188
0.45545319 -0.0063138576 0.058162183
0.45577845 -0.0052571162 0.058179177
0.45610371 -0.0042003742 0.058196172
0.45642897 -0.0031436326 0.058213167
0.45675424 -0.0020868909 0.058230162
0.45707953 -0.0010301493 0.058247156
0.45915589 -0.00071641826 0.058940202
0.45948052 0.00033825761 0.058957163
0.45980516 0.0013929263 0.058974124
0.46100444 0.0020729662 0.05932907
0.46220312 0.0027509483 0.059683993
0.46340099 0.0034268915 0.06003885
0.46459839 0.0041007344 0.060393702
0.46492174 0.0051512714 0.060410596
0.46699113 0.0054422431 0.061103273
0.46905923 0.0057290751 0.061795879
0.47025374 0.0063936147 0.062150579
0.47144762 0.0070560817 0.062505253
0.47176906 0.0081004146 0.062522054
0.47296187 0.0087598097 0.062876634
0.47415417 0.0094171111 0.063231222
0.47447497 0.010459378 0.063247979
0.47479579 0.011501645 0.063264742
0.47511661 0.012543912 0.063281506
0.47630718 0.01319607 0.063635975
0.47749725 0.013846134 0.063990444
0.47781742 0.014886328 0.064007178
0.45845827 -0.026426408 0.059871469
0.45878068 -0.02537897 0.059888314
0.45910308 -0.024331531 0.05990516
0.4576627 -0.022580463 0.059243195
0.45710477 -0.021178136 0.058920719
0.45654738 -0.019773714 0.058598235
0.4559907 -0.018367263 0.058275826
0.45631471 -0.017314659 0.058292754
0.4557589 -0.015905065 0.057970356
0.45520374 -0.0144934 0.057647999
0.4546493 -0.01307971 0.057325698
0.45497426 -0.012024002 0.057342675
0.45442069 -0.010607172 0.057020392
0.45474595 -0.0095504299 0.057037387
0.45507121 -0.008493688 0.057054382
0.45539647 -0.0074369465 0.057071377
0.45572174 -0.006380205 0.057088375
0.456047 -0.0053234631 0.05710537
0.45637229 -0.0042667217 0.057122365
0.45669755 -0.0032099797 0.057139359
0.45702282 -0.002153238 0.057156354
0.45734808 -0.0010964965 0.057173349
0.45854869 -0.00041121221 0.057529438
0.45974857 0.00027204069 0.057885464
0.4600732 0.0013267094 0.057902426
0.46127221 0.0020068143 0.058258422
0.46159655 0.0030604575 0.058275368
0.4627946 0.0037374641 0.058631323
0.46399194 0.0044124392 0.058987208
0.46431559 0.0054640165 0.059004121
0.46638477 0.0057561505 0.059698917
0.46758029 0.0064248866 0.060054738
0.46964723 0.0067097829 0.060749412
0.47084117 0.0073733479 0.061105151
0.47116295 0.0084187202 0.061121963
0.47235593 0.0090791862 0.06147765
0.47354814 0.0097376062 0.061833262
0.47386929 0.010780905 0.061850041
0.47506067 0.011436207 0.06220565
0.47538149 0.012478474 0.06222241
0.4765718 0.013130696 0.062577941
0.4777616 0.013780826 0.062933452
0.47808176 0.01482102 0.062950179
0.47840196 0.015861221 0.062966913
0.47959048 0.016507205 0.063322365
0.47991031 0.017546365 0.063339077
0.46104917 -0.028582418 0.059811819
0.46137062 -0.027538085 0.059828617
0.4608103 -0.026144065 0.059504915
0.46025062 -0.024747981 0.059181254
