# .PCD v0.7 - Point Cloud Data file format
VERSION 0.7
FIELDS x y z
SIZE 4 4 4
TYPE F F F
COUNT 1 1 1
WIDTH 1420
HEIGHT 1
VIEWPOINT 0 0 0 1 0 0 0
POINTS 1420
DATA ascii
0.57265395 0.11794607 0.04767023
0.57226092 0.11744143 0.047662199
0.57186782 0.1169368 0.047654163
0.57147479 0.11643216 0.047646131
0.57108176 0.11592752 0.0476381
0.57068872 0.11542289 0.047630064
0.57029569 0.11491825 0.047622032
0.56990266 0.11441362 0.047614001
0.56950963 0.11390898 0.047605965
0.56911653 0.11340435 0.047597934
0.5687235 0.11289971 0.047589902
0.56833047 0.11239508 0.047581866
0.56793743 0.11189044 0.047573835
0.5675444 0.11138581 0.047565803
0.56715137 0.11088117 0.047557767
0.56675833 0.11037654 0.047549736
0.56636524 0.1098719 0.047541704
0.56597221 0.10936727 0.047533669
0.56557918 0.10886262 0.047525637
0.56443232 0.10889287 0.047900043
0.56403995 0.10838909 0.047892023
0.56364757 0.1078853 0.047884006
0.5625034 0.10791891 0.048258442
0.56211168 0.10741598 0.048250437
0.56171995 0.10691305 0.048242431
0.56057847 0.10695006 0.048616927
0.5601874 0.10644798 0.048608933
0.55904788 0.10648754 0.048983466
0.55865747 0.10598631 0.04897549
0.55751985 0.10602847 0.049350087
0.55713016 0.10552809 0.049342118
0.55599457 0.10557276 0.049716737
0.55486035 0.10561914 0.050091378
0.55372745 0.10566722 0.050466049
0.55333972 0.10516939 0.050458122
0.55220878 0.10522002 0.050832834
0.55182171 0.10472304 0.050824922
0.55069274 0.10477626 0.051199693
0.55030632 0.10428014 0.051191796
0.54843891 0.10488774 0.051949278
0.54731393 0.10494602 0.052324109
0.54692948 0.10445245 0.052316252
0.54580653 0.10451329 0.052691124
0.54468489 0.10457587 0.053066045
0.54356456 0.10464012 0.053440973
0.54170901 0.10526304 0.054198697
0.54059196 0.10533158 0.054573715
0.53947634 0.10540178 0.054948736
0.53798282 0.10498692 0.055316035
0.53687048 0.10506138 0.055691123
0.53649205 0.10457546 0.055683389
0.53611356 0.10408955 0.055675656
0.53427255 0.10473122 0.0564337
0.57192826 0.14894196 0.055439886
0.57234168 0.14797083 0.055049516
0.57275385 0.14699797 0.054659117
0.57395595 0.14553732 0.053886022
0.57357419 0.14504714 0.053878222
0.5739823 0.14406919 0.053487744
0.57438916 0.14308955 0.053097237
0.57479471 0.14210816 0.052706685
0.57441092 0.14161544 0.052698839
0.57481444 0.14063153 0.052308269
0.57521665 0.13964592 0.051917668
0.57561749 0.1386586 0.051527042
0.57523173 0.13816333 0.051519156
0.57563061 0.13717346 0.051128488
0.57524419 0.13667734 0.05112059
0.57564116 0.13568489 0.050729863
0.57525408 0.13518791 0.050721951
0.57564896 0.13419294 0.050331201
0.57526124 0.13369511 0.050323278
0.57565415 0.13269758 0.049932487
0.57526571 0.1321989 0.049924549
0.57565665 0.13119882 0.049533717
0.57604623 0.13019705 0.04914286
0.57565653 0.12969667 0.049134895
0.5760442 0.1286923 0.048743978
0.57643044 0.12768626 0.04835305
0.57603937 0.12718418 0.048345059
0.5764237 0.1261756 0.047954094
0.57603198 0.12567267 0.047946088
0.57641429 0.12466153 0.047555082
0.57679534 0.12364865 0.047164027
0.57640225 0.12314402 0.047155991
0.57600921 0.12263938 0.047147959
0.57561618 0.12213475 0.047139928
0.57522315 0.12163011 0.047131892
0.57483011 0.12112547 0.047123861
0.57443708 0.12062084 0.047115829
0.57404405 0.1201162 0.047107793
0.57365096 0.11961157 0.047099762
0.57325792 0.11910693 0.04709173
0.57286489 0.1186023 0.047083694
0.57247186 0.11809766 0.047075663
0.57207882 0.11759303 0.047067631
0.57168579 0.11708839 0.047059599
0.57129276 0.11658376 0.047051564
0.57089967 0.11607912 0.047043532
0.57050663 0.11557449 0.0470355
0.5701136 0.11506985 0.047027465
0.56972057 0.11456522 0.047019433
0.56932753 0.11406058 0.047011402
0.5689345 0.11355595 0.047003366
0.56854147 0.11305131 0.046995334
0.56814837 0.11254667 0.046987303
0.56775534 0.11204204 0.046979267
0.56736231 0.1115374 0.046971235
0.56696928 0.11103277 0.046963204
0.56657624 0.11052813 0.046955168
0.56618321 0.1100235 0.046947137
0.56579018 0.10951886 0.046939105
0.56539708 0.10901423 0.046931069
0.56425053 0.10904421 0.047306482
0.56385815 0.10854042 0.047298461
0.56346577 0.10803664 0.047290441
0.5623219 0.10807 0.047665883
0.56193024 0.10756706 0.047657877
0.56153852 0.10706413 0.047649872
0.56039727 0.10710089 0.04802537
0.56000626 0.10659881 0.048017375
0.55961519 0.10609672 0.048009384
0.55847663 0.10613689 0.048384935
0.55733931 0.10617879 0.048760533
0.55694962 0.10567841 0.048752569
0.55581439 0.10572283 0.049128186
0.55468047 0.10576895 0.049503829
0.55429202 0.10527027 0.049495891
0.55316013 0.10531894 0.049871579
0.55202949 0.10536931 0.050247293
0.55164242 0.10487234 0.05023938
0.55051374 0.1049253 0.050615154
0.54938644 0.10497993 0.050990935
0.54826051 0.10503627 0.051366743
0.54713583 0.1050943 0.051742576
0.54601252 0.10515404 0.052118439
0.54489052 0.10521551 0.052494351
0.54376984 0.10527865 0.052870266
0.54265046 0.10534349 0.053246208
0.54079616 0.10596678 0.054005973
0.53968018 0.10603588 0.054381985
0.53818631 0.10561991 0.054750275
0.53707361 0.10569327 0.05512635
0.53596222 0.10576832 0.055502456
0.53558445 0.10528326 0.055494737
0.53520668 0.1047982 0.055487014
0.53409785 0.10487668 0.055863198
0.57175261 0.1490882 0.054866374
0.57216579 0.1481173 0.054475002
0.5725776 0.14714472 0.054083601
0.57298815 0.14617039 0.053692155
0.57339734 0.1451944 0.053300701
0.57380515 0.1442167 0.052909218
0.57421166 0.14323731 0.052517712
0.57461691 0.14225617 0.052126154
0.57423317 0.14176345 0.052118313
0.57463634 0.14077979 0.051726736
0.57503825 0.13979444 0.051335134
0.5754388 0.13880739 0.050943505
0.57505304 0.13831212 0.050935619
0.57545161 0.1373225 0.050543949
0.5750652 0.13682638 0.050536051
0.5754618 0.13583419 0.050144318
0.57507473 0.1353372 0.05013641
0.57546937 0.13434249 0.049744654
0.57508159 0.13384466 0.049736731
0.5754742 0.1328474 0.049344938
0.57508582 0.13234872 0.049337
0.57547641 0.13134889 0.04894517
0.57586569 0.13034737 0.04855331
0.57547599 0.12984699 0.048545342
0.5758633 0.12884288 0.048153423
0.5762493 0.12783709 0.047761492
0.57585824 0.12733501 0.047753502
0.57624221 0.12632668 0.047361534
0.57585055 0.12582375 0.047353528
0.57623249 0.12481287 0.04696152
0.57661325 0.12380025 0.046569459
0.57622021 0.12329561 0.046561427
0.57582718 0.12279098 0.046553396
0.57543409 0.12228634 0.04654536
0.57504106 0.12178171 0.046537329
0.57464802 0.12127707 0.046529297
0.57425499 0.12077244 0.046521261
0.57386196 0.1202678 0.04651323
0.57346892 0.11976317 0.046505198
0.57307589 0.11925853 0.046497162
0.5726828 0.1187539 0.046489131
0.57228976 0.11824926 0.046481099
0.57189673 0.11774462 0.046473064
0.5715037 0.11723999 0.046465032
0.57111067 0.11673535 0.046457
0.57071763 0.11623072 0.046448965
0.5703246 0.11572608 0.046440933
0.56993151 0.11522145 0.046432901
0.56953847 0.11471681 0.046424869
0.56914544 0.11421218 0.046416834
0.56875241 0.11370754 0.046408802
0.56835938 0.11320291 0.046400771
0.56796634 0.11269827 0.046392735
0.56757331 0.11219364 0.046384703
0.56718022 0.111689 0.046376672
0.56678718 0.11118437 0.046368636
0.56639415 0.11067973 0.046360604
0.56600112 0.1101751 0.046352573
0.56560808 0.10967046 0.046344537
0.56521505 0.10916582 0.046336506
0.56406879 0.10919555 0.046712916
0.56367642 0.10869177 0.0467049
0.56328404 0.10818798 0.046696879
0.56214046 0.10822108 0.047073323
0.56174874 0.10771815 0.047065318
0.56135702 0.10721522 0.047057312
0.56021613 0.10725172 0.047433808
0.55982506 0.10674964 0.047425818
0.559434 0.10624756 0.047417827
0.55829579 0.10628746 0.047794379
0.55715877 0.10632911 0.04817098
0.55676907 0.10582872 0.048163015
0.55563414 0.10587289 0.048539635
0.55450052 0.10591876 0.048916284
0.55411214 0.10542008 0.048908345
0.55298048 0.1054685 0.049285032
0.5518502 0.10551862 0.049661748
0.55146313 0.10502163 0.049653839
0.55033475 0.10507435 0.050030615
0.54920775 0.10512872 0.050407398
0.54808211 0.10518479 0.050784208
0.54695779 0.10524257 0.051161047
0.54583478 0.10530205 0.051537909
0.54471302 0.10536327 0.051914822
0.54285538 0.10598091 0.052676491
0.54173702 0.10604635 0.05305345
0.53950423 0.10618237 0.053807471
0.53838986 0.10625291 0.054184511
0.53727674 0.10632515 0.054561578
0.536165 0.1063991 0.054938674
0.53505456 0.10647478 0.055315819
0.53467745 0.10599057 0.055308111
0.53430027 0.10550636 0.055300403
0.53246188 0.10614868 0.05606246
0.57036954 0.15068552 0.055069812
0.57078439 0.14971745 0.054677475
0.57119787 0.14874767 0.054285113
0.57161003 0.14777617 0.053892728
0.57202089 0.14680299 0.05350031
0.57322043 0.14534165 0.052723181
0.57362801 0.14436421 0.052330695
0.57403421 0.14338507 0.051938187
0.57443917 0.14240418 0.051545624
0.57405537 0.14191146 0.051537782
0.5744583 0.14092807 0.051145203
0.57485986 0.13994297 0.050752599
0.5752601 0.13895617 0.050359968
0.57487434 0.1384609 0.050352082
0.57527262 0.13747154 0.04995941
0.5748862 0.13697542 0.049951512
0.57528251 0.13598348 0.049558777
0.57489544 0.1354865 0.049550865
0.57528973 0.13449204 0.049158111
0.574902 0.13399421 0.049150188
0.57529426 0.1329972 0.048757393
0.57490587 0.13249852 0.048749454
0.57529616 0.13149895 0.048356619
0.57568514 0.13049769 0.047963757
0.57529545 0.12999731 0.047955789
0.57568246 0.12899345 0.047562867
0.57606816 0.12798794 0.047169935
0.5756771 0.12748584 0.047161944
0.57606077 0.12647776 0.046768971
0.57566905 0.12597483 0.046760965
0.57605076 0.12496421 0.046367954
0.57643116 0.12395184 0.045974895
0.57603812 0.12344721 0.04596686
0.57564509 0.12294257 0.045958828
0.57525206 0.12243794 0.045950796
0.57485902 0.1219333 0.045942761
0.57446593 0.12142867 0.045934729
0.5740729 0.12092403 0.045926698
0.57367986 0.1204194 0.045918662
0.57328683 0.11991476 0.04591063
0.5728938 0.11941013 0.045902599
0.57250077 0.11890549 0.045894563
0.57210773 0.11840086 0.045886531
0.57171464 0.11789622 0.0458785
0.57132161 0.11739159 0.045870464
0.57092857 0.11688695 0.045862433
0.57053554 0.11638232 0.045854401
0.57014251 0.11587768 0.045846365
0.56974947 0.11537305 0.045838334
0.56935644 0.11486841 0.045830302
0.56896335 0.11436377 0.04582227
0.56857032 0.11385914 0.045814235
0.56817728 0.1133545 0.045806203
0.56778425 0.11284987 0.045798171
0.56739122 0.11234523 0.045790136
0.56699818 0.1118406 0.045782104
0.56660515 0.11133596 0.045774072
0.56621206 0.11083133 0.045766037
0.56581903 0.11032669 0.045758005
0.56542599 0.10982206 0.045749974
0.56503296 0.10931742 0.045741938
0.563887 0.1093469 0.046119355
0.56349462 0.10884311 0.046111334
0.56310225 0.10833932 0.046103317
0.56270987 0.10783554 0.046095297
0.56156731 0.10786924 0.046472758
0.56117558 0.1073663 0.046464752
0.56003499 0.10740256 0.046842251
0.55964392 0.10690047 0.04683426
0.55925286 0.10639839 0.046826266
0.55811495 0.10643804 0.047203824
0.55697829 0.10647943 0.047581427
0.55658853 0.10597905 0.047573462
0.5554539 0.10602295 0.047951087
0.55506486 0.10552342 0.047943134
0.55393219 0.10556988 0.048320796
0.55280089 0.10561804 0.048698489
0.55167085 0.10566791 0.049076207
0.55128378 0.10517094 0.049068294
0.55015576 0.10522339 0.049446076
0.54902905 0.1052775 0.049823862
0.54790372 0.10533333 0.050201673
0.54677969 0.10539085 0.050579514
0.54491866 0.1060029 0.051343128
0.54379797 0.10606468 0.051721033
0.54267853 0.10612816 0.052098971
0.54082417 0.10674873 0.052862719
0.53859335 0.1068859 0.053618748
0.53747994 0.10695704 0.053996805
0.53636783 0.10702988 0.054374889
0.53525698 0.10710446 0.054753024
0.53414756 0.1071807 0.05513116
0.5337711 0.10669734 0.055123467
0.53339458 0.10621398 0.055115771
0.57019454 0.15083124 0.054498304
0.57060903 0.14986342 0.054104969
0.57102227 0.14889389 0.053711604
0.57143414 0.14792266 0.053318214
0.57105434 0.14743504 0.05331045
0.57146424 0.14646126 0.052917019
0.57266182 0.14499873 0.052137855
0.57306838 0.14402069 0.051744357
0.57347363 0.14304096 0.051350828
0.57387763 0.14205949 0.050957255
0.5742802 0.14107634 0.050563674
0.57468146 0.14009151 0.050170064
0.57508141 0.13910496 0.049776431
0.57469565 0.13860968 0.049768545
0.57509363 0.13762058 0.049374871
0.57470721 0.13712446 0.049366973
0.57510322 0.13613278 0.048973236
0.57471615 0.13563579 0.048965324
0.57511014 0.13464159 0.048571568
0.57472235 0.13414377 0.048563644
0.57511437 0.13314702 0.048169844
0.57472599 0.13264833 0.048161905
0.57511598 0.13164902 0.047768068
0.57550466 0.130648 0.047374204
0.57511491 0.13014762 0.047366239
0.57550162 0.12914403 0.046972312
0.57588702 0.12813877 0.046578377
0.57549596 0.12763667 0.046570387
0.57587934 0.12662886 0.046176411
0.57548761 0.12612593 0.046168406
0.57586896 0.12511556 0.045774393
0.57624906 0.12410344 0.045380328
0.57585603 0.12359881 0.045372296
0.575463 0.12309417 0.045364261
0.57506996 0.12258954 0.045356229
0.57467693 0.1220849 0.045348197
0.5742839 0.12158027 0.045340165
0.57389086 0.12107563 0.04533213
0.57349777 0.12057099 0.045324098
0.57310474 0.12006636 0.045316067
0.57271171 0.11956172 0.045308031
0.57231867 0.11905709 0.045299999
0.57192564 0.11855245 0.045291968
0.57153261 0.11804782 0.045283932
0.57113957 0.11754318 0.045275901
0.57074648 0.11703855 0.045267869
0.57035345 0.11653391 0.045259833
0.56996042 0.11602928 0.045251802
0.56956738 0.11552464 0.04524377
0.56917435 0.11502001 0.045235734
0.56878132 0.11451537 0.045227703
0.56838828 0.11401074 0.045219671
0.56799519 0.1135061 0.045211636
0.56760216 0.11300147 0.045203604
0.56720912 0.11249683 0.045195572
0.56681609 0.1119922 0.04518754
0.56642306 0.11148756 0.045179505
0.56603003 0.11098292 0.045171473
0.56563699 0.11047829 0.045163441
0.56524396 0.10997365 0.045155406
0.56485087 0.10946902 0.045147374
0.56370527 0.10949823 0.045525793
0.56331289 0.10899445 0.045517772
0.56292051 0.10849067 0.045509752
0.56252813 0.10798688 0.045501735
0.56213576 0.1074831 0.045493715
0.56099415 0.10751739 0.045872193
0.56060243 0.10701445 0.045864187
0.55946279 0.1070513 0.046242703
0.55907172 0.10654922 0.046234712
0.55793411 0.10658861 0.046613269
0.55754369 0.10608738 0.046605289
0.55640799 0.10612936 0.046983909
0.55527365 0.10617302 0.047362536
0.55488461 0.10567348 0.047354586
0.55375224 0.10571969 0.047733251
0.55336386 0.10522101 0.047725312
0.55223352 0.10526977 0.048104018
0.55184579 0.10477194 0.048096094
0.55071741 0.10482325 0.048474845
0.54959035 0.1048763 0.04885364
0.54772532 0.10548186 0.049619142
0.54660159 0.10553912 0.049997982
0.54547918 0.10559809 0.050376851
0.54362077 0.10621219 0.05114251
0.54176503 0.10682966 0.051908202
0.53953212 0.10696295 0.052666206
0.53768307 0.10758892 0.053432032
0.53657061 0.10766066 0.053811107
0.5354594 0.10773413 0.05419023
0.53434962 0.10780927 0.054569352
0.53324115 0.10788611 0.054948509
0.53286535 0.1074036 0.054940827
0.53248954 0.10692109 0.054933146
0.53065366 0.10756412 0.055699266
0.57043374 0.15000939 0.053532463
0.57005525 0.14952348 0.053524725
0.57046747 0.14855336 0.053130344
0.57087839 0.14758153 0.05273594
0.57128799 0.14660801 0.052341502
0.57248497 0.14514598 0.051560335
0.57289124 0.1441682 0.051165834
0.57329619 0.14318871 0.050771303
0.57369983 0.1422075 0.050376724
0.5741021 0.14122462 0.049982142
0.57371771 0.14073105 0.049974285
0.57411802 0.13974561 0.049579661
0.57451695 0.13875847 0.049185012
0.57491463 0.13776962 0.048790332
0.57452822 0.13727351 0.048782434
0.57492387 0.13628207 0.048387691
0.5745368 0.13578509 0.048379783
0.57493049 0.13479115 0.047985021
0.57454276 0.13429332 0.047977097
0.57493442 0.13329682 0.047582299
0.57454604 0.13279814 0.04757436
0.57493573 0.13179909 0.04717952
0.57532412 0.13079832 0.046784651
0.57493436 0.13029794 0.046776686
0.57532078 0.1292946 0.046381757
0.57570583 0.1282896 0.04598682
0.57531482 0.1277875 0.045978826
0.57569784 0.12677994 0.045583852
0.57530612 0.12627701 0.045575846
0.57568723 0.12526689 0.045180827
0.57606703 0.12425504 0.04478576
0.575674 0.1237504 0.044777729
0.5752809 0.12324577 0.044769697
0.57488787 0.12274113 0.044761661
0.57449484 0.1222365 0.04475363
0.57410181 0.12173186 0.044745598
0.57370877 0.12122723 0.044737566
0.57331574 0.12072259 0.044729531
0.57292271 0.12021796 0.044721499
0.57252961 0.11971332 0.044713467
0.57213658 0.11920869 0.044705432
0.57174355 0.11870405 0.0446974
0.57135051 0.11819942 0.044689368
0.57095748 0.11769478 0.044681333
0.57056445 0.11719014 0.044673301
0.57017142 0.11668551 0.04466527
0.56977832 0.11618087 0.044657234
0.56938529 0.11567624 0.044649202
0.56899226 0.1151716 0.044641171
0.56859922 0.11466697 0.044633135
0.56820619 0.11416233 0.044625103
0.56781316 0.1136577 0.044617072
0.56742013 0.11315306 0.044609036
0.56702703 0.11264843 0.044601005
0.566634 0.11214379 0.044592973
0.56624097 0.11163916 0.044584941
0.56584793 0.11113452 0.044576906
0.5654549 0.11062989 0.044568874
0.56506187 0.11012525 0.044560842
0.56466883 0.10962062 0.044552807
0.56352347 0.10964958 0.044932228
0.56313109 0.10914579 0.044924211
0.56273872 0.10864201 0.04491619
0.56234634 0.10813823 0.04490817
0.56195396 0.10763444 0.044900149
0.56081265 0.10766847 0.04527963
0.56042093 0.10716555 0.045271624
0.55928165 0.10720213 0.045651145
0.55889058 0.10670005 0.045643151
0.55775321 0.10673919 0.046022713
0.55736285 0.10623796 0.046014734
0.55622745 0.10627969 0.046394359
0.55583775 0.10577931 0.046386391
0.55470437 0.10582355 0.046766035
0.55357236 0.1058695 0.047145702
0.55318391 0.10537082 0.047137767
0.55205387 0.10541932 0.047517475
0.55166614 0.1049215 0.047509551
0.55053812 0.10497255 0.0478893
0.54941136 0.10502534 0.0482691
0.54754692 0.10563038 0.049036607
0.54642349 0.10568739 0.049416453
0.54530144 0.10574611 0.049796324
0.54270661 0.10691284 0.05095173
0.54158849 0.10697665 0.051331684
0.53862119 0.10766512 0.052479476
0.53677338 0.10829144 0.053247321
0.53566188 0.10836381 0.053627435
0.53455168 0.10843784 0.054007549
0.53344285 0.10851357 0.054387692
0.53233534 0.10859101 0.054767862
0.53196019 0.10810935 0.054760195
0.53158504 0.10762768 0.054752529
0.52975047 0.10827105 0.055520669
0.56825972 0.1520855 0.054130532
0.56946671 0.15063761 0.053347573
0.56908888 0.15015255 0.053339854
0.56950146 0.14918353 0.052944485
0.56991273 0.14821282 0.052549087
0.57032269 0.1472404 0.052153666
0.57073128 0.14626628 0.051758211
0.57192636 0.14480306 0.05097501
0.57233161 0.1438247 0.050579492
0.57273561 0.14284462 0.050183948
0.5731383 0.14186279 0.049788352
0.57353961 0.14087932 0.049392752
0.57393962 0.13989414 0.048997127
0.57433826 0.13890725 0.048601475
0.57473558 0.13791867 0.048205793
0.57434916 0.13742255 0.048197895
0.57474458 0.13643137 0.04780215
0.57435751 0.13593438 0.047794241
0.5747509 0.1349407 0.047398478
0.57436311 0.13444287 0.047390554
0.57475454 0.13344662 0.046994749
0.57436609 0.13294795 0.046986811
0.57475549 0.13194914 0.046590969
0.57514358 0.13094865 0.046195097
0.57475382 0.13044827 0.046187133
0.57513994 0.12944518 0.045791201
0.57552469 0.12844042 0.045395263
0.57513362 0.12793833 0.045387268
0.5755164 0.12693103 0.044991292
0.57512468 0.1264281 0.044983286
0.57550544 0.12541823 0.044587266
0.57588494 0.12440664 0.044191197
0.57549191 0.12390201 0.044183165
0.57509887 0.12339737 0.044175129
0.57470584 0.12289274 0.044167098
0.57431275 0.1223881 0.044159066
0.57391971 0.12188347 0.04415103
0.57352668 0.12137883 0.044142999
0.57313365 0.1208742 0.044134967
0.57274061 0.12036956 0.044126932
0.57234758 0.11986492 0.0441189
0.57195455 0.11936028 0.044110868
0.57156146 0.11885565 0.044102836
0.57116842 0.11835101 0.044094801
0.57077539 0.11784638 0.044086769
0.57038236 0.11734174 0.044078737
0.56998932 0.11683711 0.044070702
0.56959629 0.11633247 0.04406267
0.56920326 0.11582784 0.044054639
0.56881016 0.1153232 0.044046603
0.56841713 0.11481857 0.044038571
0.5680241 0.11431393 0.04403054
0.56763107 0.11380929 0.044022504
0.56723803 0.11330466 0.044014473
0.566845 0.11280002 0.044006441
0.56645197 0.11229539 0.043998405
0.56605893 0.11179075 0.043990374
0.56566584 0.11128612 0.043982342
0.56527281 0.11078148 0.043974306
0.56487978 0.11027685 0.043966275
0.56448674 0.10977221 0.043958243
0.56334174 0.10980092 0.044338666
0.56294936 0.10929713 0.044330645
0.56255698 0.10879335 0.044322625
0.5621646 0.10828956 0.044314608
0.56177223 0.10778578 0.044306587
0.56063122 0.10781956 0.04468707
0.56023949 0.10731663 0.044679064
0.55910045 0.10735296 0.045059588
0.55870944 0.10685088 0.045051593
0.55757236 0.10688976 0.045432158
0.55718201 0.10638853 0.045424178
0.5560469 0.10643 0.045804806
0.55565721 0.10592962 0.045796838
0.55452412 0.10597362 0.046177484
0.55339241 0.10601931 0.046558157
0.55300403 0.10552063 0.046550218
0.55187428 0.10556888 0.046930932
0.55148655 0.10507105 0.046923004
0.55035877 0.10512184 0.047303759
0.5492323 0.10517439 0.047684561
0.54736853 0.10577891 0.048454072
0.54624546 0.10583567 0.04883492
0.54438627 0.10644619 0.04960455
0.54252976 0.10706008 0.05037421
0.54029542 0.10718895 0.05113617
0.53771085 0.10836679 0.052294753
0.53513026 0.10954976 0.053453438
0.53402036 0.10962354 0.053834558
0.53364456 0.10914103 0.053826876
0.53253669 0.10921736 0.054208037
0.53143013 0.10929542 0.054589245
0.53105563 0.10881461 0.05458159
0.53068119 0.1083338 0.054573938
0.52884787 0.10897748 0.055344071
0.56850022 0.15126535 0.053164713
0.5681231 0.15078114 0.053157005
0.5685361 0.14981321 0.052760627
0.56894773 0.1488436 0.052364241
0.57014674 0.14738688 0.051579151
0.57055503 0.14641301 0.051182698
0.57174951 0.14495032 0.050397489
0.57215446 0.1439722 0.050000969
0.57255816 0.14299238 0.04960442
0.5729605 0.14201082 0.049207821
0.57336152 0.1410276 0.048811223
0.57376122 0.14004266 0.048414592
0.57415956 0.13905604 0.048017938
0.57455659 0.13806771 0.047621254
0.57417017 0.13757159 0.047613356
0.57456529 0.13658066 0.047216609
0.57417822 0.13608369 0.0472087
0.57457125 0.13509025 0.046811935
0.57418352 0.13459243 0.046804007
0.57457459 0.13359644 0.046407204
0.57418621 0.13309775 0.046399266
0.57457525 0.13209921 0.046002418
0.57496303 0.13109896 0.045605544
0.57457328 0.13059859 0.045597579
0.5749591 0.12959576 0.045200646
0.57534355 0.12859125 0.044803705
0.57495248 0.12808917 0.044795711
0.57533491 0.12708211 0.044398729
0.57494324 0.12657918 0.044390723
0.5753237 0.12556958 0.043993704
0.57570285 0.12455824 0.043596629
0.57530981 0.1240536 0.043588597
0.57491678 0.12354897 0.043580566
0.57452375 0.12304433 0.04357253
0.57413071 0.1225397 0.043564498
0.57373768 0.12203506 0.043556467
0.57334465 0.12153043 0.043548431
0.57295156 0.12102579 0.0435404
0.57255852 0.12052116 0.043532368
0.57216549 0.12001652 0.043524332
0.57177246 0.11951188 0.043516301
0.57137942 0.11900724 0.043508269
0.57098639 0.11850261 0.043500237
0.57059336 0.11799797 0.043492202
0.57020026 0.11749334 0.04348417
0.56980723 0.1169887 0.043476138
0.5694142 0.11648407 0.043468103
0.56902117 0.11597943 0.043460071
0.56862813 0.1154748 0.043452039
0.5682351 0.11497016 0.043444004
0.56784207 0.11446553 0.043435972
0.56744897 0.11396089 0.04342794
0.56705594 0.11345626 0.043419905
0.56666291 0.11295162 0.043411873
0.56626987 0.11244699 0.043403842
0.56587684 0.11194235 0.043395806
0.56548381 0.11143772 0.043387774
0.56509078 0.11093308 0.043379743
0.56469768 0.11042845 0.043371707
0.56430465 0.10992381 0.043363675
0.56315994 0.10995226 0.043745104
0.56276757 0.10944848 0.043737084
0.56237519 0.10894469 0.043729063
0.56198281 0.10844091 0.043721043
0.56159043 0.10793712 0.043713026
0.56044972 0.10797065 0.04409451
0.560058 0.10746771 0.044086505
0.55891931 0.10750379 0.044468027
0.55852824 0.10700171 0.044460036
0.55739152 0.10704034 0.044841602
0.55700117 0.10653911 0.044833623
0.55661076 0.10603788 0.044825647
0.55547667 0.10607994 0.045207288
0.55434388 0.10612368 0.045588937
0.55321246 0.10616912 0.045970608
0.55282408 0.10567044 0.045962669
0.55169463 0.10571843 0.046344385
0.5513069 0.1052206 0.046336461
0.55017948 0.10527115 0.046718217
0.54905331 0.10532343 0.047100022
0.54719013 0.10592744 0.047871538
0.54606736 0.10598394 0.048253387
0.54347175 0.10714573 0.049414758
0.54049963 0.10782415 0.050568432
0.53791404 0.10899867 0.051729981
0.53680116 0.10906794 0.052112032
0.53422213 0.11025099 0.053273741
0.53311324 0.11032537 0.053655874
0.53200561 0.11040147 0.054038059
0.53163111 0.10992067 0.054030407
0.53052557 0.10999929 0.054412607
0.52942133 0.11007962 0.054794837
0.52904814 0.10960051 0.054787211
0.52794594 0.1096834 0.055169482
0.56711918 0.15285681 0.053381145
0.56753445 0.15189256 0.052983839
0.56715798 0.15140919 0.052976143
0.56757128 0.15044239 0.052578796
0.56877238 0.14898957 0.051791735
0.5691824 0.14801851 0.051394317
0.56959105 0.14704575 0.050996877
0.57157266 0.14509757 0.049819969
0.57197732 0.14411971 0.049422447
0.57238066 0.14314014 0.049024895
0.57278275 0.14215884 0.048627295
0.57318342 0.14117587 0.048229691
0.57358283 0.1401912 0.047832057
0.57398087 0.13920483 0.047434401
0.5743776 0.13821675 0.047036715
0.57399118 0.13772061 0.047028817
0.57438594 0.13672996 0.046631068
0.57399887 0.13623299 0.046623155
0.57439166 0.13523979 0.046225388
0.57400388 0.13474198 0.046217464
0.57439464 0.13374624 0.045819655
0.57400626 0.13324755 0.045811716
0.57439506 0.13224927 0.04541387
0.57478249 0.13124928 0.045015994
0.57439274 0.1307489 0.04500803
0.57477826 0.12974633 0.044610091
0.57516241 0.12874208 0.044212148
0.57477134 0.12824 0.044204153
0.57515347 0.12723321 0.043806169
0.57476175 0.12673026 0.043798164
0.57514191 0.12572092 0.043400139
0.57552081 0.12470984 0.043002065
0.57512778 0.1242052 0.042994034
0.57473469 0.12370057 0.042985998
0.57434165 0.12319593 0.042977966
0.57394862 0.1226913 0.042969935
0.57355559 0.12218666 0.042961899
0.57316256 0.12168203 0.042953867
0.57276952 0.12117739 0.042945836
0.57237649 0.12067275 0.0429378
0.5719834 0.12016811 0.042929769
0.57159036 0.11966348 0.042921737
0.57119733 0.11915884 0.042913701
0.5708043 0.11865421 0.04290567
0.57041126 0.11814957 0.042897638
0.57001823 0.11764494 0.042889602
0.5696252 0.1171403 0.042881571
0.56923211 0.11663567 0.042873539
0.56883907 0.11613103 0.042865507
0.56844604 0.11562639 0.042857472
0.56805301 0.11512176 0.04284944
0.56765997 0.11461712 0.042841408
0.56726694 0.11411249 0.042833373
0.56687391 0.11360785 0.042825341
0.56648082 0.11310322 0.042817309
0.56608778 0.11259858 0.042809274
0.56569475 0.11209395 0.042801242
0.56530172 0.11158931 0.042793211
0.56490868 0.11108468 0.042785175
0.56451565 0.11058004 0.042777143
0.56412262 0.11007541 0.042769112
0.56297821 0.1101036 0.043151539
0.56258583 0.10959982 0.043143518
0.56219345 0.10909604 0.043135501
0.56180108 0.10859225 0.043127481
0.56140864 0.10808846 0.04311946
0.56026828 0.10812173 0.043501951
0.55987656 0.1076188 0.043493945
0.55873817 0.10765462 0.043876473
0.55834711 0.10715254 0.043868478
0.55721068 0.10719091 0.044251047
0.55682033 0.10668968 0.044243068
0.55642992 0.10618845 0.044235092
0.55529612 0.10623026 0.044617735
0.55416369 0.10627374 0.045000385
0.55303258 0.10631892 0.045383062
0.55264413 0.10582025 0.045375124
0.55151504 0.10586798 0.045757841
0.55112731 0.10537015 0.045749918
0.55000019 0.10542044 0.046132676
0.54887432 0.10547246 0.046515483
0.54774982 0.10552616 0.046898294
0.54588926 0.10613222 0.047671858
0.54255784 0.10784476 0.049226969
0.53885257 0.10907733 0.050774444
0.53700393 0.10969872 0.05154825
0.53515792 0.11032353 0.052322134
0.53258109 0.11150753 0.053486876
0.53220665 0.11102673 0.053479221
0.53110003 0.11110339 0.0538624
0.52999479 0.11118177 0.054245606
0.52889085 0.11126184 0.054628838
0.52851832 0.11078358 0.054621223
0.52887529 0.10974444 0.054222725
0.56615365 0.15348239 0.053203262
0.56656927 0.15251924 0.052804966
0.56619346 0.15203674 0.052797288
0.56660712 0.15107104 0.05239895
0.56780827 0.14961958 0.051609892
0.56821859 0.14864963 0.051211491
0.5686276 0.14767797 0.05081306
0.56982213 0.14621803 0.050023891
0.57180017 0.14426722 0.04884392
0.57220322 0.1432879 0.04844537
0.57260495 0.14230685 0.048046768
0.57300538 0.14132415 0.047648158
0.57340443 0.14033973 0.047249522
0.57380217 0.13935362 0.046850864
0.5741986 0.13836579 0.046452176
0.57381219 0.13786966 0.046444278
0.57420665 0.13687927 0.046045527
0.57381958 0.13638228 0.046037614
0.57421201 0.13538936 0.045638844
0.57382429 0.13489152 0.045630921
0.57421476 0.13389605 0.04523211
0.57382631 0.13339737 0.045224171
0.57421482 0.13239934 0.044825319
0.57460195 0.1313996 0.044426441
0.57421219 0.13089922 0.044418477
0.57459742 0.12989689 0.044019535
0.57498121 0.12889291 0.043620586
0.57459021 0.12839083 0.043612596
0.57497203 0.12738429 0.04321361
0.57458031 0.12688136 0.043205604
0.57496017 0.12587227 0.042806577
0.57533872 0.12486143 0.042407498
0.57494569 0.1243568 0.042399466
0.57455266 0.12385216 0.042391434
0.57415962 0.12334753 0.042383399
0.57376653 0.12284289 0.042375367
0.5733735 0.12233826 0.042367335
0.57298046 0.12183362 0.0423593
0.57258743 0.12132899 0.042351268
0.5721944 0.12082435 0.042343237
0.57180136 0.12031971 0.042335201
0.57140833 0.11981507 0.042327169
0.57101524 0.11931044 0.042319138
0.57062221 0.1188058 0.042311102
0.57022917 0.11830117 0.04230307
0.56983614 0.11779653 0.042295039
0.56944311 0.1172919 0.042287003
0.56905007 0.11678726 0.042278972
0.56865704 0.11628263 0.04227094
0.56826395 0.11577799 0.042262908
0.56787091 0.11527336 0.042254873
0.56747788 0.11476872 0.042246841
0.56708485 0.11426409 0.042238809
0.56669182 0.11375945 0.042230774
0.56629878 0.11325482 0.042222742
0.56590575 0.11275018 0.04221471
0.56551266 0.11224554 0.042206675
0.56511962 0.11174091 0.042198643
0.56472659 0.11123627 0.042190611
0.56433356 0.11073164 0.042182576
0.56394053 0.110227 0.042174544
0.56279641 0.11025494 0.042557977
0.56240404 0.10975116 0.042549957
0.56201166 0.10924738 0.042541936
0.56161928 0.10874359 0.042533919
0.5612269 0.10823981 0.042525899
0.56008685 0.10827282 0.042909387
0.55969512 0.10776988 0.042901382
0.55855703 0.10780545 0.043284912
0.55816597 0.10730337 0.043276921
0.55702984 0.10734148 0.043660492
0.55663943 0.10684025 0.043652512
0.55624908 0.10633902 0.043644536
0.55511558 0.10638058 0.044028182
0.55398345 0.1064238 0.044411834
0.55285263 0.10646873 0.044795513
0.55246425 0.10597005 0.044787575
0.55133539 0.10601753 0.045171298
0.55094767 0.1055197 0.045163371
0.54982084 0.10556974 0.045547131
0.54869533 0.1056215 0.045930944
0.54757112 0.10567494 0.046314757
0.54571116 0.10628049 0.047090326
0.53573644 0.11143547 0.05176802
0.53058076 0.11379678 0.054103419
0.53094137 0.11276301 0.053703997
0.53056824 0.1122839 0.053696372
0.52946329 0.11236202 0.054080579
0.52835965 0.11244183 0.054464813
0.52798784 0.11196443 0.054457214
0.52834576 0.11092725 0.05405774
0.52797329 0.110449 0.054050125
0.56518865 0.1541075 0.05302741
0.56560469 0.15314542 0.052628104
0.56522954 0.15266377 0.052620433
0.56564355 0.15169917 0.052221108
0.5668447 0.15024911 0.051430084
0.56725544 0.14928024 0.051030669
0.56766486 0.14830969 0.050631247
0.5688594 0.14685111 0.049840089
0.57083714 0.1449019 0.048657127
0.57202572 0.14343567 0.047865842
0.57242721 0.14245488 0.047466237
0.57282728 0.14147241 0.047066629
0.57322603 0.14048825 0.046666991
0.57362348 0.13950239 0.046267327
0.57401961 0.13851483 0.045867633
0.57363319 0.1380187 0.045859735
0.57402736 0.13702856 0.045459982
0.57364029 0.13653158 0.045452073
0.57403243 0.13553891 0.045052297
0.57364464 0.13504107 0.045044374
0.57403481 0.13404585 0.044644561
0.57364643 0.13354717 0.044636622
0.57403457 0.13254941 0.044236768
0.57442141 0.13154992 0.043836888
0.57403165 0.13104954 0.043828923
0.57441658 0.13004747 0.04342898
0.57480007 0.12904374 0.043029029
0.57440901 0.12854166 0.043021038
0.57479054 0.12753537 0.04262105
0.57439882 0.12703244 0.042613044
0.57477838 0.12602361 0.042213012
0.57515663 0.12501302 0.041812934
0.5747636 0.1245084 0.041804899
0.57437056 0.12400376 0.041796867
0.57397753 0.12349913 0.041788835
0.5735845 0.12299449 0.041780803
0.57319146 0.12248985 0.041772768
0.57279837 0.12198522 0.041764736
0.57240534 0.12148058 0.041756704
0.57201231 0.12097595 0.041748669
0.57161927 0.12047131 0.041740637
0.57122624 0.11996667 0.041732606
0.57083321 0.11946204 0.04172457
0.57044017 0.1189574 0.041716538
0.57004708 0.11845277 0.041708507
0.56965405 0.11794813 0.041700471
0.56926101 0.11744349 0.041692439
0.56886798 0.11693886 0.041684408
0.56847495 0.11643422 0.041676372
0.56808192 0.11592959 0.041668341
0.56768888 0.11542495 0.041660309
0.56729579 0.11492032 0.041652273
0.56690276 0.11441568 0.041644242
0.56650972 0.11391105 0.04163621
0.56611669 0.11340641 0.041628178
0.56572366 0.11290178 0.041620143
0.56533062 0.11239714 0.041612111
0.56493759 0.11189251 0.041604079
0.5645445 0.11138787 0.041596044
0.56415147 0.11088324 0.041588012
0.56375843 0.1103786 0.04157998
0.56261462 0.11040629 0.041964412
0.56222224 0.1099025 0.041956395
0.56182986 0.10939872 0.041948374
0.56143749 0.10889493 0.041940354
0.56104511 0.10839115 0.041932337
0.55990535 0.1084239 0.042316828
0.55951363 0.10792097 0.042308822
0.55837584 0.10795628 0.042693354
0.55798483 0.1074542 0.042685363
0.556849 0.10749206 0.043069936
0.55645859 0.10699083 0.043061957
0.55606824 0.1064896 0.043053981
0.55493504 0.1065309 0.043438628
0.55380321 0.10657386 0.043823283
0.55267274 0.10661854 0.044207968
0.5522843 0.10611986 0.044200029
0.55115581 0.10616709 0.044584751
0.55002862 0.10621601 0.044969503
0.54964155 0.10571903 0.04496159
0.54851633 0.10577054 0.045346405
0.54591751 0.10692234 0.046516653
0.52820772 0.11560372 0.054718345
0.5293029 0.11401746 0.053925131
0.52893108 0.11354006 0.053917531
0.52782768 0.11361966 0.054302789
0.52745652 0.1131431 0.054295205
0.52708536 0.11266655 0.05428762
0.52671421 0.11218999 0.054280035
0.52707189 0.11115304 0.053879533
0.5646407 0.15377112 0.052453261
0.56347668 0.15377215 0.052838258
0.56389171 0.15280952 0.052437954
0.56430548 0.15184514 0.052037604
0.56550539 0.15039474 0.051244561
0.5674895 0.14845566 0.050058741
0.56789726 0.14748366 0.049658291
0.56987476 0.14553608 0.048472334
0.5710634 0.14407121 0.047679059
0.57224941 0.14260289 0.046885706
0.57264918 0.1416207 0.046485096
0.57304764 0.14063679 0.046084456
0.57344478 0.13965118 0.04568379
0.57384062 0.13866387 0.045283094
0.5734542 0.13816774 0.045275196
0.57384801 0.13717785 0.044874441
0.57346094 0.13668087 0.044866528
0.57385278 0.13568845 0.044465754
0.57346505 0.13519064 0.04445783
0.57385486 0.13419567 0.044057012
0.57346648 0.13369699 0.044049077
0.57385433 0.13269946 0.043648221
0.57424086 0.13170023 0.043247335
0.57385111 0.13119987 0.04323937
0.57423574 0.13019805 0.042838424
0.57461894 0.12919457 0.042437471
0.57422787 0.12869249 0.042429481
0.5746091 0.12768646 0.042028487
0.57421738 0.12718353 0.042020481
0.57459664 0.12617494 0.04161945
0.5749746 0.12516463 0.041218366
0.5745815 0.12465999 0.041210335
0.57418847 0.12415536 0.041202303
0.57379544 0.12365072 0.041194268
0.5734024 0.12314609 0.041186236
0.57300937 0.12264145 0.041178204
0.57261634 0.12213682 0.041170169
0.57222331 0.12163218 0.041162137
0.57183021 0.12112755 0.041154105
0.57143718 0.1206229 0.041146073
0.57104415 0.12011827 0.041138038
0.57065111 0.11961363 0.041130006
0.57025808 0.119109 0.041121975
0.56986505 0.11860436 0.041113939
0.56947201 0.11809973 0.041105907
0.56907892 0.11759509 0.041097876
0.56868589 0.11709046 0.04108984
0.56829286 0.11658582 0.041081809
0.56789982 0.11608119 0.041073777
0.56750679 0.11557655 0.041065741
0.56711376 0.11507192 0.04105771
0.56672072 0.11456728 0.041049678
0.56632763 0.11406264 0.041041642
0.5659346 0.11355801 0.041033611
0.56554157 0.11305337 0.041025579
0.56514853 0.11254874 0.041017544
0.5647555 0.1120441 0.041009512
0.56436247 0.11153947 0.04100148
0.56396943 0.11103483 0.040993448
0.56357634 0.1105302 0.040985413
0.56243289 0.11055763 0.04137085
0.56204051 0.11005384 0.04136283
0.56164813 0.10955006 0.041354813
0.56125575 0.10904627 0.041346792
0.56086338 0.10854249 0.041338772
0.55972391 0.10857499 0.041724268
0.55933219 0.10807206 0.041716263
0.5581947 0.10810711 0.042101797
0.55780363 0.10760503 0.042093806
0.55666816 0.10764264 0.042479381
0.55627775 0.10714141 0.042471405
0.5558874 0.10664017 0.042463426
0.5547545 0.10668122 0.042849075
0.55362296 0.10672393 0.043234736
0.5524928 0.10676835 0.043620419
0.55210441 0.10626967 0.04361248
0.55097622 0.10631663 0.043998208
0.54984933 0.10636531 0.044383958
0.54946226 0.10586833 0.044376049
0.54759949 0.10646778 0.04515557
0.5354048 0.11324335 0.051038153
0.52767277 0.11677564 0.054559227
0.52730292 0.11630078 0.054551668
0.52766562 0.11527093 0.054150298
0.52802694 0.11423936 0.053748898
0.52765578 0.11376281 0.053741314
0.52655405 0.11384382 0.054127581
0.52618355 0.11336812 0.054120008
0.52581304 0.11289242 0.054112434
0.52471399 0.11297683 0.054498758
0.52361631 0.11306294 0.054885104
0.56288749 0.15487699 0.052674044
0.56251431 0.15439789 0.052666418
0.56214118 0.15391879 0.052658793
0.56255591 0.15295641 0.052257489
0.56139487 0.15296057 0.052643538
0.56416798 0.15054154 0.051061071
0.56772161 0.1476299 0.049084779
0.56812775 0.14665645 0.048683301
0.57010168 0.14470623 0.047494281
0.57128769 0.14323932 0.046698961
0.57247114 0.14176896 0.045903563
0.57286924 0.14078532 0.045501921
0.57326609 0.13979997 0.045100253
0.57366157 0.13881291 0.044698555
0.57327515 0.13831678 0.044690657
0.57366872 0.13732715 0.0442889
0.57328165 0.13683017 0.044280987
0.57367319 0.13583802 0.043879211
0.5732854 0.13534018 0.043871287
0.57367498 0.13434547 0.043469466
0.57328653 0.13384679 0.043461528
0.57367408 0.13284953 0.043059669
0.57406032 0.13185056 0.042657781
0.57367063 0.13135017 0.042649817
0.5740549 0.13034862 0.042247869
0.5744378 0.1293454 0.041845914
0.57404673 0.12884332 0.041837923
0.57442766 0.12783754 0.041435927
0.57403594 0.12733461 0.041427922
0.57441485 0.12632629 0.041025888
0.5747925 0.12531622 0.040623803
0.57439947 0.12481159 0.040615767
0.57400644 0.12430695 0.040607736
0.57361335 0.12380232 0.040599704
0.57322031 0.12329768 0.040591668
0.57282728 0.12279305 0.040583637
0.57243425 0.12228841 0.040575605
0.57204121 0.12178378 0.040567569
0.57164818 0.12127914 0.040559538
0.57125515 0.1207745 0.040551506
0.57086205 0.12026986 0.040543474
0.57046902 0.11976523 0.040535439
0.57007599 0.11926059 0.040527407
0.56968296 0.11875596 0.040519375
0.56928992 0.11825132 0.04051134
0.56889689 0.11774669 0.040503308
0.56850386 0.11724205 0.040495276
0.56811076 0.11673742 0.040487241
0.56771773 0.11623278 0.040479209
0.5673247 0.11572815 0.040471178
0.56693166 0.11522351 0.040463142
0.56653863 0.11471888 0.04045511
0.5661456 0.11421424 0.040447079
0.56575257 0.11370961 0.040439043
0.56535947 0.11320497 0.040431011
0.56496644 0.11270034 0.04042298
0.56457341 0.1121957 0.040414944
0.56418037 0.11169107 0.040406913
0.56378734 0.11118643 0.040398881
0.56339431 0.11068179 0.040390849
0.56225109 0.11070897 0.040777288
0.56185871 0.11020518 0.040769268
0.56146634 0.1097014 0.040761247
0.56107396 0.10919762 0.04075323
0.56068158 0.10869383 0.04074521
0.55954242 0.10872608 0.041131709
0.5591507 0.10822315 0.041123703
0.55801356 0.10825794 0.041510239
0.55762249 0.10775586 0.041502248
0.55648732 0.10779321 0.041888826
0.55609691 0.10729198 0.04188085
0.55570656 0.10679075 0.04187287
0.55457395 0.10683154 0.042259526
0.55344278 0.106874 0.042646185
0.55231285 0.10691816 0.043032873
0.55192447 0.10641947 0.043024935
0.55079657 0.10646619 0.043411665
0.54893112 0.10706088 0.044193119
0.53413409 0.11497013 0.051266827
0.52640289 0.11849754 0.05479686
0.52603436 0.11802439 0.054789331
0.52713162 0.11644343 0.053992193
0.52676177 0.11596859 0.053984635
0.52712345 0.11493813 0.053582247
0.52602208 0.11501888 0.053969517
0.52565223 0.11454403 0.053961959
0.52528238 0.11406918 0.0539544
0.52491254 0.11359433 0.053946842
0.52381444 0.11367933 0.054334179
0.52271771 0.11376604 0.054721545
0.56155258 0.15502313 0.052496582
0.56118006 0.15454488 0.052488972
0.56080759 0.15406662 0.052481357
0.56043512 0.15358837 0.052473746
0.55927634 0.15359482 0.052860837
0.56716686 0.14728937 0.048503522
0.567572 0.14631532 0.048101027
0.57111025 0.14338708 0.046119433
0.57229304 0.14191724 0.045322035
0.57269084 0.14093384 0.044919387
0.57308739 0.13994876 0.044516716
0.57348257 0.13896196 0.044114016
0.57309616 0.13846582 0.044106118
0.57348943 0.13747644 0.043703359
0.57310236 0.13697946 0.043695446
0.57349354 0.13598756 0.043292664
0.57310581 0.13548973 0.04328474
0.57349503 0.13449527 0.042881917
0.57310665 0.13399661 0.042873979
0.5734939 0.13299958 0.042471122
0.57387978 0.13200088 0.042068228
0.57349008 0.1315005 0.042060263
0.573874 0.1304992 0.041657314
0.5742566 0.12949623 0.041254357
0.57386559 0.12899415 0.041246366
0.57424617 0.12798864 0.040843368
0.57385445 0.12748569 0.040835362
0.57423311 0.12647763 0.040432323
0.57461041 0.12546782 0.040029235
0.57421738 0.12496319 0.040021203
0.57382435 0.12445855 0.040013168
0.57343131 0.12395392 0.040005136
0.57303828 0.12344928 0.039997105
0.57264519 0.12294465 0.039989069
0.57225215 0.12244001 0.039981037
0.57185912 0.12193538 0.039973006
0.57146609 0.12143074 0.039964974
0.57107306 0.1209261 0.039956938
0.57068002 0.12042146 0.039948907
0.57028699 0.11991683 0.039940875
0.5698939 0.11941219 0.03993284
0.56950086 0.11890756 0.039924808
0.56910783 0.11840292 0.039916776
0.5687148 0.11789829 0.039908741
0.56832176 0.11739365 0.039900709
0.56792873 0.11688901 0.039892677
0.5675357 0.11638438 0.039884642
0.56714261 0.11587974 0.03987661
0.56674957 0.11537511 0.039868578
0.56635654 0.11487047 0.039860543
0.56596351 0.11436584 0.039852511
0.56557047 0.1138612 0.039844479
0.56517744 0.11335657 0.039836444
0.56478441 0.11285193 0.039828412
0.56439137 0.1123473 0.039820381
0.56399828 0.11184266 0.039812345
0.56360525 0.11133803 0.039804313
0.56321222 0.11083339 0.039796282
0.56206936 0.11086031 0.040183723
0.56167698 0.11035652 0.040175706
0.5612846 0.10985274 0.040167686
0.56089222 0.10934896 0.040159665
0.56049985 0.10884517 0.040151644
0.55936098 0.10887717 0.040539145
0.55896926 0.10837423 0.04053114
0.55783242 0.10840877 0.040918682
0.55744135 0.10790669 0.040910691
0.55630648 0.10794379 0.04129827
0.55591607 0.10744256 0.041290291
0.55552566 0.10694132 0.041282315
0.55439341 0.10698186 0.041669972
0.55326253 0.10702406 0.042057637
0.55213296 0.10706796 0.042445324
0.55174452 0.10656928 0.042437386
0.55061698 0.10661574 0.042825118
0.53433508 0.11559539 0.050707992
0.52513158 0.12021504 0.055038475
0.52623218 0.11863967 0.054239392
0.52586365 0.11816652 0.05423186
0.52622771 0.11713973 0.053828526
0.52585852 0.11666573 0.053820979
0.52548933 0.11619173 0.053813435
0.52512014 0.11571773 0.053805891
0.52475101 0.11524373 0.053798344
0.52438182 0.11476973 0.0537908
0.52401263 0.11429573 0.053783253
0.52291554 0.11438134 0.054171607
0.52254701 0.11390819 0.054164074
0.52217847 0.11343504 0.054156546
0.55975521 0.15756141 0.053135235
0.5593847 0.1570857 0.053127661
0.56021959 0.15517046 0.052321155
0.55984777 0.15469305 0.052313555
0.5586893 0.15469928 0.052701674
0.55831814 0.15422273 0.05269409
0.55716169 0.15423149 0.053082228
0.56347626 0.1488969 0.049505286
0.57093275 0.14353484 0.045539908
0.57211494 0.14206551 0.044740502
0.57251251 0.14108238 0.044336855
0.5729087 0.14009754 0.043933179
0.57330358 0.139111 0.043529477
0.57291716 0.13861486 0.043521579
0.57331008 0.13762574 0.043117814
0.572923 0.13712876 0.043109905
0.57331395 0.13613711 0.042706121
0.57292622 0.13563928 0.042698197
0.57331514 0.13464509 0.042294372
0.5729267 0.13414641 0.042286433
0.57331365 0.13314965 0.041882571
0.57369924 0.1321512 0.041478679
0.57330954 0.13165082 0.041470714
0.57369316 0.13064978 0.041066758
0.57407546 0.12964706 0.040662799
0.57368439 0.12914498 0.040654808
0.57406473 0.12813972 0.040250808
0.57367301 0.12763679 0.040242802
0.57405132 0.12662897 0.039838761
0.57442832 0.12561941 0.039434671
0.57403529 0.12511478 0.03942664
0.57364225 0.12461015 0.039418604
0.57324922 0.12410551 0.039410572
0.57285619 0.12360088 0.039402541
0.57246315 0.12309624 0.039394505
0.57207012 0.12259161 0.039386474
0.57167709 0.12208697 0.039378442
0.571284 0.12158234 0.039370406
0.57089096 0.12107769 0.039362375
0.57049793 0.12057306 0.039354343
0.5701049 0.12006842 0.039346308
0.56971186 0.11956379 0.039338276
0.56931883 0.11905915 0.039330244
0.5689258 0.11855452 0.039322209
0.56853271 0.11804988 0.039314177
0.56813967 0.11754525 0.039306145
0.56774664 0.11704061 0.03929811
0.56735361 0.11653598 0.039290078
0.56696057 0.11603134 0.039282046
0.56656754 0.11552671 0.039274011
0.56617451 0.11502207 0.039265979
0.56578141 0.11451744 0.039257947
0.56538838 0.1140128 0.039249916
0.56499535 0.11350816 0.03924188
0.56460232 0.11300353 0.039233848
0.56420928 0.11249889 0.039225817
0.56381625 0.11199426 0.039217781
0.56342322 0.11148962 0.03920975
0.56303012 0.11098499 0.039201718
0.56188756 0.11101165 0.039590161
0.56149518 0.11050787 0.039582141
0.56110281 0.11000408 0.039574124
0.56071043 0.1095003 0.039566103
0.56031805 0.10899651 0.039558083
0.55917954 0.10902825 0.039946586
0.55878782 0.10852531 0.03993858
0.55765122 0.1085596 0.040327124
0.55726022 0.10805752 0.04031913
0.55612564 0.10809436 0.040707715
0.55573523 0.10759313 0.040699739
0.55534482 0.1070919 0.040691759
0.54674292 0.10948972 0.044221953
0.52569586 0.12129956 0.054498021
0.52532864 0.12082811 0.054490518
0.52496147 0.12035666 0.054483011
0.52532786 0.11933354 0.054078728
0.52569294 0.11830866 0.053674392
0.52532446 0.11783551 0.05366686
0.52495593 0.11736237 0.053659331
0.52458739 0.11688922 0.053651799
0.52421886 0.11641607 0.053644266
0.52385038 0.11594292 0.053636733
0.52348185 0.11546977 0.053629205
0.52311331 0.11499662 0.053621672
0.52274483 0.11452347 0.05361414
0.5216493 0.11461055 0.054003544
0.52128142 0.11413825 0.053996027
0.56936538 0.15533432 0.048646942
0.568196 0.1553258 0.04903581
0.56702793 0.15531899 0.049424708
0.56586123 0.15531388 0.049813632
0.56311524 0.15626699 0.050995838
0.56037319 0.15722521 0.052178126
0.56000203 0.15674865 0.052170541
0.5588426 0.1567529 0.052559614
0.55925971 0.15579556 0.052155368
0.55888849 0.15531901 0.052147783
0.55773103 0.1553258 0.052536897
0.55657494 0.15533431 0.052926034
0.55620509 0.15485945 0.052918475
0.55583525 0.1543846 0.052910917
0.55781639 0.15244944 0.051713079
0.5707553 0.14368261 0.04496038
0.57193685 0.14221379 0.044158969
0.57233411 0.1412309 0.043754321
0.57273 0.14024632 0.043349642
0.57312459 0.13926004 0.042944938
0.57273817 0.1387639 0.04293704
0.57313079 0.13777503 0.042532273
0.57274371 0.13727807 0.042524364
0.5731343 0.13628666 0.042119574
0.57274657 0.13578884 0.04211165
0.5731352 0.13479489 0.041706827
0.57274681 0.13429621 0.041698888
0.57313341 0.13329972 0.04129402
0.57351869 0.13230151 0.040889125
0.573129 0.13180114 0.040881161
0.57351232 0.13080035 0.040476203
0.57389432 0.12979789 0.040071242
0.57350326 0.12929581 0.040063247
0.57388324 0.1282908 0.039658245
0.57349151 0.12778787 0.039650239
0.57386953 0.12678032 0.039245199
0.57424629 0.12577102 0.038840104
0.57385325 0.12526637 0.038832072
0.57346022 0.12476175 0.03882404
0.57306713 0.12425711 0.038816005
0.5726741 0.12375247 0.038807973
0.57228106 0.12324784 0.038799942
0.57188803 0.1227432 0.038791906
0.571495 0.12223857 0.038783874
0.57110196 0.12173393 0.038775843
0.57070893 0.1212293 0.038767807
0.57031584 0.12072466 0.038759775
0.5699228 0.12022003 0.038751744
0.56952977 0.11971539 0.038743708
0.56913674 0.11921076 0.038735677
0.56874371 0.11870612 0.038727645
0.56835067 0.11820149 0.038719609
0.56795764 0.11769684 0.038711578
0.56756455 0.11719221 0.038703546
0.56717151 0.11668757 0.03869551
0.56677848 0.11618294 0.038687479
0.56638545 0.1156783 0.038679447
0.56599241 0.11517367 0.038671415
0.56559938 0.11466903 0.03866338
0.56520635 0.1141644 0.038655348
0.56481326 0.11365976 0.038647316
0.56442022 0.11315513 0.038639281
0.56402719 0.11265049 0.038631249
0.56363416 0.11214586 0.038623217
0.56324112 0.11164122 0.038615182
0.56284809 0.11113659 0.03860715
0.56170583 0.111163 0.0389966
0.56131345 0.11065921 0.038988579
0.56092107 0.11015543 0.038980559
0.5605287 0.10965164 0.038972538
0.56013632 0.10914785 0.038964521
0.55899805 0.10917933 0.039354026
0.55860633 0.1086764 0.039346021
0.55747008 0.10871043 0.039735567
