# .PCD v0.7 - Point Cloud Data file format
VERSION 0.7
FIELDS x y z
SIZE 4 4 4
TYPE F F F
COUNT 1 1 1
WIDTH 1363
HEIGHT 1
VIEWPOINT 0 0 0 1 0 0 0
POINTS 1363
DATA ascii
0.51494777 -0.078313231 0.047252484
0.51524979 -0.077331975 0.047268264
0.51555181 -0.076350711 0.047284044
0.51585388 -0.075369455 0.047299825
0.51527488 -0.074066512 0.046940044
0.51557726 -0.07308422 0.046955843
0.51587957 -0.072101928 0.046971641
0.51530188 -0.070794858 0.04661192
0.51560456 -0.06981153 0.046627734
0.51502782 -0.068501353 0.046268076
0.51533085 -0.06751699 0.046283904
0.51563382 -0.066532634 0.046299737
0.50730014 -0.14541025 0.050140556
0.50759804 -0.14444244 0.050156124
0.50789595 -0.14347462 0.050171688
0.50819379 -0.14250681 0.050187252
0.50849169 -0.14153898 0.050202817
0.5087896 -0.14057116 0.050218381
0.5090875 -0.13960335 0.050233945
0.50938541 -0.13863553 0.050249513
0.51058346 -0.13792625 0.050642706
0.51178092 -0.13721904 0.051035877
0.51207817 -0.1362533 0.051051408
0.51327461 -0.13554919 0.051444523
0.51447046 -0.13484713 0.051837601
0.51476705 -0.13388346 0.051853098
0.5150637 -0.13291977 0.051868599
0.51625824 -0.13222186 0.052261595
0.51655453 -0.13125922 0.052277077
0.51685089 -0.13029657 0.052292559
0.51714718 -0.12933391 0.052308042
0.51834011 -0.12864119 0.05270097
0.51863611 -0.12767957 0.052716434
0.5189321 -0.12671795 0.052731901
0.51833236 -0.12548332 0.052369967
0.51862872 -0.12452067 0.052385449
0.51982003 -0.1238331 0.052778296
0.52011603 -0.1228715 0.05279376
0.5195176 -0.12163273 0.052431893
0.5198139 -0.12067008 0.052447375
0.52011025 -0.11970744 0.052462857
0.52040654 -0.11874478 0.05247834
0.52070284 -0.11778214 0.052493822
0.52099913 -0.11681949 0.052509304
0.52040291 -0.11557349 0.052147567
0.52069956 -0.11460981 0.052163064
0.52099615 -0.11364612 0.052178565
0.51950967 -0.11210953 0.051439699
0.51980692 -0.11114378 0.05145523
0.52010423 -0.11017803 0.051470764
0.52040148 -0.10921228 0.051486295
0.52069873 -0.10824653 0.051501825
0.52099597 -0.10728078 0.051517356
0.52129322 -0.10631502 0.051532891
0.52159053 -0.10534928 0.051548421
0.52188778 -0.10438353 0.051563952
0.52218503 -0.10341778 0.051579483
0.52248228 -0.10245202 0.051595014
0.52189142 -0.10118843 0.051233541
0.52218902 -0.10022165 0.051249087
0.52159917 -0.098954968 0.05088767
0.52100998 -0.097686216 0.050526287
0.52042139 -0.096415401 0.050164938
0.51983339 -0.095142499 0.049803611
0.5192461 -0.093867548 0.049442329
0.51865947 -0.092590526 0.049081076
0.51807344 -0.09131144 0.048719864
0.51837325 -0.090337418 0.048735529
0.51778817 -0.089055225 0.048374362
0.51720369 -0.087770954 0.048013214
0.51661992 -0.086484626 0.047652118
0.51603675 -0.085196227 0.047291052
0.51545423 -0.083905771 0.046930015
0.51575559 -0.082926579 0.046945762
0.51605701 -0.081947386 0.046961512
0.51547569 -0.080652766 0.046600536
0.51577741 -0.079672545 0.046616301
0.51607913 -0.078692317 0.046632063
0.51638085 -0.077712089 0.046647828
0.51580119 -0.07641232 0.046286944
0.51610321 -0.075431064 0.046302725
0.51640528 -0.0744498 0.046318505
0.51582688 -0.073145896 0.045957696
0.51612926 -0.072163597 0.045973491
0.51555181 -0.070856594 0.045612715
0.51497501 -0.069547519 0.045251988
0.51527798 -0.068563156 0.04526782
0.51558101 -0.067578793 0.045283649
0.51588398 -0.066594437 0.045299482
0.51618695 -0.065610074 0.04531531
0.50754607 -0.14547102 0.049157109
0.50784397 -0.14450321 0.049172673
0.50814188 -0.14353539 0.049188238
0.50843978 -0.14256756 0.049203806
0.50873768 -0.14159974 0.04921937
0.50903559 -0.14063193 0.049234934
0.50933349 -0.13966411 0.049250498
0.5096314 -0.13869628 0.049266063
0.51082915 -0.13798694 0.049660314
0.51202637 -0.13727969 0.050054532
0.51232362 -0.13631393 0.050070062
0.51351982 -0.13560976 0.050464228
0.51471537 -0.13490765 0.050858356
0.51501197 -0.13394396 0.050873853
0.51620656 -0.13324496 0.051267929
0.51650292 -0.1322823 0.051283412
0.51769656 -0.1315864 0.051677436
0.51799256 -0.13062479 0.051692903
0.51828849 -0.12966317 0.051708367
0.51858449 -0.12870155 0.051723834
0.51888049 -0.12773994 0.051739298
0.51917648 -0.12677832 0.051754761
0.51947248 -0.12581672 0.051770229
0.51976848 -0.12485509 0.051785693
0.52006441 -0.12389348 0.051801156
0.52036041 -0.12293187 0.051816624
0.52065641 -0.12197025 0.051832087
0.5209524 -0.12100863 0.051847555
0.5212484 -0.12004703 0.051863018
0.5215444 -0.11908541 0.051878482
0.52184033 -0.11812379 0.05189395
0.52213633 -0.11716218 0.051909413
0.52154011 -0.11591728 0.0515466
0.5218364 -0.11495463 0.051562082
0.52213269 -0.11399198 0.051577564
0.52153772 -0.11274295 0.051214818
0.52183431 -0.11177926 0.051230315
0.52213097 -0.11081558 0.051245812
0.52242756 -0.1098519 0.051261313
0.52183419 -0.10859769 0.050898649
0.52213115 -0.10763297 0.050914165
0.5224281 -0.10666826 0.050929677
0.52272499 -0.10570354 0.050945193
0.52302194 -0.10473882 0.050960708
0.52331889 -0.10377411 0.050976224
0.52361584 -0.10280939 0.050991736
0.52302498 -0.10154691 0.050629199
0.52243471 -0.10028234 0.050266694
0.52184516 -0.099015728 0.049904224
0.52125621 -0.097747043 0.049541794
0.52066791 -0.096476294 0.049179386
0.52008015 -0.095203459 0.048817016
0.5194931 -0.093928568 0.048454676
0.51979232 -0.092956617 0.048470307
0.51920623 -0.091678627 0.048108026
0.51862079 -0.090398565 0.047745787
0.51803601 -0.089116447 0.047383558
0.51745176 -0.087832235 0.047021359
0.51686823 -0.086545974 0.046659213
0.5162853 -0.085257642 0.046297096
0.51570308 -0.083967246 0.045935016
0.51600444 -0.082988054 0.045950763
0.51630586 -0.082008861 0.04596651
0.51572484 -0.080714308 0.045604482
0.51602656 -0.079734087 0.045620244
0.51632828 -0.078753859 0.045636009
0.51662999 -0.077773631 0.045651775
0.51693171 -0.076793402 0.04566754
0.51635259 -0.075492673 0.045305625
0.51665467 -0.074511409 0.045321405
0.51607651 -0.073207565 0.044959538
0.51549906 -0.071901664 0.044597693
0.51580173 -0.070918329 0.044613507
0.51522517 -0.069609322 0.044251736
0.51552814 -0.068624958 0.044267569
0.51583117 -0.067640595 0.044283401
0.51613414 -0.066656239 0.04429923
0.51643711 -0.065671876 0.044315062
0.50779206 -0.14553179 0.04817367
0.50808996 -0.14456396 0.048189234
0.50838786 -0.14359614 0.048204798
0.50868577 -0.14262833 0.048220363
0.50898361 -0.14166051 0.048235927
0.50928152 -0.1406927 0.048251495
0.50957942 -0.13972487 0.048267059
0.50987732 -0.13875705 0.048282623
0.51107484 -0.13804764 0.048677921
0.51227176 -0.13734032 0.049073189
0.51256907 -0.13637456 0.049088724
0.51376498 -0.13567032 0.049483936
0.51496029 -0.13496815 0.049879115
0.51525688 -0.13400446 0.049894616
0.51645124 -0.1333054 0.050289739
0.51764494 -0.13260838 0.050684836
0.51794094 -0.13164677 0.050700299
0.51823694 -0.13068517 0.050715763
0.51853287 -0.12972355 0.050731231
0.51882887 -0.12876193 0.050746694
0.51912487 -0.12780032 0.050762162
0.51942086 -0.1268387 0.050777625
0.51971686 -0.12587708 0.050793089
0.52001286 -0.12491547 0.050808556
0.52030885 -0.12395386 0.05082402
0.52060479 -0.12299224 0.050839484
0.52090079 -0.12203063 0.050854951
0.52119678 -0.12106901 0.050870415
0.52149278 -0.1201074 0.050885882
0.52178878 -0.11914578 0.050901346
0.52208477 -0.11818417 0.05091681
0.52238071 -0.11722255 0.050932277
0.52267671 -0.11626094 0.050947741
0.5229727 -0.11529932 0.050963208
0.5232687 -0.11433771 0.050978672
0.52267367 -0.11308977 0.050614852
0.52296996 -0.11212713 0.050630335
0.52326626 -0.11116447 0.050645817
0.52356255 -0.11020183 0.050661299
0.52385885 -0.10923918 0.050676782
0.52326572 -0.10798503 0.05031307
0.52356237 -0.10702135 0.050328568
0.52385896 -0.10605767 0.050344065
0.52415562 -0.10509399 0.050359566
0.52356404 -0.10383467 0.049995929
0.52386099 -0.10286996 0.050011445
0.52327043 -0.10160755 0.04964786
0.5226804 -0.10034304 0.049284302
0.52209109 -0.099076495 0.048920784
0.52150244 -0.097807877 0.048557296
0.52091438 -0.096537188 0.048193846
0.52032691 -0.09526442 0.04783041
0.51974016 -0.093989596 0.047467027
0.52003932 -0.093017638 0.047482658
0.51945353 -0.091739714 0.047119323
0.51886833 -0.090459719 0.046756037
0.51828378 -0.089177661 0.046392765
0.51769984 -0.087893516 0.046029516
0.51711655 -0.086607322 0.045666315
0.51653391 -0.085319057 0.045303144
0.51683497 -0.0843409 0.045318875
0.51625329 -0.083049528 0.044955757
0.51655471 -0.082070343 0.044971503
0.51597393 -0.08077585 0.044608433
0.51627564 -0.079795629 0.044624198
0.51657736 -0.078815401 0.044639964
0.51687908 -0.077835172 0.044655725
0.5171808 -0.076854944 0.044671491
0.51748252 -0.075874716 0.044687256
0.516904 -0.074573018 0.044324301
0.51632619 -0.073269241 0.043961383
0.51574892 -0.0719634 0.043598495
0.51605159 -0.070980065 0.043614309
0.51635426 -0.069996737 0.043630127
0.51577836 -0.068686761 0.043267306
0.51608133 -0.067702398 0.043283135
0.5163843 -0.066718042 0.043298967
0.51668733 -0.065733679 0.0433148
0.5169903 -0.064749315 0.043330628
0.50803798 -0.14559254 0.047190227
0.50833589 -0.14462472 0.047205795
0.50863379 -0.14365691 0.047221359
0.5089317 -0.14268909 0.047236923
0.5092296 -0.14172128 0.047252487
0.5095275 -0.14075346 0.047268052
0.50982541 -0.13978563 0.047283616
0.51012331 -0.13881782 0.047299184
0.51132053 -0.13810834 0.047695518
0.51251721 -0.13740095 0.048091851
0.51281446 -0.1364352 0.048107382
0.51401013 -0.13573089 0.048503637
0.5152052 -0.13502865 0.04889987
0.5155018 -0.13406497 0.048915368
0.51669586 -0.13336584 0.049311537
0.51788932 -0.13266876 0.049707688
0.51818532 -0.13170715 0.049723156
0.51848131 -0.13074553 0.049738619
0.51877731 -0.12978391 0.049754087
0.51907325 -0.1288223 0.049769551
0.51936924 -0.1278607 0.049785014
0.51966524 -0.12689908 0.049800482
0.51996124 -0.12593746 0.049815945
0.52025723 -0.12497585 0.049831409
0.52055323 -0.12401423 0.049846876
0.52084917 -0.12305262 0.04986234
0.52114516 -0.122091 0.049877807
0.52144116 -0.12112939 0.049893271
0.52173716 -0.12016777 0.049908735
0.52203315 -0.11920616 0.049924202
0.52232915 -0.11824454 0.049939666
0.52262515 -0.11728293 0.04995513
0.52292109 -0.11632132 0.049970597
0.52321708 -0.1153597 0.049986061
0.52351308 -0.11439808 0.050001528
0.52291828 -0.11315021 0.049636655
0.52321458 -0.11218756 0.049652137
0.52351093 -0.11122491 0.049667619
0.52380723 -0.11026227 0.049683101
0.52410352 -0.10929962 0.04969858
0.52439982 -0.10833697 0.049714062
0.52380729 -0.10708185 0.049349323
0.52410388 -0.10611817 0.04936482
0.52440053 -0.10515449 0.049380321
0.52380925 -0.10389525 0.04901563
0.5241062 -0.10293053 0.049031146
0.52351588 -0.10166818 0.048666522
0.52292609 -0.10040374 0.048301902
0.52233708 -0.099137254 0.047937341
0.52174866 -0.097868703 0.047572803
0.52116084 -0.096598081 0.047208298
0.52057368 -0.095325373 0.046843823
0.51998717 -0.094050616 0.046479385
0.52028632 -0.093078665 0.046495017
0.51970077 -0.091800801 0.046130627
0.51911587 -0.090520874 0.045766283
0.51853156 -0.089238882 0.045401961
0.51794791 -0.087954804 0.045037657
0.51736486 -0.08666867 0.044673413
0.51678252 -0.085380472 0.044309191
0.51708359 -0.084402315 0.044324923
0.51650214 -0.08311101 0.043960761
0.51680356 -0.082131818 0.043976512
0.51622307 -0.080837399 0.043612372
0.51652479 -0.079857171 0.043628138
0.51682651 -0.078876942 0.043643899
0.51712823 -0.077896714 0.043659665
0.51742995 -0.076916493 0.04367543
0.51773161 -0.075936265 0.043691196
0.51715338 -0.074634627 0.043327201
0.51657581 -0.073330909 0.042963229
0.51599884 -0.072025135 0.042599287
0.51630151 -0.071041808 0.042615101
0.51660419 -0.07005848 0.042630915
0.51602852 -0.068748564 0.042267054
0.51633149 -0.0677642 0.042282887
0.51663446 -0.066779844 0.042298719
0.51693749 -0.065795481 0.042314548
0.51724046 -0.064811118 0.042330381
0.51754344 -0.063826755 0.042346209
0.50738233 -0.14540331 0.045824815
0.50858188 -0.14468549 0.046222337
0.50887978 -0.14371768 0.046237901
0.50917768 -0.14274986 0.046253469
0.50947559 -0.14178203 0.046269033
0.50977343 -0.14081421 0.046284597
0.51007134 -0.1398464 0.046300162
0.51036924 -0.13887858 0.046315726
0.51156622 -0.13816904 0.046713132
0.51276267 -0.13746159 0.047110505
0.51305991 -0.13649583 0.047126036
0.51425534 -0.13579147 0.047523342
0.51545012 -0.13508916 0.047920633
0.51574671 -0.13412547 0.04793613
0.51694053 -0.13342628 0.048333354
0.5181337 -0.13272914 0.048730545
0.5184297 -0.13176753 0.048746008
0.51872569 -0.13080591 0.048761476
0.51902169 -0.12984429 0.04877694
0.51931769 -0.12888268 0.048792407
0.51961362 -0.12792106 0.048807871
0.51990962 -0.12695944 0.048823334
0.52020562 -0.12599784 0.048838802
0.52050161 -0.12503622 0.048854265
0.52079761 -0.12407461 0.048869733
0.52109361 -0.12311299 0.048885196
0.52138954 -0.12215137 0.04890066
0.52168554 -0.12118976 0.048916128
0.52198154 -0.12022815 0.048931591
0.52227753 -0.11926653 0.048947055
0.52257353 -0.11830492 0.048962522
0.52286953 -0.11734331 0.048977986
0.52316546 -0.11638169 0.048993453
0.52346146 -0.11542007 0.049008917
0.52375746 -0.11445846 0.049024381
0.52316296 -0.11321065 0.048658472
0.52345926 -0.112248 0.048673954
0.52375555 -0.11128535 0.048689432
0.52405185 -0.11032271 0.048704915
0.52434814 -0.10936005 0.048720397
0.52464449 -0.10839741 0.048735879
0.5240522 -0.10714236 0.048370086
0.5243488 -0.10617868 0.048385583
0.52464545 -0.105215 0.04840108
0.52405441 -0.10395581 0.048035339
0.52435136 -0.1029911 0.048050854
0.52376127 -0.10172881 0.047685172
0.52317178 -0.10046444 0.047319513
0.52258301 -0.099198021 0.046953887
0.52199489 -0.09792953 0.046588309
0.52140737 -0.096658975 0.046222746
0.52082044 -0.095386334 0.045857221
0.52023417 -0.094111644 0.04549174
0.52053332 -0.093139686 0.045507371
0.51994807 -0.091861889 0.045141928
0.5193634 -0.090582028 0.044776533
0.5187794 -0.089300103 0.044411171
0.51819593 -0.088016085 0.04404581
0.51761323 -0.086730018 0.043680515
0.51703107 -0.08544188 0.04331525
0.5173322 -0.084463723 0.043330982
0.51675105 -0.083172485 0.042965755
0.51705241 -0.082193293 0.042981502
0.51647216 -0.080898941 0.042616326
0.51677388 -0.079918712 0.042632088
0.5170756 -0.078938484 0.042647853
0.51737732 -0.077958256 0.042663619
0.51767904 -0.076978035 0.042679381
0.51798075 -0.075997807 0.042695146
0.51740277 -0.074696228 0.042330101
0.51682544 -0.073392585 0.041965071
0.51624876 -0.072086871 0.041600078
0.51655143 -0.071103543 0.041615892
0.51685411 -0.070120215 0.041631706
0.51715678 -0.069136888 0.04164752
0.51658165 -0.067826003 0.041282639
0.51688462 -0.066841647 0.041298468
0.51718765 -0.065857284 0.0413143
0.51749063 -0.064872921 0.041330129
0.5177936 -0.063888557 0.041345961
0.50672716 -0.1452142 0.044457305
0.50792676 -0.14449528 0.0448559
0.50822496 -0.14352643 0.044871483
0.50852317 -0.14255758 0.044887062
0.50882143 -0.14158873 0.044902645
0.51001942 -0.14087498 0.045301158
0.51031733 -0.13990717 0.045316722
0.51061523 -0.13893935 0.045332287
0.51181197 -0.13822974 0.045730732
0.51300812 -0.13752222 0.046129156
0.51330537 -0.13655646 0.04614469
0.5145005 -0.13585202 0.046543051
0.51569498 -0.13514966 0.046941392
0.51599163 -0.13418597 0.046956893
0.51718515 -0.13348672 0.047355156
0.51837808 -0.13278951 0.047753416
0.51867408 -0.13182789 0.04776888
0.51897007 -0.13086627 0.047784343
0.51926607 -0.12990467 0.047799811
0.51956207 -0.12894306 0.047815274
0.519858 -0.12798144 0.047830742
0.520154 -0.12701982 0.047846206
0.52045 -0.12605821 0.047861669
0.52074599 -0.12509659 0.047877137
0.52104199 -0.12413498 0.0478926
0.52133799 -0.12317336 0.047908068
0.52163392 -0.12221175 0.047923531
0.52192992 -0.12125014 0.047938995
0.52222592 -0.12028852 0.047954462
0.52252191 -0.1193269 0.047969926
0.52281791 -0.1183653 0.04798539
0.52311391 -0.11740368 0.048000857
0.5234099 -0.11644206 0.048016321
0.52370584 -0.11548045 0.048031788
0.52400184 -0.11451884 0.048047252
0.52340758 -0.11327109 0.04768027
0.52370387 -0.11230844 0.047695752
0.52400023 -0.11134579 0.047711235
0.52429652 -0.11038315 0.047726717
0.52459282 -0.10942049 0.047742199
0.52488911 -0.10845785 0.047757681
0.52429712 -0.10720287 0.047390845
0.52459371 -0.10623918 0.047406342
0.52489036 -0.1052755 0.047421843
0.52429956 -0.10401639 0.047055043
0.52459651 -0.10305166 0.047070559
0.52400672 -0.10178944 0.046703827
0.52341753 -0.10052514 0.046337113
0.522829 -0.099258788 0.045970447
0.52224112 -0.097990364 0.045603812
0.52165383 -0.096719868 0.045237213
0.52106714 -0.095447294 0.04487063
0.52048117 -0.094172664 0.044504084
0.52078032 -0.093200713 0.044519715
0.52019531 -0.091922984 0.044153232
0.51961094 -0.090643182 0.043786783
0.51902717 -0.089361317 0.043420363
0.518444 -0.088077366 0.043053966
0.51786155 -0.086791366 0.042687614
0.51727968 -0.085503295 0.042321298
0.51758075 -0.084525138 0.04233703
0.5169999 -0.083233967 0.041970748
0.51730126 -0.082254775 0.041986495
0.51672131 -0.080960482 0.041620277
0.51702303 -0.079980254 0.041636042
0.51732469 -0.079000026 0.041651808
0.5176264 -0.078019798 0.041667569
0.51792812 -0.077039577 0.041683335
0.51822984 -0.076059349 0.0416991
0.51765215 -0.074757837 0.041332982
0.51707506 -0.073454261 0.040966917
0.51649863 -0.072148614 0.040600881
0.5168013 -0.071165279 0.040616695
0.51710397 -0.070181951 0.040632509
0.51740664 -0.069198623 0.040648326
0.51683182 -0.067887805 0.040282372
0.51713479 -0.06690345 0.040298205
0.51743782 -0.065919086 0.040314034
0.51774079 -0.064934723 0.040329866
0.51804376 -0.06395036 0.040345699
0.50607246 -0.14502519 0.043087676
0.50727218 -0.1443052 0.043487355
0.50757074 -0.14333531 0.043502953
0.50786924 -0.14236543 0.043518551
0.5081678 -0.14139554 0.043534148
0.50936586 -0.1406807 0.043933731
0.51056325 -0.13996793 0.044333279
0.51086116 -0.1390001 0.044348847
0.51205766 -0.13829044 0.044748344
0.51325351 -0.13758285 0.04514781
0.51355082 -0.13661709 0.045163341
0.51474565 -0.1359126 0.045562759
0.51593989 -0.13521017 0.045962155
0.51623654 -0.13424648 0.045977652
0.51742983 -0.13354716 0.04637697
0.51862246 -0.13284989 0.046776269
0.51891845 -0.13188827 0.046791736
0.51921445 -0.13092665 0.0468072
0.51951045 -0.12996504 0.046822667
0.51980644 -0.12900342 0.046838131
0.52010244 -0.12804182 0.046853594
0.52039838 -0.1270802 0.046869062
0.52069438 -0.12611859 0.046884526
0.52099037 -0.12515697 0.046899989
0.52128637 -0.12419535 0.046915457
0.52158237 -0.12323374 0.04693092
0.52187836 -0.12227213 0.046946388
0.5221743 -0.12131051 0.046961851
0.5224703 -0.12034889 0.046977315
0.52276629 -0.11938728 0.046992783
0.52306229 -0.11842567 0.047008246
0.52335829 -0.11746405 0.047023714
0.52365428 -0.11650243 0.047039177
0.52395022 -0.11554082 0.047054641
0.52424622 -0.11457921 0.047070108
0.52365226 -0.11333153 0.046702087
0.52394855 -0.11236888 0.046717569
0.52424484 -0.11140623 0.046733052
0.52454114 -0.11044358 0.046748534
0.52483743 -0.10948093 0.046764012
0.52513379 -0.10851829 0.046779495
0.52454197 -0.10726337 0.046411607
0.52483863 -0.10629968 0.046427105
0.52513522 -0.105336 0.046442602
0.52454478 -0.10407695 0.046074752
0.52484173 -0.10311224 0.046090268
0.52425218 -0.10185008 0.045722481
0.52366322 -0.10058584 0.045354724
0.52307492 -0.099319547 0.044987004
0.52248734 -0.09805119 0.044619318
0.5219003 -0.096780762 0.044251665
0.52131391 -0.095508255 0.043884028
0.52072817 -0.094233692 0.043516442
0.52102739 -0.093261734 0.043532073
0.52044261 -0.091984071 0.043164533
0.51985848 -0.090704337 0.042797044
0.51927495 -0.089422539 0.042429574
0.51869208 -0.088138647 0.042062107
0.51810986 -0.086852714 0.041694716
0.5175283 -0.08556471 0.041327346
0.51782936 -0.084586553 0.041343074
0.51724875 -0.083295442 0.040975753
0.51755011 -0.08231625 0.0409915
0.5169704 -0.081022024 0.040624216
0.51727211 -0.080041803 0.040639982
0.51757383 -0.079061575 0.040655743
0.51787555 -0.078081347 0.040671509
0.51817727 -0.077101119 0.040687274
0.51759952 -0.075800709 0.040320102
0.51790154 -0.074819446 0.040335882
0.51732475 -0.073515929 0.039968759
0.51674855 -0.072210349 0.039601672
0.51705122 -0.071227022 0.039617486
0.51735389 -0.070243694 0.0396333
0.51765656 -0.069260359 0.039649114
0.51708198 -0.067949608 0.039282124
0.51738501 -0.066965252 0.039297953
0.51768798 -0.065980889 0.039313786
0.51711458 -0.064665981 0.03894683
0.51741791 -0.063680582 0.038962681
0.51772124 -0.06269519 0.038978528
0.50541836 -0.14483635 0.041715965
0.50661808 -0.14411524 0.042116702
0.50691694 -0.14314432 0.042132314
0.5072158 -0.14217339 0.042147931
0.50751466 -0.14120248 0.042163547
0.50871283 -0.14048655 0.042564198
0.50991029 -0.13977268 0.04296482
0.51110715 -0.13906087 0.043365404
0.51140505 -0.13809305 0.043380968
0.5126009 -0.13738436 0.043781493
0.51379621 -0.13667774 0.04418201
0.51499087 -0.13597317 0.044582479
0.51618481 -0.13527067 0.044982903
0.51648146 -0.13430698 0.0449984
0.51767445 -0.1336076 0.045398787
0.51886684 -0.13291027 0.045799125
0.51916283 -0.13194865 0.045814592
0.51945883 -0.13098703 0.045830056
0.51975483 -0.13002542 0.04584552
0.52005082 -0.1290638 0.045860987
0.52034682 -0.12810218 0.045876451
0.52064276 -0.12714057 0.045891915
0.52093875 -0.12617896 0.045907382
0.52123475 -0.12521735 0.045922846
0.52153075 -0.12425573 0.045938313
0.52182674 -0.12329412 0.045953777
0.52212274 -0.1223325 0.04596924
0.52241874 -0.12137088 0.045984708
0.52271467 -0.12040927 0.046000171
0.52301067 -0.11944766 0.046015635
0.52330667 -0.11848604 0.046031103
0.52360266 -0.11752442 0.046046566
0.52389866 -0.11656281 0.046062034
0.52419466 -0.1156012 0.046077497
0.52449059 -0.11463958 0.046092961
0.52389687 -0.11339197 0.045723904
0.52419317 -0.11242932 0.045739386
0.52448952 -0.11146667 0.045754865
0.52478582 -0.11050402 0.045770347
0.52508211 -0.10954137 0.045785829
0.52537841 -0.10857873 0.045801312
0.52478689 -0.10732387 0.045432355
0.52508354 -0.10636019 0.045447852
0.52538013 -0.10539651 0.04546335
0.52478993 -0.10413752 0.045094475
0.52508688 -0.1031728 0.045109987
0.52449757 -0.10191071 0.044741146
0.52390891 -0.10064654 0.044372324
0.52332091 -0.099380314 0.044003565
0.52273351 -0.098112017 0.043634824
0.52214682 -0.096841656 0.043266114
0.52156067 -0.095569208 0.04289744
0.52097523 -0.094294712 0.042528797
0.52127439 -0.093322754 0.042544428
0.5206899 -0.092045158 0.042175837
0.52010602 -0.090765491 0.041807294
0.51952279 -0.089483753 0.04143877
0.51894015 -0.088199936 0.04107026
0.51835817 -0.086914062 0.040701818
0.51777685 -0.085626118 0.04033339
0.51807797 -0.084647961 0.040349122
0.5174976 -0.083356924 0.039980747
0.51779896 -0.082377732 0.039996494
0.51721948 -0.081083566 0.039628167
0.5175212 -0.080103345 0.039643932
0.51782292 -0.079123117 0.039659698
0.51812464 -0.078142889 0.039675463
0.51754683 -0.076843575 0.039307218
0.51784885 -0.075862318 0.039322998
0.517272 -0.074559897 0.038954806
0.51757437 -0.073577605 0.038970605
0.51699847 -0.072272085 0.038602475
0.51730114 -0.071288757 0.038618289
0.5167262 -0.069980137 0.038250197
0.51702917 -0.068995774 0.038266029
0.51733214 -0.068011411 0.038281858
0.51675844 -0.066698641 0.037913818
0.51706171 -0.065713242 0.037929665
0.51736504 -0.06472785 0.037945513
0.51766837 -0.063742451 0.03796136
0.51797163 -0.062757052 0.037977207
0.5047648 -0.14464763 0.040342148
0.50506425 -0.14367464 0.040357795
0.50626373 -0.14295346 0.040759586
0.50746256 -0.14223436 0.041161329
0.50776136 -0.14126344 0.041176941
0.50806022 -0.14029251 0.041192558
0.50925785 -0.13957755 0.041594248
0.51045471 -0.13886465 0.041995905
0.51075292 -0.13789581 0.042011485
0.51194888 -0.13718601 0.042413078
0.5131442 -0.13647826 0.042814653
0.51433891 -0.13577262 0.043216195
0.51553297 -0.13506901 0.043617703
0.51672637 -0.1343675 0.044019163
0.51791912 -0.13366804 0.044420589
0.51911122 -0.13297063 0.044821996
0.51940721 -0.13200901 0.04483746
0.51970321 -0.1310474 0.044852924
0.51999921 -0.1300858 0.044868391
0.5202952 -0.12912418 0.044883855
0.5205912 -0.12816256 0.044899322
0.5208872 -0.12720095 0.044914786
0.52118313 -0.12623933 0.044930249
0.52147913 -0.12527771 0.044945717
0.52177513 -0.1243161 0.044961181
0.52207112 -0.12335449 0.044976648
0.52236712 -0.12239287 0.044992112
0.52266312 -0.12143126 0.045007575
0.52295905 -0.12046964 0.045023043
0.52325505 -0.11950803 0.045038506
0.52355105 -0.11854641 0.04505397
0.52384704 -0.1175848 0.045069437
0.52414304 -0.11662319 0.045084901
0.52443904 -0.11566157 0.045100369
0.52473497 -0.11469995 0.045115832
0.52414155 -0.1134524 0.044745702
0.52443784 -0.11248976 0.044761185
0.52473414 -0.11152711 0.044776667
0.52503043 -0.11056446 0.044792149
0.52532679 -0.10960181 0.044807632
0.52562308 -0.10863917 0.044823114
0.52503181 -0.10738438 0.044453114
0.52532846 -0.1064207 0.044468615
0.52562505 -0.10545702 0.044484112
0.52503508 -0.10419809 0.04411418
0.52533203 -0.10323337 0.044129696
0.52474302 -0.10197135 0.0437598
0.5241546 -0.10070723 0.043389939
0.52356684 -0.099441074 0.043020111
0.52297974 -0.098172843 0.042650327
0.52239329 -0.096902549 0.042280566
0.52180743 -0.095630169 0.041910835
0.52122223 -0.094355732 0.041541155
0.52152139 -0.093383782 0.041556787
0.52093714 -0.092106245 0.041187141
0.52035356 -0.090826645 0.04081754
0.51977056 -0.089544974 0.040447962
0.51918823 -0.088261217 0.040078416
0.51860648 -0.086975411 0.039708916
0.51802546 -0.085687533 0.039339438
0.51832652 -0.084709376 0.03935517
0.51774645 -0.083418399 0.038985752
0.51804781 -0.082439207 0.039001502
0.51746863 -0.081145108 0.038632121
0.51777035 -0.080164887 0.038647886
0.51807207 -0.079184659 0.038663648
0.51837379 -0.078204431 0.038679413
0.51779622 -0.076905183 0.038310118
0.51721931 -0.075603865 0.037940852
0.51752168 -0.074621573 0.037956651
0.51782399 -0.073639274 0.03797245
0.51724839 -0.07233382 0.037603267
0.51755106 -0.071350493 0.03761908
0.51697636 -0.07004194 0.037249949
0.51640224 -0.068731301 0.036880821
0.51670557 -0.067745902 0.036896668
0.51700884 -0.06676051 0.036912516
0.51731217 -0.065775111 0.036928363
0.51673967 -0.064459316 0.036559347
0.51704329 -0.063472889 0.036575209
0.51734692 -0.062486459 0.036591075
0.50201058 -0.14493576 0.038176093
0.50321138 -0.14420936 0.038579021
0.50441152 -0.14348501 0.0389819
0.50561106 -0.14276274 0.039384745
0.50680989 -0.14204253 0.039787561
0.50710911 -0.14107057 0.039803192
0.50740826 -0.14009862 0.039818823
0.50860584 -0.13938256 0.040221583
0.50980288 -0.13866857 0.040624298
0.51099914 -0.13795663 0.041026991
0.51219487 -0.13724676 0.041429639
0.51338989 -0.13653897 0.041832253
0.51458436 -0.13583325 0.042234845
0.51577812 -0.13512959 0.042637408
0.51697129 -0.13442799 0.043039922
0.51816374 -0.13372847 0.043442402
0.51935565 -0.13303101 0.043844849
0.51965159 -0.13206939 0.043860316
0.51994759 -0.13110778 0.04387578
0.52024359 -0.13014616 0.043891247
0.52053958 -0.12918454 0.043906711
0.52083558 -0.12822294 0.043922175
0.52113158 -0.12726133 0.043937642
0.52142751 -0.12629971 0.043953106
0.52172351 -0.12533809 0.043968569
0.52201951 -0.12437648 0.043984037
0.5223155 -0.12341486 0.043999501
0.5226115 -0.12245325 0.044014968
0.5229075 -0.12149163 0.044030432
0.52320349 -0.12053002 0.044045895
0.52349943 -0.1195684 0.044061363
0.52379543 -0.11860679 0.044076826
0.52409142 -0.11764517 0.044092294
0.52438742 -0.11668356 0.044107758
0.52468342 -0.11572195 0.044123221
0.52497941 -0.11476033 0.044138689
0.52438617 -0.11351284 0.043767519
0.52468246 -0.1125502 0.043783002
0.52497882 -0.11158755 0.043798484
0.52527511 -0.1106249 0.043813966
0.52557141 -0.10966225 0.043829445
0.5258677 -0.1086996 0.043844927
0.52527672 -0.10744488 0.043473877
0.52557337 -0.1064812 0.043489374
0.52586997 -0.10551751 0.043504871
0.5252803 -0.10425866 0.043133888
0.52557719 -0.10329394 0.043149404
0.52498847 -0.10203198 0.042778455
0.52440029 -0.10076793 0.042407539
0.52381283 -0.099501841 0.042036667
0.52322596 -0.098233677 0.041665833
0.52263981 -0.096963443 0.041295018
0.52205414 -0.09569113 0.040924247
0.52146924 -0.09441676 0.040553499
0.52176839 -0.093444802 0.04056913
0.52118444 -0.092167333 0.040198442
0.52060109 -0.090887792 0.03982779
0.5200184 -0.089606188 0.039457172
0.51943624 -0.088322498 0.039086569
0.51885486 -0.087036759 0.038716018
0.51827407 -0.085748948 0.038345486
0.51857513 -0.084770791 0.038361214
0.5179953 -0.083479874 0.037990745
0.51829666 -0.082500689 0.038006492
0.51771772 -0.08120665 0.03763606
0.51801944 -0.080226429 0.037651822
0.51832116 -0.079246201 0.037667587
0.51774359 -0.077948049 0.037297234
0.5180456 -0.076966792 0.037313014
0.51746893 -0.075665534 0.036942713
0.5177713 -0.074683242 0.036958512
0.51719558 -0.073378891 0.036588244
0.51662052 -0.072072469 0.036218021
0.51692355 -0.071088105 0.036233854
0.51634938 -0.069778562 0.035863668
0.51665264 -0.06879317 0.035879515
0.51607949 -0.067480542 0.035509396
0.51638311 -0.066494115 0.035525259
0.51668674 -0.065507688 0.035541125
0.51611489 -0.064190924 0.035171069
0.51641881 -0.063203454 0.03518695
0.51672274 -0.062215988 0.035202831
0.51615214 -0.060895089 0.034832846
0.50015676 -0.14547803 0.036391944
0.50225866 -0.14499703 0.037184231
0.50255907 -0.14402094 0.037199929
0.50285953 -0.14304486 0.037215628
0.50495887 -0.14257215 0.038007814
0.50615782 -0.14185084 0.038411696
0.50645727 -0.14087784 0.038427345
0.50675678 -0.13990486 0.038442992
0.50795442 -0.13918769 0.038846809
0.50915146 -0.13847259 0.039250594
0.51124537 -0.13801746 0.040042497
0.5124408 -0.13730752 0.040446196
0.51363558 -0.13659966 0.040849864
0.51482981 -0.13589388 0.041253515
0.51602328 -0.13519016 0.041657116
0.51721621 -0.13448849 0.042060684
0.51840842 -0.13378891 0.042464204
0.51960003 -0.13309139 0.042867705
0.51989603 -0.13212977 0.042883173
0.52019197 -0.13116816 0.042898636
0.52048796 -0.13020654 0.0429141
0.52078396 -0.12924492 0.042929567
0.52107996 -0.12828331 0.042945031
0.52137595 -0.12732169 0.042960495
0.52167195 -0.12636007 0.042975962
0.52196789 -0.12539847 0.042991426
0.52226388 -0.12443685 0.043006893
0.52255988 -0.12347524 0.043022357
0.52285588 -0.12251362 0.043037821
0.52315187 -0.12155201 0.043053288
0.52344787 -0.1205904 0.043068752
0.52374381 -0.11962878 0.043084215
0.5240398 -0.11866716 0.043099683
0.5243358 -0.11770555 0.043115146
0.5246318 -0.11674394 0.043130614
0.52492779 -0.11578232 0.043146078
0.52522379 -0.1148207 0.043161541
0.52463084 -0.11357328 0.042789321
0.52492714 -0.11261064 0.042804804
0.52522343 -0.11164799 0.042820282
0.52551973 -0.11068534 0.042835765
0.52581608 -0.10972269 0.042851247
0.52611238 -0.10876004 0.042866729
0.52552164 -0.10750539 0.04249464
0.52581829 -0.1065417 0.042510137
0.5252285 -0.10528395 0.042138081
0.52463937 -0.10402412 0.041766059
0.52493662 -0.10305837 0.041781589
0.52434844 -0.10179542 0.041409601
0.52464598 -0.10082863 0.04142515
0.52405876 -0.0995626 0.041053228
0.52347219 -0.098294504 0.04068134
0.52288628 -0.097024336 0.040309481
0.5223009 -0.09575209 0.039937645
0.52171624 -0.09447778 0.039565854
0.52113223 -0.093201414 0.0391941
0.52054882 -0.091922976 0.038822375
0.51996607 -0.090642467 0.038450684
0.51938391 -0.089359872 0.038079012
0.5188024 -0.088075228 0.037707403
0.51910317 -0.087098107 0.03772312
0.51852262 -0.085810356 0.037351545
0.51882368 -0.084832199 0.037367277
0.51824415 -0.083541356 0.036995739
0.51854551 -0.082562163 0.037011486
0.51796687 -0.081268199 0.036640011
0.51826859 -0.080287971 0.036655776
0.5176909 -0.078990921 0.036284354
0.51799291 -0.078009658 0.036300134
0.51741624 -0.076709501 0.03592876
0.51771855 -0.075727209 0.035944559
0.51714283 -0.074423954 0.035573233
0.51656771 -0.073118635 0.035201941
0.51599318 -0.071811222 0.034830671
0.51629651 -0.07082583 0.034846518
0.51572293 -0.06951534 0.034475308
0.51602656 -0.068528906 0.034491174
0.51633018 -0.067542478 0.034507036
0.51575792 -0.066227846 0.034135897
0.5160619 -0.065240383 0.034151778
0.51549059 -0.063922651 0.033780687
0.51579487 -0.062934153 0.033796582
0.5160991 -0.061945651 0.033812482
0.51640338 -0.060957152 0.033828378
0.50040537 -0.14553945 0.035397992
0.50070643 -0.14456129 0.035413723
0.50190735 -0.14383267 0.035818778
0.50220811 -0.14285555 0.035834491
0.50340801 -0.14213005 0.036239482
0.50550622 -0.14165927 0.03703374
0.50580603 -0.14068526 0.037049405
0.50700408 -0.13996595 0.037454296
0.50730354 -0.13899297 0.037469942
0.50850064 -0.13827676 0.037874799
0.51059437 -0.13782047 0.038668811
0.51268679 -0.13736829 0.039462756
0.51388127 -0.13666037 0.039867464
0.51507521 -0.13595451 0.040272169
0.51626849 -0.13525073 0.040676825
0.51746106 -0.13454901 0.041081447
0.51865304 -0.13384935 0.041486021
0.51984441 -0.13315175 0.041890576
0.52014041 -0.13219014 0.04190604
0.52043635 -0.13122852 0.041921504
0.52073234 -0.13026692 0.041936971
0.52102834 -0.1293053 0.041952435
0.52132434 -0.12834369 0.041967902
0.52162033 -0.12738207 0.041983366
0.52191633 -0.12642045 0.04199883
0.52221227 -0.12545884 0.042014297
0.52250826 -0.12449723 0.042029761
0.52280426 -0.12353561 0.042045228
0.52310026 -0.12257399 0.042060692
0.52339625 -0.12161238 0.042076156
0.52369225 -0.12065077 0.042091623
0.52398825 -0.11968915 0.042107087
0.52428418 -0.11872754 0.04212255
0.52458018 -0.11776593 0.042138018
0.52398658 -0.11652167 0.041764691
0.52428287 -0.11555902 0.041780174
0.52457917 -0.11459637 0.041795656
0.52487546 -0.11363372 0.041811135
0.52517176 -0.11267108 0.041826617
0.52546811 -0.11170842 0.041842099
0.52576441 -0.11074578 0.041857582
0.52517331 -0.10949326 0.041484404
0.5254699 -0.10852958 0.041499902
0.52576655 -0.10756589 0.041515399
0.52517676 -0.10630923 0.041142274
0.52458757 -0.1050505 0.040769178
0.52488482 -0.10408475 0.040784713
0.52429652 -0.1028229 0.040411651
0.52370894 -0.10155901 0.040038656
0.52400684 -0.10059118 0.040054221
0.52342021 -0.099324182 0.039681263
0.52283424 -0.098055117 0.039308336
0.5222488 -0.096783966 0.038935442
0.52166408 -0.095510758 0.038562581
0.52108002 -0.094235487 0.038189754
0.52049655 -0.092958145 0.037816972
0.52079636 -0.091984123 0.037832636
0.52021384 -0.090703681 0.037459895
0.51963192 -0.089421161 0.037087169
0.51905072 -0.088136576 0.036714505
0.51935148 -0.087159455 0.036730219
0.51877123 -0.085871771 0.036357593
0.51907229 -0.084893614 0.036373321
0.518493 -0.083602831 0.036000744
0.51879436 -0.082623638 0.036016494
0.51821595 -0.081329741 0.035643965
0.51851767 -0.080349512 0.03565973
0.51794028 -0.079052523 0.03528725
0.51736349 -0.077753477 0.034914806
0.51766586 -0.076771177 0.034930605
0.51709008 -0.075469024 0.034558211
0.5165149 -0.0741648 0.03418586
0.51594031 -0.07285849 0.033813518
0.51536638 -0.071550131 0.033441223
0.51567 -0.070563696 0.033457089
0.51509708 -0.069252238 0.033084858
0.51540101 -0.068264768 0.033100739
0.51570493 -0.067277305 0.03311662
0.51600891 -0.066289842 0.033132501
0.51543754 -0.064973213 0.032760337
0.51486683 -0.063654512 0.032388207
0.51517141 -0.062664978 0.032404121
0.51547599 -0.061675448 0.032420035
0.51578057 -0.060685914 0.03243595
0.50065398 -0.14560086 0.034404036
0.50095505 -0.1446227 0.034419768
0.50125611 -0.14364454 0.034435499
0.50245643 -0.1429169 0.034841578
0.50365609 -0.14219134 0.035247635
0.50485516 -0.14146784 0.035653662
0.50605357 -0.1407464 0.036059655
0.50725132 -0.14002705 0.0364656
0.50755084 -0.13905405 0.036481246
0.50874764 -0.13833779 0.036887143
0.50994378 -0.13762359 0.037293017
0.51203603 -0.13717027 0.038089089
0.51323062 -0.13646124 0.038494866
0.51442456 -0.13575427 0.038900625
0.51561791 -0.1350494 0.039306354
0.5168106 -0.13434657 0.039712045
0.51800263 -0.13364582 0.040117692
0.51919401 -0.13294713 0.040523302
0.52038479 -0.13225052 0.040928897
0.52068079 -0.1312889 0.04094436
0.52097672 -0.13032728 0.040959828
0.52127272 -0.12936567 0.040975291
0.52156872 -0.12840405 0.040990755
0.52186471 -0.12744245 0.041006222
0.52216071 -0.12648083 0.041021686
0.52245671 -0.12551922 0.04103715
0.52275264 -0.1245576 0.041052617
0.52304864 -0.12359598 0.041068081
0.52334464 -0.12263437 0.041083548
0.52364063 -0.12167276 0.041099012
0.52393663 -0.12071114 0.041114476
0.52423263 -0.11974952 0.041129943
0.52363861 -0.11850741 0.040755529
0.5239349 -0.11754476 0.040771011
0.5242312 -0.11658211 0.040786494
0.52452749 -0.11561946 0.040801972
0.52482384 -0.11465681 0.040817454
0.52512014 -0.11369416 0.040832937
0.52541643 -0.11273152 0.040848419
0.52482498 -0.11148112 0.040474154
0.52512157 -0.11051744 0.040489651
0.52541822 -0.10955376 0.040505148
0.52482802 -0.10829923 0.040130951
0.52512497 -0.10733452 0.040146466
0.52542192 -0.1063698 0.040161978
0.52483302 -0.10511114 0.039787833
0.52424467 -0.10385039 0.039413717
0.52454221 -0.1028836 0.039429266
0.52395493 -0.10161977 0.039055202
0.52336824 -0.10035387 0.038681187
0.52278221 -0.099085897 0.038307186
0.52219671 -0.097815849 0.037933223
0.52161193 -0.096543737 0.037559289
0.5210278 -0.095269561 0.037185408
0.52132726 -0.094296575 0.037201054
0.52074409 -0.093019299 0.036827222
0.52016151 -0.09173996 0.036453407
0.52046168 -0.090764903 0.036469087
0.51988 -0.089482442 0.036095321
0.51929903 -0.088197924 0.035721593
0.5195998 -0.087220803 0.035737306
0.51901978 -0.085933186 0.035363637
0.51932091 -0.084955029 0.035379369
0.51874185 -0.083664313 0.035005737
0.51904321 -0.08268512 0.035021484
0.5184651 -0.081391282 0.034647904
0.51876682 -0.080411054 0.034663666
0.51818967 -0.079114132 0.03429015
0.51761317 -0.077815145 0.033916648
0.51703727 -0.076514088 0.033543184
0.51733994 -0.07553076 0.033558998
0.51676506 -0.074226603 0.033185598
0.51619071 -0.072920352 0.032812215
0.51561707 -0.071612068 0.032438867
0.51504409 -0.070301697 0.032065563
0.51534802 -0.069314234 0.032081444
0.51565194 -0.068326771 0.032097325
0.51595592 -0.067339309 0.032113206
0.51625985 -0.066351838 0.032129087
0.51568878 -0.065035269 0.031755872
0.5151183 -0.063716643 0.031382702
0.51542288 -0.062727109 0.031398617
0.51572746 -0.061737575 0.031414531
0.51603204 -0.060748041 0.031430446
0.50000262 -0.14541492 0.033018634
0.50030404 -0.14443572 0.033034381
0.50150472 -0.14370595 0.033441547
0.50270474 -0.14297825 0.033848677
0.50390416 -0.14225261 0.034255777
0.50420457 -0.14127652 0.034271475
0.5054031 -0.14055401 0.034678552
0.50660092 -0.13983354 0.035085566
0.50690073 -0.13885951 0.035101231
0.50809759 -0.13814215 0.035508197
0.51019055 -0.13768454 0.03630643
0.51138586 -0.13697237 0.03671331
0.51258051 -0.13626224 0.037120175
0.51377451 -0.13555418 0.037526991
0.51496786 -0.13484819 0.037933789
0.51616061 -0.13414429 0.038340539
0.5173527 -0.13344243 0.038747266
0.51854414 -0.13274264 0.039153952
0.51973498 -0.13204493 0.039560601
0.52003127 -0.13108228 0.039576083
0.52032757 -0.13011964 0.039591562
0.52062386 -0.12915698 0.039607044
0.52092022 -0.12819433 0.039622527
0.52121651 -0.12723169 0.039638009
0.52151281 -0.12626903 0.039653491
0.5218091 -0.12530638 0.039668974
0.5221054 -0.12434374 0.039684452
0.52240169 -0.12338109 0.039699934
0.52269804 -0.12241844 0.039715417
0.52299434 -0.1214558 0.039730899
0.52329063 -0.12049314 0.039746381
0.52358693 -0.11953049 0.039761864
0.52388322 -0.11856785 0.039777346
0.52417958 -0.11760519 0.039792825
0.52447587 -0.11664255 0.039808307
0.52477217 -0.1156799 0.039823789
0.52506846 -0.11471725 0.039839271
0.52536476 -0.1137546 0.039854754
0.52477324 -0.11250531 0.039479416
0.52506989 -0.11154163 0.039494913
0.52536649 -0.11057795 0.039510414
0.52566314 -0.10961426 0.039525911
0.52507317 -0.1083598 0.039150659
0.52537012 -0.10739508 0.039166171
0.52478117 -0.10613752 0.038790952
0.52507842 -0.10517177 0.038806487
0.52449036 -0.10391109 0.038431332
0.52390295 -0.10264835 0.038056195
0.52331626 -0.10138355 0.03768111
0.52361447 -0.10041469 0.037696689
0.52302867 -0.099146791 0.037321638
0.52244347 -0.097876802 0.036946632
0.52185893 -0.096604764 0.036571648
0.52127504 -0.095330656 0.036196709
0.52069181 -0.094054475 0.035821807
0.52099162 -0.093080454 0.035837471
0.52040935 -0.091801174 0.035462614
0.5198276 -0.090519816 0.035087764
0.52012807 -0.089543723 0.035103463
0.5195474 -0.088259272 0.034728691
0.51984817 -0.087282151 0.034744408
0.51926839 -0.085994601 0.034369685
0.51956946 -0.085016444 0.034385417
0.5189907 -0.083725788 0.034010746
0.51929206 -0.082746595 0.034026492
0.51871419 -0.081452824 0.033651855
0.51901591 -0.080472596 0.03366762
0.51843905 -0.07917574 0.033293035
0.5178628 -0.077876821 0.032918494
0.51728719 -0.076575823 0.032543991
0.51758987 -0.075592496 0.032559805
0.51701522 -0.074288405 0.03218535
0.51644117 -0.072982222 0.031810898
0.51586777 -0.071673997 0.031436507
0.51529503 -0.070363693 0.031062152
0.51559895 -0.06937623 0.031078033
0.51502717 -0.068062827 0.030703727
0.51533145 -0.067074329 0.030719625
0.51563573 -0.06608583 0.030735523
0.51506519 -0.064768299 0.030361282
0.51449525 -0.063448675 0.029987061
0.51480019 -0.062458109 0.030002993
0.51423126 -0.061135408 0.029628821
0.51453644 -0.060143806 0.029644769
0.50025147 -0.1454764 0.032023627
0.50055289 -0.1444972 0.032039374
0.50175327 -0.14376736 0.032447591
0.50205439 -0.1427892 0.032463323
0.50325382 -0.14206247 0.032871492
0.50445265 -0.14133781 0.033279628
0.50565088 -0.14061522 0.033687748
0.50684845 -0.13989469 0.034095816
0.50714827 -0.13892066 0.034111481
0.50834483 -0.13820323 0.034519501
0.5095408 -0.13748787 0.034927487
0.51163232 -0.13703327 0.035727777
0.51282674 -0.13632306 0.036135681
0.51402044 -0.13561495 0.036543548
0.51521355 -0.13490888 0.036951385
0.51640606 -0.13420492 0.037359204
0.51759785 -0.133503 0.037766974
0.51878905 -0.13280314 0.038174711
0.5199796 -0.13210537 0.038582399
0.52027595 -0.13114272 0.038597882
0.52057225 -0.13018008 0.038613364
0.52086854 -0.12921742 0.038628846
0.52116483 -0.12825477 0.038644329
0.52146113 -0.12729213 0.038659811
0.52175742 -0.12632948 0.038675293
0.52205378 -0.12536682 0.038690772
0.52235007 -0.12440418 0.038706254
0.52264637 -0.12344153 0.038721737
0.52294266 -0.12247888 0.038737219
0.52323896 -0.12151624 0.038752701
0.52353531 -0.12055358 0.038768183
0.52383161 -0.11959094 0.038783662
0.5241279 -0.11862829 0.038799144
0.5244242 -0.11766564 0.038814627
0.52472049 -0.11670299 0.038830109
0.52501678 -0.11574034 0.038845591
0.52442491 -0.11449318 0.03846918
0.52472156 -0.1135295 0.038484678
0.52501816 -0.11256582 0.038500179
0.52531481 -0.11160214 0.038515676
0.5256114 -0.11063845 0.038531173
0.52502143 -0.10938509 0.038154848
0.52531838 -0.10842037 0.038170364
0.52561533 -0.10745566 0.03818588
0.52502662 -0.10619815 0.037809622
0.5244385 -0.10493857 0.037433382
0.52385104 -0.10367693 0.037057191
0.52414894 -0.10270911 0.037072755
0.52356243 -0.10144438 0.036696613
0.52297664 -0.10017757 0.036320504
0.52239138 -0.098908685 0.035944417
0.52180678 -0.097637735 0.035568375
0.52122283 -0.096364729 0.035192367
0.52063954 -0.095089652 0.034816392
0.52093935 -0.09411563 0.034832053
0.52035701 -0.092837453 0.03445613
0.52065712 -0.091862395 0.03447181
0.52007568 -0.090581097 0.034095921
0.52037615 -0.089605004 0.034111619
0.51979572 -0.08832062 0.033735793
0.52009648 -0.087343499 0.033751506
0.519517 -0.086056009 0.033375733
0.51981807 -0.085077852 0.033391461
0.51923954 -0.08378727 0.033015735
0.51954097 -0.082808077 0.033031486
0.51896334 -0.081514366 0.032655794
0.51838636 -0.080218613 0.032280151
0.51781011 -0.078920789 0.031904541
0.51723444 -0.077620894 0.031528965
0.51753712 -0.076637559 0.031544778
0.51696241 -0.075334564 0.031169252
0.5163883 -0.07402949 0.030793745
0.51581484 -0.07272236 0.030418286
0.51611847 -0.071735926 0.03043415
0.51554596 -0.070425689 0.030058755
0.51497418 -0.069113389 0.029683363
0.51440293 -0.067799024 0.029308019
0.51470751 -0.06680949 0.029323934
0.51501209 -0.065819956 0.029339848
0.51444209 -0.064501435 0.028964572
0.5138728 -0.063180864 0.028589327
0.51330417 -0.061858222 0.028214103
0.51273614 -0.060533512 0.02783894
0.51304197 -0.05953984 0.027854921
0.50139976 -0.14578509 0.031422175
0.50170082 -0.14480694 0.031437907
0.50200188 -0.14382878 0.031453639
0.50230294 -0.14285062 0.031469371
0.50260407 -0.14187247 0.031485103
0.5038029 -0.14114669 0.031894308
0.50500119 -0.140423 0.032303482
0.50619882 -0.13970138 0.032712623
0.5073958 -0.13898182 0.033121731
0.50769562 -0.1380078 0.033137396
0.50889164 -0.13729134 0.033546451
0.51098287 -0.13683555 0.034348853
0.51217735 -0.13612427 0.034757826
0.51337117 -0.13541505 0.035166766
0.51456428 -0.1347079 0.035575673
0.51575685 -0.1340028 0.03598455
0.51694876 -0.1332998 0.036393389
0.51814002 -0.13259885 0.036802199
0.51933062 -0.13189997 0.037210971
0.51962721 -0.13093629 0.037226468
0.51992387 -0.12997261 0.037241969
0.52022046 -0.12900892 0.037257466
0.52051711 -0.12804525 0.037272964
0.5208137 -0.12708156 0.037288465
0.52111036 -0.12611787 0.037303962
0.52140695 -0.1251542 0.037319459
0.5217036 -0.12419051 0.03733496
0.52200019 -0.12322683 0.037350457
0.52229685 -0.12226314 0.037365954
0.52259344 -0.12129946 0.037381455
0.52289009 -0.12033578 0.037396953
0.52318668 -0.1193721 0.03741245
0.52348334 -0.11840841 0.037427947
0.52377993 -0.11744473 0.037443448
0.52407658 -0.11648105 0.037458945
0.52437317 -0.11551736 0.037474442
0.52466983 -0.11455368 0.037489943
0.52496648 -0.11359 0.03750544
0.52526307 -0.11262632 0.037520938
0.52555972 -0.11166263 0.037536439
0.52496964 -0.11041037 0.037159041
0.52526659 -0.10944565 0.037174556
0.52467752 -0.10819029 0.036797211
0.52497476 -0.10722454 0.036812741
0.52527207 -0.10625879 0.036828276
0.52468419 -0.10499927 0.036450997
0.52409703 -0.1037377 0.036073748
0.52439493 -0.10276987 0.036089316
0.52380866 -0.10150521 0.035712119
0.5232231 -0.10023846 0.035334956
0.52263808 -0.098969638 0.034957826
0.52205378 -0.097698763 0.03458073
0.52147013 -0.096425816 0.034203667
0.52088708 -0.095150806 0.033826638
0.52118689 -0.094176784 0.033842303
0.52060479 -0.092898667 0.033465322
0.52090496 -0.091923617 0.033481006
0.52032375 -0.090642378 0.033104073
0.52062422 -0.089666292 0.033119772
0.52004403 -0.088381968 0.032742891
0.51946449 -0.087095581 0.032366045
0.51976556 -0.086117424 0.032381777
0.51918697 -0.084827937 0.032004982
0.51948839 -0.083848745 0.032020729
0.51891071 -0.082556136 0.031643983
0.51833373 -0.081261478 0.031267267
0.51863575 -0.080280222 0.031283051
0.51805973 -0.078982458 0.030906387
0.51748431 -0.077682629 0.030529756
0.51778698 -0.076699302 0.03054557
0.51721257 -0.075396366 0.030169005
0.5166387 -0.074091353 0.029792441
0.51606554 -0.07278429 0.029415928
0.51549298 -0.071475156 0.029039461
0.51492113 -0.07016395 0.028663015
0.51522535 -0.069175452 0.028678911
0.5146544 -0.067861155 0.028302515
0.51495898 -0.066871613 0.028318428
0.51438898 -0.065554194 0.02794208
0.51381963 -0.064234719 0.027565766
0.51325089 -0.062913179 0.027189484
0.51180917 -0.061258573 0.02642101
0.51124203 -0.059931859 0.026044827
0.51067555 -0.058603082 0.025668662
0.50164831 -0.14584652 0.030428223
0.50194937 -0.14486834 0.030443955
0.50135195 -0.14364097 0.030065121
0.50255156 -0.14291203 0.030475417
0.50285262 -0.14193387 0.030491147
0.50405127 -0.14120804 0.03090141
0.5052492 -0.14048429 0.031311624
0.5064466 -0.1397626 0.03172183
0.50764334 -0.13904297 0.032131992
0.50794315 -0.13806894 0.032147657
0.50913888 -0.13735242 0.032557756
0.51033401 -0.13663797 0.032967817
0.51152849 -0.13592558 0.033377863
0.51272237 -0.13521528 0.033787876
0.5139156 -0.13450702 0.034197852
0.51510817 -0.13380083 0.034607783
0.51630008 -0.13309672 0.035017695
0.51749146 -0.13239469 0.035427574
0.51868212 -0.1316947 0.035837419
0.51987213 -0.13099679 0.036247216
0.52016878 -0.13003311 0.036262717
0.52046537 -0.12906943 0.036278214
0.52076203 -0.12810574 0.036293712
0.52105862 -0.12714206 0.036309209
0.52135527 -0.12617838 0.03632471
0.52165186 -0.1252147 0.036340207
0.52194852 -0.12425102 0.036355704
0.52224511 -0.12328734 0.036371205
0.52254176 -0.12232365 0.036386702
0.52283835 -0.12135997 0.036402199
0.52313501 -0.12039629 0.0364177
0.5234316 -0.1194326 0.036433198
0.52372825 -0.11846892 0.036448695
0.52402484 -0.11750524 0.036464196
0.5243215 -0.11654156 0.036479693
0.52461809 -0.11557787 0.03649519
0.52491474 -0.11461419 0.036510687
0.52521133 -0.11365051 0.036526188
0.52550799 -0.11268682 0.036541685
0.52580464 -0.11172314 0.036557183
0.52521485 -0.11047094 0.036178749
0.5255118 -0.10950623 0.036194265
0.52492297 -0.10825092 0.035815865
0.52522022 -0.10728517 0.035831396
0.52551746 -0.10631942 0.035846926
0.52492988 -0.10505997 0.035468593
