# .PCD v0.7 - Point Cloud Data file format
VERSION 0.7
FIELDS x y z
SIZE 4 4 4
TYPE F F F
COUNT 1 1 1
WIDTH 1417
HEIGHT 1
VIEWPOINT 0 0 0 1 0 0 0
POINTS 1417
DATA ascii
0.56555176 0.10879128 0.050282314
0.56515938 0.10828751 0.050274298
0.564767 0.10778372 0.050266277
0.56512833 0.10674233 0.049879801
0.56473529 0.10623769 0.049871769
0.56434226 0.10573306 0.049863737
0.5647009 0.1046883 0.049477227
0.56430721 0.10418282 0.04946918
0.56391352 0.10367733 0.049461134
0.56351984 0.10317185 0.049453087
0.56312609 0.10266636 0.049445044
0.5627324 0.10216087 0.049436998
0.56308645 0.10111016 0.049050394
0.56269205 0.10060383 0.049042333
0.5622977 0.10009748 0.049034271
0.5619033 0.099591151 0.049026214
0.56150895 0.099084809 0.049018152
0.56111461 0.098578475 0.049010094
0.56072021 0.098072134 0.049002033
0.56032586 0.0975658 0.048993975
0.55993146 0.097059466 0.048985913
0.55953711 0.096553124 0.048977852
0.55914277 0.09604679 0.048969794
0.55800796 0.09609504 0.049340438
0.63665241 0.14178403 0.035746865
0.63623416 0.14124705 0.035738315
0.63581598 0.14071009 0.03572977
0.63539773 0.14017311 0.03572122
0.63497949 0.13963614 0.035712674
0.6345613 0.13909917 0.035704125
0.63414305 0.13856219 0.035695579
0.63372481 0.13802521 0.035687029
0.63330656 0.13748825 0.035678484
0.63207269 0.13740858 0.036048099
0.6316551 0.13687247 0.036039565
0.63123757 0.13633634 0.03603103
0.63081998 0.13580023 0.036022495
0.59327 0.14025025 0.049074441
0.59367341 0.13926362 0.048687853
0.59327841 0.13875642 0.04867978
0.59288335 0.13824923 0.048671704
0.59248829 0.13774204 0.048663631
0.59209329 0.13723487 0.048655558
0.59169829 0.13672768 0.048647486
0.59050941 0.13670589 0.049018022
0.58932191 0.1366858 0.049388587
0.58813572 0.13666742 0.049759179
0.58695084 0.13665077 0.05012982
0.58655846 0.13614699 0.050121799
0.58537555 0.13613285 0.050492458
0.584194 0.13612044 0.050863143
0.58301377 0.13610971 0.051233858
0.58183485 0.13610072 0.051604617
0.58144516 0.13560034 0.051596653
0.5802682 0.13559388 0.051967435
0.57987916 0.13509434 0.051959485
0.57949013 0.13459481 0.051951531
0.57910103 0.13409528 0.051943582
0.57871199 0.13359575 0.051935628
0.57832289 0.13309622 0.051927678
0.57793385 0.1325967 0.051919725
0.57754475 0.13209717 0.051911775
0.57715571 0.13159764 0.051903822
0.57676667 0.13109811 0.051895872
0.57637757 0.13059857 0.051887918
0.57598853 0.13009904 0.051879968
0.57559943 0.12959951 0.051872015
0.57521039 0.12909999 0.051864065
0.57482135 0.12860046 0.051856112
0.57443225 0.12810093 0.051848162
0.57404321 0.1276014 0.051840208
0.57365412 0.12710187 0.051832259
0.57326508 0.12660234 0.051824305
0.57287598 0.12610281 0.051816355
0.57248694 0.12560329 0.051808402
0.5720979 0.12510376 0.051800452
0.5717088 0.12460422 0.051792499
0.57131976 0.12410469 0.051784549
0.57093066 0.12360516 0.051776595
0.57054162 0.12310564 0.051768646
0.57015252 0.12260611 0.051760692
0.57053274 0.12158968 0.051373627
0.57014304 0.12108931 0.051365662
0.56975329 0.12058893 0.051357698
0.56936359 0.12008855 0.051349733
0.56897384 0.11958817 0.051341768
0.56858414 0.11908779 0.051333804
0.56819439 0.1185874 0.051325839
0.56856936 0.11756414 0.050938644
0.56817895 0.11706291 0.050930664
0.5685519 0.11603714 0.050543454
0.56816083 0.11553505 0.050535459
0.56776983 0.11503297 0.050527468
0.56814009 0.11400378 0.050140202
0.56774837 0.11350086 0.050132196
0.56735665 0.11299792 0.050124191
0.56696492 0.11249499 0.050116185
0.5665732 0.11199205 0.050108179
0.56618148 0.11148912 0.050100174
0.56654716 0.11045398 0.049712811
0.56615478 0.1099502 0.04970479
0.5657624 0.10944641 0.049696773
0.56537002 0.10894263 0.049688753
0.56497765 0.10843884 0.049680732
0.56458527 0.10793506 0.049672715
0.56494629 0.10689393 0.049285237
0.56455326 0.10638929 0.049277205
0.56416023 0.10588466 0.04926917
0.56451857 0.10484016 0.048881661
0.56412482 0.10433467 0.048873615
0.56373113 0.10382919 0.048865568
0.56333745 0.1033237 0.048857521
0.56294376 0.10281821 0.048849475
0.56255001 0.10231273 0.048841428
0.56290376 0.10126227 0.048453823
0.56250936 0.10075593 0.048445761
0.56211501 0.1002496 0.048437703
0.56172061 0.099743262 0.048429642
0.56132627 0.09923692 0.04842158
0.56093192 0.098730586 0.048413523
0.56053752 0.098224245 0.048405461
0.56014317 0.097717911 0.048397403
0.55974877 0.09721157 0.048389342
0.55935442 0.096705236 0.048381284
0.55896008 0.096198894 0.048373222
0.55856568 0.09569256 0.048365161
0.63769889 0.14203376 0.034743715
0.63645869 0.14194533 0.035114199
0.63604045 0.14140837 0.035105649
0.6356222 0.14087139 0.035097104
0.63520402 0.14033443 0.035088554
0.63478577 0.13979745 0.035080008
0.63436753 0.13926047 0.035071459
0.63394928 0.13872349 0.035062913
0.63353109 0.13818653 0.035054363
0.63311285 0.13764955 0.035045817
0.6326946 0.13711259 0.035037268
0.63146168 0.13703352 0.035407901
0.63104415 0.13649741 0.035399366
0.63062656 0.13596128 0.035390832
0.59388542 0.13992317 0.048098352
0.59349042 0.13941598 0.048090279
0.59309536 0.13890879 0.048082206
0.5934965 0.13791986 0.047694571
0.5923053 0.13789441 0.048066057
0.5919103 0.13738723 0.048057985
0.59151524 0.13688004 0.048049912
0.59032673 0.13685799 0.04842145
0.58913952 0.13683765 0.048793018
0.58874583 0.13633217 0.048784971
0.58756059 0.13631438 0.04915658
0.58637667 0.13629833 0.049528234
0.58519411 0.13628395 0.049899898
0.58401287 0.13627127 0.050271586
0.58283293 0.13626029 0.050643303
0.58244258 0.13575906 0.050635323
0.58126462 0.13575065 0.051007099
0.58087486 0.13525027 0.050999135
0.57969892 0.1352444 0.051370934
0.57930988 0.13474487 0.05136298
0.57892078 0.13424535 0.05135503
0.57853174 0.13374582 0.051347077
0.57814264 0.13324629 0.051339127
0.5777536 0.13274676 0.051331174
0.57736456 0.13224722 0.051323224
0.57697546 0.13174769 0.05131527
0.57658643 0.13124816 0.051307321
0.57619733 0.13074864 0.051299367
0.57580829 0.13024911 0.051291417
0.57541925 0.12974958 0.051283464
0.57503015 0.12925005 0.051275514
0.57464111 0.12875052 0.051267561
0.57425201 0.12825099 0.051259611
0.57386297 0.12775145 0.051251657
0.57347387 0.12725194 0.051243708
0.57308483 0.12675241 0.051235754
0.57269579 0.12625287 0.051227804
0.57230669 0.12575334 0.051219851
0.57191765 0.12525381 0.051211901
0.57152855 0.12475429 0.051203948
0.57113951 0.12425476 0.051195998
0.57075047 0.12375522 0.051188044
0.57036138 0.1232557 0.051180094
0.56997234 0.12275617 0.051172141
0.57035226 0.12174001 0.050784077
0.5699625 0.12123962 0.050776113
0.56957275 0.12073924 0.050768144
0.56918305 0.12023886 0.05076018
0.5687933 0.11973848 0.050752215
0.5684036 0.1192381 0.05074425
0.56801385 0.11873772 0.050736286
0.56838852 0.11771472 0.050348088
0.56799811 0.11721349 0.050340109
0.56837076 0.11618797 0.049951896
0.56797969 0.11568588 0.049943902
0.56758863 0.1151838 0.049935911
0.56795859 0.11415488 0.049547642
0.56756687 0.11365194 0.049539637
0.56717521 0.11314901 0.049531631
0.56678349 0.11264607 0.049523626
0.56639177 0.11214314 0.049515616
0.56600004 0.11164021 0.04950761
0.56636536 0.11060532 0.049119249
0.56597298 0.11010154 0.049111228
0.56558061 0.10959776 0.049103208
0.56518823 0.10909397 0.049095191
0.56479585 0.10859019 0.049087171
0.56440347 0.1080864 0.04907915
0.5647642 0.10704552 0.048690669
0.56437117 0.10654089 0.048682638
0.56397814 0.10603625 0.048674606
0.56433618 0.10499201 0.048286092
0.56394243 0.10448653 0.048278045
0.56354874 0.10398104 0.048269998
0.56315506 0.10347556 0.048261952
0.56276137 0.10297006 0.048253905
0.56236762 0.10246458 0.048245858
0.56272107 0.10141438 0.047857251
0.56232667 0.10090804 0.047849189
0.56193233 0.10040171 0.047841132
0.56153792 0.099895366 0.04783307
0.56114358 0.099389032 0.047825012
0.56074923 0.09888269 0.047816951
0.56035483 0.098376356 0.047808893
0.55996048 0.097870015 0.047800831
0.55956608 0.097363681 0.04779277
0.55917174 0.096857339 0.047784712
0.55877739 0.096351005 0.047776651
0.55838299 0.095844671 0.047768593
0.63834262 0.14327097 0.034127168
0.63710141 0.14318059 0.034498628
0.63668317 0.14264363 0.034490079
0.63626492 0.14210665 0.034481533
0.63584673 0.14156967 0.034472983
0.63542849 0.14103271 0.034464438
0.63501024 0.14049573 0.034455888
0.634592 0.13995875 0.034447342
0.63417381 0.13942179 0.034438793
0.63375556 0.13888481 0.034430247
0.63333732 0.13834783 0.034421697
0.63291913 0.13781087 0.034413151
0.63250089 0.13727389 0.034404602
0.63126826 0.13719459 0.034776237
0.63085067 0.13665846 0.034767702
0.63043314 0.13612233 0.034759168
0.59330744 0.13956834 0.047492705
0.59291238 0.13906115 0.047484633
0.59331322 0.13807248 0.047095995
0.59212232 0.13804677 0.047468483
0.59172732 0.1375396 0.047460411
0.59133226 0.1370324 0.047452338
0.59093726 0.13652521 0.047444265
0.58974969 0.13650377 0.04781682
0.58856344 0.13648403 0.048189402
0.58737856 0.13646598 0.048562013
0.58619493 0.13644966 0.048934672
0.58501267 0.13643503 0.049307335
0.58462095 0.13593209 0.04929933
0.58344066 0.13592 0.049672034
0.58226174 0.13590963 0.050044768
0.58187133 0.1354084 0.050036788
0.58069432 0.13540059 0.050409585
0.58030462 0.13490021 0.050401617
0.57991487 0.13439983 0.050393652
0.5787406 0.13439541 0.050766479
0.5783515 0.13389587 0.050758529
0.57796246 0.13339634 0.050750576
0.57757336 0.13289683 0.050742626
0.57718432 0.13239729 0.050734673
0.57679522 0.13189776 0.050726723
0.57640618 0.13139823 0.050718769
0.57601714 0.1308987 0.05071082
0.57562804 0.13039917 0.050702866
0.575239 0.12989964 0.050694916
0.5748499 0.12940012 0.050686963
0.57446086 0.12890059 0.050679013
0.57407182 0.12840106 0.05067106
0.57368273 0.12790152 0.05066311
0.57329369 0.12740199 0.050655156
0.57290459 0.12690246 0.050647207
0.57251555 0.12640293 0.050639253
0.57212645 0.12590341 0.050631303
0.57173741 0.12540388 0.05062335
0.57134837 0.12490435 0.0506154
0.57095927 0.12440482 0.050607447
0.57057023 0.12390529 0.050599497
0.57018113 0.12340576 0.050591543
0.57056141 0.1223907 0.050202489
0.57017171 0.12189032 0.050194524
0.56978196 0.12138994 0.05018656
0.56939226 0.12088957 0.050178595
0.56900251 0.12038918 0.05017063
0.56861275 0.1198888 0.050162662
0.56822306 0.11938842 0.050154697
0.5678333 0.11888804 0.050146732
0.56820768 0.11786529 0.049757533
0.56781727 0.11736406 0.049749557
0.56818962 0.1163388 0.049360335
0.56779855 0.11583672 0.049352344
0.56740749 0.11533463 0.049344353
0.56777716 0.11430596 0.048955079
0.56738544 0.11380303 0.048947074
0.56699371 0.11330009 0.048939068
0.56660199 0.11279716 0.048931062
0.56621027 0.11229423 0.048923057
0.56581855 0.11179129 0.048915051
0.56618363 0.11075667 0.048525684
0.56579125 0.11025288 0.048517667
0.56539881 0.10974909 0.048509646
0.56500643 0.10924531 0.048501626
0.56461406 0.10874153 0.048493605
0.56422168 0.10823774 0.048485588
0.56458211 0.10719712 0.048096105
0.56418908 0.10669249 0.04808807
0.56379604 0.10618785 0.048080038
0.56415379 0.10514387 0.047690522
0.5637601 0.10463838 0.047682475
0.56336635 0.10413289 0.047674429
0.56297266 0.10362741 0.047666382
0.56257898 0.10312192 0.047658335
0.56293273 0.10207283 0.047268741
0.56253839 0.10156649 0.047260679
0.56214398 0.10106015 0.047252622
0.56249511 0.10000765 0.046862967
0.56210005 0.099500462 0.046854895
0.56170505 0.098993272 0.046846822
0.56130999 0.098486088 0.046838749
0.56091499 0.097978897 0.046830673
0.56051993 0.097471707 0.0468226
0.56012493 0.096964523 0.046814527
0.55972987 0.096457332 0.046806455
0.55933487 0.095950142 0.046798382
0.5582003 0.095996775 0.047172021
0.63898635 0.14450818 0.033510622
0.63856745 0.14397037 0.033502061
0.63814861 0.14343254 0.0334935
0.6377297 0.14289472 0.033484939
0.6373108 0.14235689 0.033476375
0.6368919 0.14181907 0.033467814
0.636473 0.14128125 0.033459254
0.63605416 0.14074342 0.033450693
0.63481653 0.14065704 0.033823222
0.63439828 0.14012007 0.033814676
0.63398004 0.1395831 0.033806127
0.63356185 0.13904612 0.033797581
0.6331436 0.13850915 0.033789031
0.63272536 0.13797218 0.033780485
0.63230711 0.13743521 0.033771936
0.63188893 0.13689823 0.03376339
0.63065726 0.13681951 0.034136042
0.63023967 0.1362834 0.034127507
0.59351069 0.14171925 0.047300849
0.59391451 0.14073509 0.046911277
0.59312445 0.13972071 0.046895131
0.59272939 0.13921352 0.046887059
0.59312987 0.13822509 0.046497419
0.59193933 0.13819914 0.04687091
0.59154433 0.13769196 0.046862837
0.59114927 0.13718477 0.046854764
0.59075427 0.13667758 0.046846692
0.58956701 0.13665588 0.047220249
0.58838105 0.13663587 0.047593836
0.58719647 0.13661757 0.047967449
0.58601314 0.13660102 0.04834111
0.58562076 0.13609722 0.04833309
0.58443946 0.13608319 0.04870677
0.58325952 0.13607085 0.049080476
0.58286846 0.13556875 0.049072485
0.58169049 0.13555896 0.049446233
0.58130008 0.13505773 0.049438253
0.58012408 0.13505054 0.049812064
0.57973433 0.13455015 0.049804099
0.57934463 0.13404977 0.049796134
0.57895488 0.13354939 0.04978817
0.57856518 0.13304901 0.049780205
0.57817543 0.13254863 0.04977224
0.57778567 0.13204825 0.049764276
0.57739598 0.13154787 0.049756311
0.57700622 0.13104749 0.049748342
0.57661653 0.13054711 0.049740378
0.57622677 0.13004673 0.049732413
0.57583708 0.12954634 0.049724448
0.57544732 0.12904596 0.049716484
0.57505763 0.12854558 0.049708519
0.57466787 0.1280452 0.049700554
0.57427818 0.12754484 0.049692586
0.57388842 0.12704444 0.049684621
0.57349873 0.12654407 0.049676657
0.57310897 0.12604369 0.049668692
0.57271922 0.12554331 0.049660727
0.57232952 0.12504293 0.049652763
0.57193977 0.12454255 0.049644798
0.57155007 0.12404217 0.04963683
0.57116032 0.12354179 0.049628865
0.57077062 0.12304141 0.0496209
0.57038087 0.12254103 0.049612936
0.56999117 0.12204064 0.049604971
0.56960142 0.12154026 0.049597006
0.56921172 0.12103988 0.049589042
0.56882197 0.1205395 0.049581077
0.56843227 0.12003912 0.049573109
0.56804252 0.11953874 0.049565144
0.56765276 0.11903836 0.049557179
0.56802684 0.11801587 0.049166977
0.56763643 0.11751464 0.049158998
0.56800842 0.11648963 0.048768781
0.56761742 0.11598755 0.048760787
0.56722635 0.11548546 0.048752796
0.56759572 0.11445705 0.04836252
0.567204 0.11395411 0.048354514
0.56681228 0.11345118 0.048346508
0.56642056 0.11294825 0.048338503
0.56602883 0.11244531 0.048330497
0.56563711 0.11194238 0.048322491
0.56600183 0.11090801 0.047932122
0.56560946 0.11040422 0.047924101
0.56521708 0.10990044 0.047916085
0.5648247 0.10939665 0.047908064
0.56443232 0.10889287 0.047900043
0.56403995 0.10838909 0.047892023
0.56440008 0.10734872 0.047501538
0.56400704 0.10684408 0.047493506
0.56361395 0.10633945 0.047485474
0.5639714 0.10529572 0.047094956
0.56357771 0.10479023 0.047086909
0.56393313 0.10374395 0.04669635
0.56353879 0.10323761 0.046688288
0.56314439 0.10273127 0.046680227
0.56275004 0.10222493 0.046672169
0.56310219 0.10117439 0.046281543
0.56270713 0.1006672 0.04627347
0.56231213 0.10016002 0.046265393
0.56191707 0.099652827 0.046257321
0.56152207 0.099145636 0.046249248
0.56112701 0.098638453 0.046241175
0.56073201 0.098131262 0.046233099
0.56033695 0.097624071 0.046225026
0.55994195 0.097116888 0.046216954
0.55954689 0.096609697 0.046208881
0.55915189 0.096102506 0.046200808
0.55875683 0.095595323 0.046192732
0.63879234 0.14466976 0.032876953
0.63837343 0.14413193 0.032868393
0.63795453 0.1435941 0.032859832
0.63753563 0.14305629 0.032851271
0.63711673 0.14251846 0.032842707
0.63669789 0.14198063 0.032834146
0.63627899 0.14144281 0.032825585
0.63586009 0.14090499 0.032817025
0.63544118 0.14036717 0.032808464
0.63502228 0.13982934 0.032799903
0.63460344 0.13929152 0.032791343
0.63418454 0.1387537 0.032782778
0.63376564 0.13821587 0.032774217
0.63253164 0.1381335 0.033147819
0.6321134 0.13759652 0.03313927
0.63169515 0.13705954 0.033130724
0.63046384 0.13698058 0.033504378
0.63167119 0.13552675 0.032731414
0.59412652 0.14139464 0.046321779
0.59373146 0.14088745 0.046313703
0.59333646 0.14038026 0.04630563
0.5929414 0.13987307 0.046297558
0.5925464 0.13936588 0.046289485
0.59294659 0.13837773 0.045898844
0.59255093 0.13786969 0.045890756
0.59215522 0.13736165 0.045882668
0.5917595 0.13685361 0.045874581
0.59057122 0.13682994 0.046249118
0.58938432 0.13680798 0.046623677
0.58898991 0.13630165 0.046615615
0.58780497 0.13628224 0.04699022
0.58662134 0.13626453 0.04736485
0.58543897 0.13624857 0.047739528
0.58504659 0.13574478 0.047731508
0.5838663 0.13573134 0.048106205
0.58268732 0.13571958 0.048480928
0.58229625 0.1352175 0.048472933
0.58111924 0.13520831 0.048847701
0.58072883 0.13470708 0.048839722
0.58033848 0.13420585 0.048831742
0.57916409 0.1342001 0.049206581
0.57877433 0.13369972 0.049198616
0.57838464 0.13319933 0.049190652
0.57799488 0.13269895 0.049182687
0.57760519 0.13219857 0.049174722
0.57721543 0.13169819 0.049166758
0.57682568 0.13119781 0.049158793
0.57643598 0.13069743 0.049150828
0.57604623 0.13019705 0.04914286
0.57565653 0.12969667 0.049134895
0.57526678 0.12919629 0.049126931
0.57487708 0.12869591 0.049118966
0.57448733 0.12819552 0.049111001
0.57409763 0.12769514 0.049103037
0.57370788 0.12719476 0.049095072
0.57331818 0.12669438 0.049087103
0.57292843 0.126194 0.049079139
0.57253867 0.12569362 0.049071174
0.57214898 0.12519324 0.049063209
0.57175922 0.12469286 0.049055245
0.57136953 0.12419248 0.04904728
0.57097977 0.1236921 0.049039315
0.57059008 0.12319172 0.049031347
0.57020032 0.12269134 0.049023382
0.56981063 0.12219096 0.049015418
0.56942087 0.12169058 0.049007453
0.56979793 0.1206726 0.048616316
0.56940752 0.12017137 0.048608337
0.56901717 0.11967014 0.048600361
0.56862676 0.11916891 0.048592381
0.56823635 0.11866768 0.048584402
0.567846 0.11816645 0.048576422
0.56745559 0.11766521 0.048568446
0.56782728 0.11664046 0.04817722
0.56743622 0.11613838 0.048169229
0.56704521 0.11563629 0.048161238
0.56741422 0.11460813 0.04776996
0.5670225 0.11410519 0.047761954
0.56663078 0.11360227 0.047753949
0.56623906 0.11309933 0.047745943
0.5658474 0.1125964 0.047737937
0.56545568 0.11209346 0.047729932
0.56582004 0.11105935 0.04733856
0.56542766 0.11055557 0.04733054
0.56503528 0.11005178 0.047322519
0.56464291 0.109548 0.047314499
0.56425053 0.10904421 0.047306482
0.56385815 0.10854042 0.047298461
0.56421798 0.10750032 0.046906974
0.56382495 0.10699569 0.046898939
0.5641827 0.10595306 0.046507433
0.56378901 0.10544757 0.046499386
0.56414479 0.10440239 0.046107836
0.56375045 0.10389605 0.046099778
0.56410426 0.10284832 0.045708191
0.5637092 0.10234113 0.045700114
0.5633142 0.10183395 0.045692042
0.56291914 0.10132676 0.045683969
0.56326967 0.10027477 0.04529231
0.56287396 0.099766731 0.045284223
0.56247824 0.099258691 0.045276139
0.56208259 0.098750651 0.045268051
0.56168687 0.098242611 0.045259964
0.56129122 0.097734571 0.045251876
0.5608955 0.09722653 0.045243789
0.56049979 0.09671849 0.045235701
0.5593639 0.096762061 0.045611307
0.55896884 0.09625487 0.045603234
0.55857384 0.095747687 0.045595158
0.63777483 0.14527544 0.032626271
0.63817936 0.1442935 0.032234721
0.63776046 0.14375567 0.03222616
0.63734162 0.14321785 0.032217599
0.63692272 0.14268003 0.032209039
0.63650382 0.14214221 0.032200478
0.63608491 0.14160438 0.032191917
0.63566601 0.14106655 0.032183357
0.63524717 0.14052874 0.032174796
0.63482827 0.13999091 0.032166231
0.63440937 0.13945308 0.032157671
0.63399047 0.13891526 0.03214911
0.63357157 0.13837744 0.032140549
0.63233787 0.1382948 0.032515153
0.63191968 0.13775782 0.032506604
0.63150144 0.13722086 0.032498058
0.59394354 0.14154701 0.045724206
0.59354848 0.14103982 0.045716133
0.59315348 0.14053263 0.045708057
0.59275842 0.14002544 0.045699984
0.59236342 0.13951825 0.045691911
0.5927633 0.13853034 0.045300268
0.59236759 0.1380223 0.04529218
0.59197193 0.13751426 0.045284092
0.59157622 0.13700622 0.045276005
0.59038824 0.13698231 0.045651544
0.58999324 0.13647512 0.045643471
0.58880723 0.13645375 0.046019047
0.58762258 0.13643409 0.04639465
0.58643925 0.13641614 0.046770282
0.58604622 0.13591149 0.04676225
0.58486485 0.13589613 0.047137946
0.58368486 0.13588242 0.047513645
0.58329314 0.13537948 0.047505639
0.58211511 0.13536833 0.047881376
0.58172405 0.13486625 0.047873385
0.58054799 0.13485765 0.048249166
0.58015764 0.13435642 0.048241187
0.57976723 0.13385519 0.048233207
0.57859379 0.13385004 0.048609067
0.5782041 0.13334966 0.048601098
0.57781434 0.13284928 0.048593134
0.57742465 0.1323489 0.048585169
0.57703489 0.13184851 0.048577204
0.5766452 0.13134813 0.04856924
0.57625544 0.13084775 0.048561275
0.57586569 0.13034737 0.04855331
0.57547599 0.12984699 0.048545342
0.57508624 0.12934661 0.048537377
0.57469654 0.12884623 0.048529413
0.57430679 0.12834585 0.048521448
0.57391709 0.12784547 0.048513483
0.57352734 0.12734509 0.048505519
0.57313764 0.1268447 0.048497554
0.57274789 0.12634432 0.048489589
0.57235819 0.12584394 0.048481621
0.57196844 0.12534356 0.048473656
0.57157868 0.12484319 0.048465692
0.57118899 0.12434281 0.048457727
0.57079923 0.12384243 0.048449762
0.57040954 0.12334204 0.048441797
0.57001978 0.12284166 0.048433833
0.57039785 0.12182564 0.04804172
0.5700075 0.12132441 0.04803374
0.56961709 0.12082317 0.048025761
0.56922668 0.12032194 0.048017781
0.56883633 0.11982071 0.048009805
0.56844592 0.11931948 0.048001826
0.56805551 0.11881825 0.047993846
0.56766516 0.11831702 0.047985867
0.56727475 0.11781579 0.047977891
0.56764615 0.11679129 0.047585662
0.56725508 0.11628921 0.047577672
0.56686401 0.11578712 0.047569677
0.56723279 0.11475921 0.0471774
0.56684107 0.11425629 0.047169395
0.56644934 0.11375335 0.047161389
0.56605762 0.11325042 0.047153383
0.5656659 0.11274748 0.047145378
0.56527418 0.11224455 0.047137372
0.5656383 0.11121069 0.046744995
0.56524593 0.1107069 0.046736978
0.56485355 0.11020312 0.046728957
0.56446117 0.10969934 0.046720937
0.56406879 0.10919555 0.046712916
0.56367642 0.10869177 0.0467049
0.56403589 0.10765192 0.046312407
0.56439406 0.1066104 0.04591991
0.56400037 0.10610491 0.045911863
0.56360662 0.10559943 0.045903817
0.5639621 0.1045545 0.045511268
0.56356776 0.10404816 0.045503207
0.56392127 0.10300069 0.045110617
0.56352621 0.10249349 0.04510254
0.56387776 0.10144347 0.04470991
0.56348205 0.10093543 0.044701822
0.56308633 0.10042739 0.044693734
0.56269068 0.099919349 0.044685647
0.56303889 0.098865032 0.044292927
0.56264251 0.098356143 0.044284828
0.5622462 0.097847253 0.044276726
0.56184983 0.097338364 0.044268627
0.56145346 0.096829467 0.044260524
0.5603165 0.096871115 0.044637125
0.55918092 0.096914425 0.045013733
0.55878586 0.096407235 0.045005661
0.55839086 0.095900051 0.044997584
0.63758111 0.14543676 0.031993605
0.63798535 0.14445506 0.031601053
0.63756645 0.14391725 0.031592492
0.63714755 0.14337942 0.031583931
0.63672864 0.14284159 0.031575371
0.63630974 0.14230376 0.03156681
0.6358909 0.14176595 0.031558249
0.635472 0.14122812 0.031549688
0.6350531 0.1406903 0.031541124
0.6346342 0.14015247 0.031532563
0.6342153 0.13961466 0.031524003
0.63379645 0.13907683 0.031515442
0.63337755 0.138539 0.031506881
0.63214415 0.13845612 0.031882487
0.63172591 0.13791914 0.031873938
0.63130766 0.13738216 0.031865392
0.63007694 0.13730268 0.03224105
0.59376055 0.14169937 0.045126632
0.59336549 0.14119218 0.045118559
0.59297049 0.14068499 0.045110483
0.59257543 0.1401778 0.04510241
0.59218043 0.13967061 0.045094337
0.59258002 0.13868296 0.044701692
0.59218431 0.13817492 0.044693604
0.59178859 0.13766688 0.044685517
0.59139293 0.13715884 0.044677429
0.59020525 0.13713467 0.04505397
0.58981025 0.13662748 0.045045897
0.58862454 0.13660586 0.045422476
0.58823019 0.13609953 0.045414414
0.5870465 0.13608046 0.045791037
0.58586413 0.1360631 0.046167683
0.58547109 0.13555846 0.046159651
0.58429068 0.13554369 0.04653636
0.58389831 0.1350399 0.046528343
0.58271992 0.13502765 0.046905071
0.58154291 0.13501708 0.047281828
0.58115184 0.134515 0.047273833
0.5799768 0.134507 0.047650632
0.57958639 0.13400577 0.047642652
0.57919598 0.13350454 0.047634676
0.57880563 0.13300331 0.047626697
0.57841522 0.13250208 0.047618717
0.5772441 0.13249922 0.047995616
0.57685435 0.13199882 0.047987651
0.57646465 0.13149846 0.047979686
0.5760749 0.13099808 0.047971722
0.57568514 0.13049769 0.047963757
0.57529545 0.12999731 0.047955789
0.57490569 0.12949693 0.047947824
0.574516 0.12899655 0.047939859
0.57412624 0.12849617 0.047931895
0.57373655 0.12799579 0.04792393
0.57334679 0.12749541 0.047915965
0.5729571 0.12699503 0.047908001
0.57256734 0.12649465 0.047900036
0.57217765 0.12599427 0.047892068
0.57178789 0.12549388 0.047884103
0.5713982 0.1249935 0.047876138
0.57100844 0.12449312 0.047868174
0.57061869 0.12399274 0.047860209
0.57022899 0.12349236 0.047852244
0.56983924 0.12299198 0.04784428
0.57021701 0.12197621 0.047451165
0.5698266 0.12147498 0.047443185
0.56943625 0.12097375 0.047435205
0.56904584 0.12047252 0.04742723
0.56865543 0.11997129 0.04741925
0.56826508 0.11947006 0.04741127
0.56787467 0.11896882 0.047403291
0.56748426 0.11846759 0.047395311
0.56709391 0.11796636 0.047387335
0.56746501 0.11694212 0.046994105
0.56707394 0.11644004 0.046986114
0.56668288 0.11593796 0.04697812
0.56705129 0.1149103 0.046584837
0.56665957 0.11440737 0.046576831
0.56626791 0.11390444 0.046568826
0.56587619 0.1134015 0.04656082
0.56548446 0.11289857 0.046552815
0.56509274 0.11239564 0.046544809
0.56545651 0.11136203 0.046151433
0.56506413 0.11085825 0.046143413
0.56467175 0.11035446 0.046135392
0.56427938 0.10985067 0.046127375
0.56463993 0.10881279 0.045733906
0.56424689 0.10830815 0.045725875
0.56460536 0.10726774 0.045332387
0.56421167 0.10676225 0.04532434
0.56381798 0.10625676 0.045316298
0.56417382 0.10521295 0.044922754
0.56377941 0.10470661 0.044914696
0.56413329 0.10366024 0.044521116
0.56373829 0.10315305 0.044513043
0.56409013 0.10210413 0.044119421
0.56369442 0.10159609 0.044111334
0.56404436 0.10054458 0.043717649
0.56364799 0.10003569 0.04370955
0.56325167 0.0995268 0.043701448
0.5628553 0.099017903 0.043693349
0.56245893 0.098509014 0.043685246
0.56206256 0.098000124 0.043677147
0.56166625 0.097491235 0.043669045
0.56126988 0.096982345 0.043660946
0.56013322 0.097023733 0.044038549
0.63821018 0.14515446 0.030975945
0.63779128 0.14461663 0.030967385
0.63737237 0.14407881 0.030958824
0.63695347 0.14354099 0.030950263
0.63653463 0.14300317 0.030941701
0.63611573 0.14246534 0.03093314
0.63569683 0.14192751 0.030924579
0.63527793 0.1413897 0.030916018
0.63485903 0.14085187 0.030907456
0.63444018 0.14031404 0.030898895
0.63402128 0.13977621 0.030890334
0.63360238 0.1392384 0.030881774
0.63318348 0.13870057 0.030873211
0.63195038 0.13861743 0.031249819
0.63153219 0.13808045 0.031241272
0.63030106 0.13799986 0.031617921
0.59278744 0.14083736 0.044512909
0.59239244 0.14033017 0.044504836
0.59199739 0.13982297 0.044496763
0.59239668 0.13883558 0.044103116
0.59200102 0.13832754 0.044095028
0.59160531 0.1378195 0.044086941
0.59120959 0.13731146 0.044078853
0.59081393 0.13680342 0.044070765
0.58962721 0.13677984 0.044448324
0.58923221 0.13627265 0.044440247
0.5880475 0.13625163 0.044817843
0.58686411 0.13623232 0.045195468
0.58647043 0.13572682 0.045187421
0.58528906 0.13571006 0.045565084
0.58489603 0.13520542 0.045557052
0.58371657 0.13519125 0.045934778
0.58332419 0.13468745 0.045926761
0.58214676 0.13467579 0.046304505
0.5809707 0.13466583 0.046682276
0.58057964 0.13416375 0.046674285
0.57940555 0.13415635 0.047052097
0.57901514 0.13365512 0.047044121
0.57862478 0.13315387 0.047036141
0.57823437 0.13265264 0.047028162
0.57784396 0.13215141 0.047020182
0.57745361 0.13165018 0.047012202
0.5770632 0.13114895 0.047004227
0.57667279 0.13064772 0.046996247
0.57628244 0.13014649 0.046988267
0.57589203 0.12964526 0.046980288
0.57550162 0.12914403 0.046972312
0.57511127 0.1286428 0.046964332
0.57472086 0.12814157 0.046956353
0.57433045 0.12764034 0.046948373
0.5739401 0.12713911 0.046940397
0.57354969 0.12663788 0.046932418
0.57315928 0.12613663 0.046924438
0.57276893 0.1256354 0.046916459
0.57237852 0.12513417 0.046908479
0.57198811 0.12463295 0.046900503
0.57159775 0.12413171 0.046892524
0.57120734 0.12363048 0.046884544
0.57081693 0.12312925 0.046876565
0.57042658 0.12262802 0.046868589
0.57003617 0.12212679 0.046860609
0.56964576 0.12162556 0.04685263
0.56925541 0.12112433 0.04684465
0.568865 0.1206231 0.04683667
0.56847459 0.12012186 0.046828695
0.56808424 0.11962063 0.046820715
0.56769383 0.1191194 0.046812735
0.56730342 0.11861817 0.046804756
0.56691307 0.11811694 0.04679678
0.56728381 0.11709295 0.046402548
0.5668928 0.11659086 0.046394557
0.56650174 0.11608879 0.046386562
0.56686985 0.11506139 0.045992278
0.56647813 0.11455846 0.045984272
0.56608641 0.11405552 0.045976266
0.56569469 0.11355259 0.045968261
0.56530297 0.11304966 0.045960255
0.56566715 0.11201715 0.045565888
0.56527478 0.11151338 0.045557868
0.5648824 0.11100959 0.045549851
0.56449002 0.1105058 0.04554183
0.56485087 0.10946902 0.045147374
0.56445783 0.10896438 0.045139343
0.5640648 0.10845975 0.045131307
0.56442297 0.10741959 0.044736821
0.56402928 0.1069141 0.044728775
0.56438547 0.10587139 0.044334244
0.56399113 0.10536505 0.044326182
0.5643453 0.10431979 0.043931615
0.5639503 0.10381261 0.043923542
0.5643025 0.10276479 0.043528929
0.56390685 0.10225675 0.043520845
0.56351113 0.1017487 0.043512758
0.56386077 0.10069745 0.043118071
0.5634644 0.10018856 0.043109968
0.56306803 0.099679671 0.04310187
0.56267166 0.099170782 0.043093767
0.56227535 0.098661892 0.043085668
0.56187898 0.098153003 0.043077566
0.56148261 0.097644113 0.043069467
0.56108624 0.097135223 0.043061364
0.55994987 0.097176351 0.043439973
0.6380161 0.14531602 0.030342277
0.63759726 0.14477821 0.030333716
0.63717836 0.14424038 0.030325156
0.63675946 0.14370255 0.030316595
0.63634056 0.14316472 0.030308032
0.63592166 0.14262691 0.030299472
0.63550276 0.14208908 0.030290911
0.63508391 0.14155126 0.03028235
0.63466501 0.14101343 0.030273788
0.63424611 0.14047562 0.030265227
0.63382721 0.13993779 0.030256666
0.63340831 0.13939996 0.030248104
0.63298947 0.13886213 0.030239543
0.63257056 0.13832432 0.030230982
0.63133842 0.13824177 0.030608606
0.5918085 0.14146711 0.044301871
0.59220946 0.14048253 0.043907262
0.5918144 0.13997534 0.04389919
0.59221339 0.1389882 0.04350454
0.59181768 0.13848016 0.043496452
0.59142202 0.13797212 0.043488365
0.59102631 0.13746408 0.043480277
0.59063059 0.13695604 0.043472189
0.58944422 0.13693221 0.04385075
0.58904922 0.13642502 0.043842673
0.58786482 0.13640374 0.044221271
0.58747047 0.1358974 0.044213213
0.58628803 0.13587868 0.044591852
0.58589435 0.13537319 0.044583805
0.58471394 0.13535702 0.044962484
0.5843209 0.13485238 0.044954453
0.5831424 0.1348388 0.045333195
0.58275002 0.13433501 0.045325179
0.58157361 0.13432394 0.04570394
0.5803985 0.13431458 0.046082728
0.58000743 0.1338125 0.046074733
0.57961637 0.13331041 0.046066742
0.57844388 0.13330445 0.046445586
0.57805353 0.13280322 0.046437606
0.57766312 0.13230199 0.046429627
0.57727271 0.13180076 0.046421651
0.57688236 0.13129953 0.046413671
0.57649195 0.1307983 0.046405692
0.5761016 0.13029706 0.046397712
0.57571119 0.12979583 0.046389736
0.57532078 0.1292946 0.046381757
0.57493043 0.12879337 0.046373777
0.57454002 0.12829214 0.046365798
0.57414961 0.12779091 0.046357818
0.57375926 0.12728968 0.046349842
0.57336885 0.12678844 0.046341863
0.57297844 0.12628721 0.046333883
0.57258809 0.12578598 0.046325903
0.57219768 0.12528475 0.046317928
0.57180727 0.12478352 0.046309948
0.57141691 0.12428229 0.046301968
0.5710265 0.12378106 0.046293989
0.57063609 0.12327982 0.046286009
0.57024574 0.12277859 0.046278033
0.56985533 0.12227736 0.046270054
0.57023108 0.12126043 0.045874927
0.56984007 0.12075835 0.045866936
0.56944901 0.12025627 0.045858942
0.56905794 0.11975419 0.045850951
0.56866688 0.11925211 0.04584296
0.56827581 0.11875003 0.045834966
0.5678848 0.11824794 0.045826975
0.56749374 0.11774586 0.045818981
0.56710267 0.11724378 0.04581099
0.5667116 0.11674169 0.045802999
0.5663206 0.11623961 0.045795005
0.56668842 0.11521248 0.045399718
0.5662967 0.11470954 0.045391712
0.56590497 0.11420661 0.045383707
0.56551325 0.11370368 0.045375701
0.56587774 0.11267228 0.044980343
0.56548536 0.1121685 0.044972327
0.56509298 0.11166471 0.044964306
0.5647006 0.11116093 0.044956286
0.56506187 0.11012525 0.044560842
0.56466883 0.10962062 0.044552807
0.5642758 0.10911598 0.044544775
0.56463432 0.10807693 0.044149298
0.56424063 0.10757144 0.044141252
0.56459719 0.10652984 0.043745734
0.56420279 0.1060235 0.043737672
0.56380844 0.10551716 0.043729614
0.56416231 0.10447215 0.043334041
0.56451494 0.10342544 0.042938441
0.56411922 0.10291741 0.042930353
0.5637235 0.10240937 0.04292227
0.5640735 0.10135922 0.042526592
0.56367713 0.10085033 0.042518493
0.56328076 0.10034144 0.04251039
0.56288445 0.09983255 0.042502292
0.56248808 0.09932366 0.042494189
0.56209171 0.098814771 0.04248609
0.56169534 0.098305874 0.042477988
0.56129903 0.097796984 0.042469889
0.56090266 0.097288094 0.042461786
0.63782209 0.14547759 0.029708609
0.63740319 0.14493977 0.029700046
0.63698429 0.14440194 0.029691486
0.63656539 0.14386413 0.029682925
0.63614649 0.1433263 0.029674364
0.63572764 0.14278847 0.029665802
0.63530874 0.14225066 0.029657241
0.63488984 0.14171283 0.02964868
0.63447094 0.141175 0.02964012
0.63405204 0.14063717 0.029631557
0.6336332 0.14009936 0.029622996
0.63321429 0.13956153 0.029614436
0.63279539 0.13902371 0.029605875
0.63237649 0.13848588 0.029597312
0.6311447 0.13840307 0.02997594
0.59202647 0.14063489 0.043309689
0.59163141 0.1401277 0.043301616
0.59203011 0.13914081 0.04290596
0.59163439 0.13863277 0.042897873
0.59123868 0.13812473 0.042889789
0.59084302 0.13761671 0.042881701
0.59044731 0.13710867 0.042873614
0.59005165 0.13660063 0.042865526
0.58886623 0.13657738 0.043245099
0.58847117 0.13607019 0.043237027
0.58728778 0.13604951 0.043616641
0.58689338 0.13554318 0.04360858
0.58571196 0.13552505 0.043988239
0.58531827 0.13501956 0.043980192
0.58413881 0.13500398 0.044359889
0.58374578 0.13449934 0.044351853
0.58256829 0.13448636 0.044731613
0.58217591 0.13398257 0.044723596
0.58100045 0.13397209 0.045103371
0.5798263 0.13396333 0.045483176
0.57943523 0.13346125 0.045475185
0.57904416 0.13295916 0.04546719
0.57787269 0.13295379 0.045847051
0.57748228 0.13245256 0.045839071
0.57709187 0.13195133 0.045831095
0.57670152 0.1314501 0.045823116
0.57631111 0.13094887 0.045815136
0.5759207 0.13044764 0.045807157
0.57553035 0.12994641 0.045799177
0.57513994 0.12944518 0.045791201
0.57474953 0.12894395 0.045783222
0.57435918 0.12844272 0.045775242
0.57396877 0.12794149 0.045767263
0.57357836 0.12744026 0.045759287
0.57318801 0.12693901 0.045751307
0.5727976 0.12643778 0.045743328
0.57240719 0.12593655 0.045735348
0.57201684 0.12543532 0.045727372
0.57162642 0.12493409 0.045719393
0.57123601 0.12443286 0.045711413
0.57084566 0.12393163 0.045703433
0.57045525 0.1234304 0.045695454
0.5700649 0.12292917 0.045687478
0.57044101 0.12191335 0.04529136
0.57004994 0.12141126 0.04528337
0.56965888 0.12090918 0.045275379
0.56926787 0.1204071 0.045267384
0.5688768 0.11990502 0.045259394
0.56848574 0.11940294 0.045251399
0.56809467 0.11890086 0.045243409
0.5677036 0.11839877 0.045235418
0.5673126 0.11789669 0.045227423
0.56692153 0.11739461 0.045219433
0.56653047 0.11689252 0.045211438
0.56689864 0.1158665 0.044815164
0.56650692 0.11536356 0.044807158
0.5661152 0.11486063 0.044799153
0.56572348 0.11435769 0.044791147
0.56608838 0.11332741 0.044394802
0.565696 0.11282363 0.044386782
0.56530362 0.11231984 0.044378761
0.56491125 0.11181606 0.044370744
0.56527281 0.11078148 0.043974306
0.56487978 0.11027685 0.043966275
0.56448674 0.10977221 0.043958243
0.56484562 0.10873426 0.043561775
0.56445193 0.10822878 0.043553729
0.56480885 0.10718828 0.04315722
0.5644145 0.10668195 0.043149162
0.5640201 0.10617561 0.043141101
0.56437439 0.10513171 0.04274454
0.56397933 0.10462452 0.042736467
0.56433159 0.10357807 0.042339865
0.56393594 0.10307003 0.042331778
0.56428623 0.10202099 0.041935112
0.56388986 0.1015121 0.041927014
0.56349355 0.10100321 0.041918911
0.56309718 0.10049431 0.041910812
0.56270081 0.099985421 0.04190271
0.56230444 0.099476531 0.041894611
0.56190813 0.098967642 0.041886508
0.56151175 0.098458752 0.04187841
0.56111538 0.097949862 0.041870307
0.56071901 0.097440973 0.041862208
0.63720912 0.14510134 0.029066378
0.63679028 0.14456351 0.029057818
0.63637137 0.14402568 0.029049257
0.63595247 0.14348787 0.029040696
0.63553357 0.14295004 0.029032134
0.63511467 0.14241222 0.029023573
0.63469577 0.14187439 0.029015012
0.63427693 0.14133658 0.029006451
0.63385803 0.14079875 0.028997889
0.63343912 0.14026092 0.028989328
0.63302022 0.13972309 0.028980767
0.63260132 0.13918528 0.028972205
0.63218248 0.13864745 0.028963644
0.59184349 0.14078726 0.042712115
0.59144843 0.14028007 0.042704042
0.59184676 0.13929343 0.042307384
0.59145111 0.13878541 0.042299297
0.59105539 0.13827737 0.042291213
0.59065974 0.13776933 0.042283125
0.59026402 0.13726129 0.042275038
0.58986831 0.13675325 0.04226695
0.58868325 0.13672975 0.042647526
0.58828819 0.13622256 0.042639453
0.5871051 0.13620162 0.04302007
0.58671069 0.13569528 0.043012012
0.58631635 0.13518895 0.04300395
0.58513588 0.13517141 0.043384623
0.58474219 0.13466592 0.043376576
0.58356369 0.13465095 0.04375729
0.58317065 0.1341463 0.043749254
0.58199412 0.13413392 0.044130031
0.58160174 0.13363013 0.04412201
0.58042723 0.13362025 0.044502806
0.57925409 0.13361208 0.044883627
0.57886302 0.13310999 0.044875633
0.57847196 0.13260791 0.044867642
0.57808089 0.13210583 0.044859648
0.57768989 0.13160375 0.044851657
0.57729882 0.13110167 0.044843666
0.57690775 0.13059957 0.044835672
0.57651669 0.13009749 0.044827681
0.57612562 0.12959541 0.044819687
0.57573462 0.12909333 0.044811696
0.57534355 0.12859125 0.044803705
0.57495248 0.12808917 0.044795711
0.57456142 0.12758708 0.04478772
0.57417035 0.127085 0.044779725
0.57377934 0.12658292 0.044771735
0.57338828 0.12608084 0.044763744
0.57299721 0.12557876 0.044755749
0.57260615 0.12507667 0.044747759
0.57221514 0.12457459 0.044739764
0.57182407 0.12407251 0.044731773
0.57143301 0.12357043 0.044723783
0.57104194 0.12306835 0.044715788
0.57065088 0.12256626 0.044707797
0.57025987 0.12206418 0.044699803
0.5698688 0.1215621 0.044691812
0.56947774 0.12106001 0.044683818
0.56908667 0.12055793 0.044675827
0.56869566 0.12005585 0.044667836
0.5683046 0.11955377 0.044659842
0.56791353 0.11905169 0.044651851
0.56752247 0.11854961 0.044643857
0.5671314 0.11804752 0.044635866
0.56674039 0.11754544 0.044627875
0.56710893 0.11652052 0.04423061
0.56671721 0.11601758 0.044222604
0.56632549 0.11551465 0.044214595
0.56593376 0.11501171 0.044206589
0.56629896 0.11398254 0.043809257
0.56590658 0.11347875 0.043801237
0.56551421 0.11297496 0.04379322
0.56512183 0.11247119 0.0437852
0.56472945 0.1119674 0.043777179
0.56509078 0.11093308 0.043379743
0.56469768 0.11042845 0.043371707
0.56430465 0.10992381 0.043363675
0.56466323 0.10888612 0.042966209
0.56426954 0.10838063 0.042958163
0.56462616 0.1073404 0.042560652
0.56423181 0.10683405 0.04255259
0.5645864 0.10579126 0.042155042
0.5641914 0.10528407 0.042146966
0.56454402 0.10423873 0.041749377
0.56414831 0.10373069 0.041741289
0.56449896 0.10268275 0.041343637
0.56410265 0.10217386 0.041335534
0.56370628 0.10166497 0.041327436
0.56330991 0.10115608 0.041319333
0.56291354 0.10064719 0.041311234
0.56251723 0.1001383 0.041303132
0.56212085 0.09962941 0.041295033
0.56172448 0.09912052 0.04128693
0.56132811 0.09861163 0.041278832
0.5609318 0.098102741 0.041270729
0.56053543 0.097593844 0.04126263
0.63619417 0.14570636 0.028821727
0.6365962 0.14472508 0.028424149
0.6361773 0.14418726 0.028415589
0.6357584 0.14364943 0.028407026
0.6353395 0.1431116 0.028398465
0.63492066 0.14257379 0.028389905
0.63450176 0.14203596 0.028381344
0.63408285 0.14149813 0.028372781
0.63366395 0.14096032 0.028364221
0.63324505 0.14042249 0.02835566
0.63364047 0.13943271 0.027957946
0.63322091 0.13889404 0.027949372
0.63198841 0.13880903 0.028329976
0.59166044 0.14093962 0.042114541
0.59126544 0.14043243 0.042106468
0.59166348 0.13944606 0.041708808
0.59126776 0.13893802 0.041700721
0.59087211 0.13842998 0.041692633
0.59047639 0.13792194 0.041684546
0.59008074 0.1374139 0.041676462
0.58968502 0.13690586 0.041668374
0.58928931 0.13639782 0.041660286
0.5881052 0.13637492 0.042041879
0.58771014 0.13586774 0.042033806
0.586528 0.13584739 0.04241544
0.58613366 0.13534106 0.042407379
0.58495349 0.13532327 0.042789053
0.5845598 0.13481778 0.042781007
0.58338159 0.13480254 0.043162722
0.58298856 0.13429791 0.04315469
0.58181238 0.13428526 0.043536469
0.58142 0.13378146 0.043528449
0.58102763 0.13327768 0.043520428
0.57985407 0.1332684 0.043902241
0.57868189 0.13326082 0.044284075
0.57829082 0.13275874 0.044276085
0.57789975 0.13225666 0.044268094
0.57750869 0.13175458 0.0442601
0.57711762 0.1312525 0.044252109
0.57672662 0.1307504 0.044244114
0.57633555 0.13024832 0.044236124
0.57594448 0.12974624 0.044228129
0.57555342 0.12924416 0.044220138
0.57516241 0.12874208 0.044212148
0.57477134 0.12824 0.044204153
0.57438028 0.12773791 0.044196162
0.57398921 0.12723583 0.044188168
0.57359815 0.12673375 0.044180177
0.57320714 0.12623167 0.044172186
0.57281607 0.12572959 0.044164192
0.57242501 0.1252275 0.044156201
0.57203394 0.12472542 0.044148207
0.57164294 0.12422334 0.044140216
0.57125187 0.12372126 0.044132225
0.5708608 0.12321918 0.044124231
0.57046974 0.12271709 0.04411624
0.57007867 0.12221501 0.044108246
0.56968766 0.12171293 0.044100255
0.5692966 0.12121084 0.044092264
0.56890553 0.12070876 0.04408427
0.56851447 0.12020668 0.044076279
0.56812346 0.1197046 0.044068284
0.56773239 0.11920252 0.044060294
0.56734133 0.11870044 0.044052303
0.56771088 0.11767747 0.043654058
0.56731915 0.11717454 0.043646052
0.56692743 0.1166716 0.043638047
0.56653571 0.11616867 0.043630041
0.56690198 0.11514144 0.043231733
0.5665096 0.11463767 0.043223713
0.56611723 0.11413388 0.043215692
0.56572485 0.11363009 0.043207675
0.56533247 0.11312631 0.043199655
0.56494009 0.11262252 0.043191634
0.56454772 0.11211874 0.043183617
0.56490868 0.11108468 0.042785175
0.56451565 0.11058004 0.042777143
0.56487459 0.10954346 0.042378686
0.5644809 0.10903797 0.04237064
0.56408715 0.10853249 0.042362593
0.56444347 0.1074925 0.04196408
0.56479841 0.10645081 0.041565541
0.56440341 0.10594363 0.041557468
0.56475639 0.10489938 0.041158885
0.56436068 0.10439134 0.041150801
0.56396502 0.1038833 0.041142713
0.56431538 0.10283563 0.040744055
0.56391901 0.10232674 0.040735956
0.56352264 0.10181785 0.040727854
0.56312633 0.10130896 0.040719755
0.56272995 0.10080007 0.040711652
0.56233358 0.10029118 0.040703554
0.56193727 0.099782281 0.040695451
0.5615409 0.099273391 0.040687352
0.56114453 0.098764502 0.04067925
0.56074816 0.098255612 0.040671151
0.56035185 0.097746722 0.040663049
0.55995548 0.097237833 0.04065495
0.63640213 0.14488664 0.027790479
0.63598329 0.14434883 0.027781919
0.63556439 0.143811 0.027773358
0.63514549 0.14327317 0.027764797
0.63472658 0.14273535 0.027756235
0.63512433 0.14174923 0.027357575
0.63470477 0.14121056 0.027348999
0.63428521 0.14067188 0.027340425
0.63386565 0.1401332 0.02733185
0.6334461 0.13959453 0.027323274
0.63302654 0.13905586 0.0273147
0.63260704 0.13851719 0.027306125
0.63137549 0.13843276 0.027687745
0.59147745 0.14109199 0.041516967
0.59108245 0.1405848 0.041508894
0.5914802 0.13959868 0.041110232
0.59108448 0.13909064 0.041102145
0.59068882 0.1385826 0.041094057
0.59029311 0.13807456 0.04108597
0.58989739 0.13756652 0.041077886
0.58950174 0.13705848 0.041069798
0.58910602 0.13655044 0.041061711
0.58871031 0.1360424 0.041053623
0.58752716 0.13602011 0.041436233
0.58634531 0.1359995 0.041818868
0.58595097 0.13549316 0.041810811
0.58555663 0.13498683 0.041802749
0.58437741 0.13496964 0.042185441
0.58398372 0.13446414 0.042177394
0.58280653 0.13444951 0.042560123
0.58241343 0.13394487 0.042552091
0.58123821 0.13393281 0.042934887
0.58084583 0.13342902 0.042926867
0.57967263 0.13341948 0.043309677
0.57928091 0.13291655 0.043301672
0.57810968 0.13290957 0.043684527
0.57771862 0.13240749 0.043676533
0.57732755 0.13190541 0.043668542
0.57693648 0.13140333 0.043660551
0.57654542 0.13090125 0.043652557
0.57615441 0.13039915 0.043644566
0.57576334 0.12989707 0.043636572
0.57537228 0.12939499 0.043628581
0.57498121 0.12889291 0.043620586
0.57459021 0.12839083 0.043612596
0.57419914 0.12788874 0.043604605
0.57380807 0.12738666 0.04359661
0.57341701 0.12688458 0.04358862
0.57302594 0.1263825 0.043580625
0.57263494 0.12588042 0.043572634
0.57224387 0.12537834 0.043564644
0.5718528 0.12487625 0.043556649
0.57146174 0.12437417 0.043548658
0.57107073 0.12387209 0.043540664
0.57067966 0.12337001 0.043532673
0.5702886 0.12286792 0.043524683
0.56989753 0.12236584 0.043516688
0.56950647 0.12186376 0.043508697
0.56911546 0.12136167 0.043500703
0.56872439 0.12085959 0.043492712
0.56833333 0.12035751 0.043484721
0.56794226 0.11985543 0.043476727
0.56755126 0.11935335 0.043468736
0.56792116 0.11833148 0.043069504
0.56752944 0.11782856 0.043061499
0.56713772 0.11732562 0.043053493
0.566746 0.11682269 0.043045487
0.56711257 0.11579657 0.042646188
0.56672019 0.11529279 0.042638168
0.56632781 0.114789 0.042630151
0.56593543 0.11428522 0.04262213
0.56554306 0.11378144 0.04261411
0.56515068 0.11327765 0.042606093
0.5647583 0.11277387 0.042598072
0.56511962 0.11174091 0.042198643
0.56472659 0.11123627 0.042190611
0.56433356 0.11073164 0.042182576
0.5646922 0.10969532 0.041783117
0.56429851 0.10918982 0.04177507
0.56465513 0.10815095 0.04137557
0.56426078 0.10764461 0.041367508
0.56461543 0.10660318 0.040967967
0.56422043 0.10609599 0.040959895
0.56457311 0.105052 0.040560309
0.56417739 0.10454396 0.040552225
0.56452811 0.10349739 0.04015258
0.56413174 0.1029885 0.040144477
0.56373543 0.10247961 0.040136378
0.56333905 0.10197072 0.040128276
0.56294268 0.10146183 0.040120177
0.56254637 0.10095294 0.040112074
0.56215 0.10044405 0.040103976
0.56175363 0.099935159 0.040095873
0.56135726 0.09942627 0.040087774
0.56096095 0.09891738 0.040079672
0.56056458 0.09840849 0.040071573
0.56016821 0.097899601 0.040063471
0.55977184 0.097390711 0.040055372
0.63578922 0.14451039 0.027148249
0.63618863 0.14352709 0.026748626
0.63576907 0.14298841 0.026740052
0.63534951 0.14244974 0.026731476
0.6357463 0.14146301 0.026331799
0.63532609 0.14092349 0.02632321
0.63490587 0.14038396 0.026314624
0.63448566 0.13984445 0.026306035
0.63406545 0.13930492 0.026297446
0.63364524 0.13876539 0.026288858
0.63322502 0.13822587 0.026280269
0.63280481 0.13768634 0.026271682
0.59129447 0.14124435 0.040919393
0.59089947 0.14073716 0.040911321
0.59129685 0.1397513 0.040511657
0.5909012 0.13924326 0.040503569
0.59050548 0.13873522 0.040495481
0.59010983 0.13822718 0.040487394
0.58971411 0.13771914 0.040479306
0.58931839 0.1372111 0.040471222
0.58892274 0.13670306 0.040463135
0.58852702 0.13619502 0.040455047
0.58734417 0.13617247 0.040838659
0.58694917 0.13566528 0.040830586
0.58576828 0.13564527 0.041214239
0.58537394 0.13513894 0.041206177
0.58419502 0.13512148 0.041589871
0.58380133 0.134616 0.041581824
0.58262444 0.1346011 0.041965559
0.5822314 0.13409647 0.041957527
0.58183837 0.13359183 0.041949492
0.58066404 0.13358037 0.042333305
0.58027166 0.13307659 0.042325284
0.57909942 0.13306764 0.042709112
0.5787077 0.13256471 0.042701107
0.57753748 0.13255832 0.043084975
0.57714641 0.13205624 0.043076985
0.57675534 0.13155416 0.04306899
0.57636428 0.13105208 0.043060999
0.57597321 0.13054998 0.043053009
0.57558221 0.1300479 0.043045014
0.57519114 0.12954582 0.043037023
0.57480007 0.12904374 0.043029029
0.57440901 0.12854166 0.043021038
0.574018 0.12803957 0.043013047
0.57362694 0.12753749 0.043005053
0.57323587 0.12703541 0.042997062
0.5728448 0.12653333 0.042989068
0.57245374 0.12603125 0.042981077
0.57206273 0.12552917 0.042973083
0.57167166 0.12502709 0.042965092
0.5712806 0.124525 0.042957101
0.57088953 0.12402292 0.042949107
0.57049853 0.12352084 0.042941116
0.57010746 0.12301875 0.042933121
0.57048166 0.12200311 0.042532984
0.57009 0.12150017 0.042524979
0.56969827 0.12099724 0.042516973
0.56930655 0.12049431 0.042508967
0.56891483 0.11999138 0.042500962
0.56852311 0.11948844 0.042492956
