# .PCD v0.7 - Point Cloud Data file format
VERSION 0.7
FIELDS x y z
SIZE 4 4 4
TYPE F F F
COUNT 1 1 1
WIDTH 1362
HEIGHT 1
VIEWPOINT 0 0 0 1 0 0 0
POINTS 1362
DATA ascii
0.51874495 -0.01062025 0.048409507
0.52088684 -0.013943237 0.046957616
0.52174634 -0.015876183 0.046227362
0.52260321 -0.017812531 0.045497052
0.52345747 -0.019752314 0.044766668
0.52367246 -0.020994507 0.044397149
0.52452207 -0.022940252 0.043666668
0.52536893 -0.024889365 0.042936157
0.52557862 -0.026138365 0.042566534
0.52642095 -0.028093468 0.041835904
0.52726054 -0.030051943 0.041105241
0.52746499 -0.031307746 0.040735509
0.52766806 -0.032565258 0.040365748
0.52723855 -0.033116698 0.040356971
0.52680904 -0.033668138 0.040348191
0.52637953 -0.034219578 0.040339414
0.52595007 -0.034771018 0.040330637
0.52552056 -0.035322458 0.040321857
0.52509105 -0.035873897 0.04031308
0.52466154 -0.036425337 0.040304303
0.52423209 -0.036976773 0.040295523
0.52380258 -0.037528213 0.040286746
0.52337307 -0.038079653 0.040277969
0.52294362 -0.038631093 0.040269192
0.5225141 -0.039182533 0.040260412
0.54890287 0.043683115 0.052151259
0.54779601 0.043779653 0.052503567
0.54738837 0.043256298 0.052495237
0.54698074 0.042732943 0.052486904
0.54657316 0.042209584 0.052478574
0.54616553 0.041686226 0.052470244
0.54575789 0.041162867 0.052461911
0.54465568 0.041265335 0.052814294
0.54355484 0.041369498 0.053166702
0.54314852 0.040847842 0.053158399
0.54204965 0.040954564 0.053510845
0.5402602 0.041692242 0.054224111
0.5391646 0.041803218 0.054576624
0.53807038 0.041915894 0.054929171
0.53697747 0.042030271 0.05528174
0.53588587 0.042146385 0.055634361
0.53479558 0.042264167 0.055986986
0.53370667 0.042383652 0.056339636
0.53261906 0.04250484 0.056692313
0.53153276 0.042627722 0.05704502
0.53113377 0.042115428 0.057036866
0.53004944 0.042240903 0.057389632
0.52965111 0.041729461 0.057381492
0.52925277 0.041218016 0.057373352
0.52817112 0.041346863 0.057726152
0.52777344 0.040836271 0.057718024
0.52737576 0.040325675 0.057709895
0.52697808 0.039815087 0.05770177
0.52658039 0.039304495 0.057693642
0.52618271 0.038793903 0.057685513
0.52578503 0.038283307 0.057677384
0.52470869 0.03841896 0.058030296
0.52431166 0.037909221 0.058022179
0.52391464 0.037399478 0.058014065
0.52351761 0.036889739 0.058005951
0.52312064 0.036379997 0.057997838
0.52272362 0.035870258 0.057989724
0.52232659 0.035360515 0.05798161
0.52192956 0.034850772 0.057973497
0.52153254 0.03434103 0.057965379
0.52113551 0.033831291 0.057957266
0.52073848 0.033321552 0.057949152
0.52034152 0.032811806 0.057941038
0.51994449 0.032302067 0.057932924
0.51954746 0.031792328 0.057924811
0.51915044 0.031282585 0.057916697
0.51875341 0.030772841 0.057908583
0.51835638 0.030263102 0.057900466
0.51795936 0.029753361 0.057892352
0.51756239 0.029243622 0.057884239
0.51716536 0.028733876 0.057876125
0.51676834 0.028224135 0.057868011
0.51637131 0.027714396 0.057859898
0.51597428 0.027204655 0.057851784
0.51557726 0.026694911 0.057843667
0.51518023 0.02618517 0.057835553
0.51544535 0.025007913 0.057466064
0.51570904 0.023828944 0.057096548
0.5153107 0.023317501 0.057088405
0.51557249 0.022135951 0.056718826
0.51517349 0.021623662 0.056710672
0.51543325 0.020439589 0.056341074
0.5156917 0.01925382 0.055971447
0.51594883 0.018066347 0.055601798
0.51554781 0.017551497 0.055593602
0.51580298 0.016361473 0.055223908
0.51605678 0.015169707 0.054854166
0.51630926 0.013976278 0.05448442
0.51590627 0.013458878 0.054476183
0.51550329 0.012941479 0.054467946
0.5151003 0.012424079 0.054459713
0.51534951 0.011226403 0.054089896
0.51494586 0.010708151 0.054081649
0.51454222 0.010189899 0.054073397
0.51413858 0.009671648 0.054065149
0.51438439 0.0084697073 0.053695265
0.51462889 0.0072660628 0.053325355
0.51487213 0.0060606864 0.052955396
0.51511401 0.0048536411 0.052585434
0.51535457 0.0036448918 0.052215442
0.51559377 0.0024344451 0.051845424
0.51583171 0.0012222611 0.051475357
0.51606828 8.4072808e-06 0.051105287
0.51630354 -0.0012071499 0.050735187
0.51589394 -0.001733061 0.050726816
0.51612717 -0.0029511675 0.050356675
0.51700133 -0.0048640645 0.049624704
0.51723129 -0.0060864296 0.049254496
0.51745987 -0.0073104925 0.048884261
0.5176872 -0.0085362587 0.048514001
0.51791316 -0.0097637288 0.048143711
0.52005446 -0.013084847 0.046687823
0.52091408 -0.015016459 0.045955557
0.52177095 -0.016951444 0.045223255
0.52262527 -0.018889869 0.044490878
0.52347684 -0.020831661 0.043758467
0.52432585 -0.022776896 0.043025982
0.52517211 -0.024725497 0.042293463
0.52601576 -0.026677499 0.041560892
0.52685678 -0.028632946 0.040828243
0.52706224 -0.029886797 0.040457536
0.52726632 -0.031142345 0.040086798
0.5274691 -0.032399602 0.039716039
0.52767056 -0.03365859 0.039345223
0.5272404 -0.034210883 0.039336432
0.52681023 -0.034763172 0.039327644
0.52638006 -0.035315458 0.039318852
0.52594995 -0.035867751 0.03931006
0.52551979 -0.036420044 0.039301269
0.52508962 -0.036972333 0.039292477
0.52465945 -0.037524626 0.039283685
0.52422929 -0.038076919 0.039274894
0.52379912 -0.038629208 0.039266102
0.52336895 -0.039181493 0.03925731
0.52188563 -0.039568312 0.039601922
0.54871374 0.043840591 0.051533632
0.54760718 0.043936875 0.051886942
0.54719955 0.04341352 0.051878612
0.54679191 0.042890165 0.051870283
0.54638433 0.042366806 0.051861949
0.54528111 0.042467311 0.052215308
0.54487413 0.041944806 0.052206989
0.54446721 0.0414223 0.052198671
0.54336661 0.041526206 0.052552082
0.54226738 0.041631822 0.052905522
0.54186177 0.041111019 0.05289723
0.54007286 0.041848186 0.0536125
0.53897762 0.041958906 0.053966019
0.53857398 0.041440655 0.053957768
0.53679109 0.042185448 0.054673135
0.53569978 0.042301305 0.055026758
0.53460985 0.042418834 0.055380385
0.53352123 0.042538062 0.055734038
0.53243393 0.042658992 0.056087721
0.53203422 0.042145845 0.056079555
0.53094894 0.042269327 0.056433275
0.53054994 0.041757032 0.056425121
0.52946657 0.041883104 0.056778904
0.52906823 0.041371658 0.056770764
0.52866989 0.040860217 0.056762625
0.52827156 0.040348772 0.056754481
0.52787322 0.039837331 0.056746341
0.52679384 0.039968472 0.057100184
0.52639616 0.03945788 0.057092056
0.52599847 0.038947288 0.057083931
0.52560079 0.038436696 0.057075802
0.52520311 0.037926104 0.057067674
0.52480543 0.037415512 0.057059545
0.52373075 0.03755261 0.057413485
0.52333373 0.037042871 0.057405371
0.5229367 0.036533128 0.057397258
0.52253968 0.03602339 0.05738914
0.52214265 0.035513647 0.057381026
0.52174562 0.035003901 0.057372913
0.52134866 0.034494162 0.057364799
0.52095163 0.033984423 0.057356685
0.5205546 0.033474684 0.057348572
0.52015758 0.032964937 0.057340458
0.51976055 0.032455198 0.057332344
0.51936352 0.031945456 0.057324227
0.5189665 0.031435717 0.057316113
0.51856953 0.030925972 0.057308
0.5181725 0.030416232 0.057299886
0.51777548 0.029906493 0.057291772
0.51737845 0.029396752 0.057283659
0.51698142 0.028887007 0.057275545
0.5165844 0.028377267 0.057267427
0.51618737 0.027867528 0.057259314
0.5157904 0.027357787 0.0572512
0.51539338 0.026848041 0.057243086
0.51499635 0.026338302 0.057234973
0.51526111 0.0251613 0.056864481
0.51552451 0.023982586 0.05649396
0.51512617 0.023471143 0.056485821
0.51538765 0.022289848 0.056115236
0.51498866 0.021777559 0.056107081
0.51524812 0.020593742 0.055736482
0.51550627 0.019408228 0.055365853
0.51576304 0.018221011 0.054995198
0.51536208 0.017706161 0.054987002
0.51496106 0.017191317 0.05497881
0.51521522 0.016000692 0.054608099
0.51546812 0.014808336 0.05423734
0.51506579 0.014291788 0.054229118
0.51531661 0.013096911 0.053858344
0.51491362 0.012579511 0.053850107
0.51451069 0.012062111 0.05384187
0.5141077 0.011544712 0.053833634
0.51370472 0.011027312 0.053825397
0.51395154 0.0098273363 0.053454541
0.51419711 0.0086256508 0.053083654
0.51444131 0.0074222614 0.052712742
0.51403636 0.0069023124 0.052704465
0.51427859 0.0056963405 0.052333493
0.51451951 0.0044886987 0.05196251
0.51475906 0.0032793535 0.051591504
0.51499736 0.0020683107 0.051220469
0.51523429 0.00085553055 0.050849386
0.51546991 -0.00035891932 0.050478298
0.51570415 -0.0015750725 0.050107181
0.51593709 -0.0027929235 0.049736042
0.51616871 -0.0040124776 0.049364872
0.51639909 -0.0052337693 0.048993651
0.5172686 -0.0071512256 0.048259616
0.51749557 -0.0083767362 0.047888353
0.51772124 -0.0096039502 0.047517061
0.51794565 -0.010832902 0.047145721
0.52008241 -0.014157245 0.045685757
0.52093935 -0.016090872 0.044951461
0.52179366 -0.018027896 0.044217117
0.52328128 -0.020668816 0.043119784
0.52412963 -0.022613538 0.042385295
0.5249753 -0.024561629 0.041650772
0.52581835 -0.026513118 0.040916197
0.52665877 -0.028468056 0.04018154
0.52686387 -0.029721651 0.03980983
0.52769959 -0.031682506 0.039075103
0.52727014 -0.032233946 0.039066326
0.5274713 -0.033492677 0.038694512
0.52704114 -0.03404497 0.03868572
0.52661097 -0.034597259 0.038676929
0.5261808 -0.035149544 0.038668137
0.52575064 -0.035701837 0.038659345
0.52532047 -0.03625413 0.038650554
0.52489036 -0.036806419 0.038641762
0.5244602 -0.037358712 0.03863297
0.52403003 -0.037911005 0.038624179
0.52359986 -0.038463295 0.038615387
0.5231697 -0.03901558 0.038606595
0.52273953 -0.039567873 0.038597804
0.55033141 0.043285273 0.050199132
0.54741836 0.044094097 0.051270321
0.54631346 0.044191796 0.051624637
0.54590648 0.043669291 0.051616322
0.54549956 0.043146785 0.051608004
0.54509258 0.042624276 0.051599685
0.5446856 0.042101774 0.051591367
0.54427868 0.041579265 0.051583052
0.54317844 0.041682918 0.051937465
0.54207951 0.041788276 0.052291904
0.54167384 0.041267473 0.052283615
0.53988558 0.042004131 0.05300089
0.53879064 0.042114593 0.053355411
0.538387 0.041596342 0.053347159
0.53729403 0.041709356 0.053701721
0.53620243 0.041824076 0.054056313
0.53442407 0.042573497 0.054773789
0.53333575 0.042692471 0.055128444
0.53293544 0.042178474 0.055120263
0.53184909 0.042300001 0.055474963
0.53144944 0.041786857 0.055466793
0.53104979 0.041273709 0.055458624
0.52996606 0.041398637 0.055813376
0.52956706 0.040886343 0.055805221
0.52916807 0.040374048 0.055797067
0.52876908 0.039861754 0.055788912
0.52768868 0.039990973 0.056143753
0.52729034 0.039479528 0.056135613
0.52621192 0.039611269 0.056490473
0.52581424 0.039100677 0.056482345
0.52541655 0.038590081 0.056474216
0.52501887 0.038079489 0.056466088
0.52462125 0.037568897 0.056457963
0.52422357 0.037058305 0.056449834
0.52382588 0.036547713 0.056441706
0.52275276 0.03668626 0.056796674
0.52235579 0.036176518 0.05678856
0.52195877 0.035666775 0.056780446
0.52156174 0.035157032 0.056772333
0.52116472 0.034647293 0.056764219
0.52076769 0.034137554 0.056756105
0.52037066 0.033627816 0.056747988
0.51997364 0.033118069 0.056739874
0.51957667 0.032608327 0.056731761
0.51917964 0.032098588 0.056723647
0.51878262 0.031588849 0.056715533
0.51838559 0.031079102 0.056707419
0.51798856 0.030569363 0.056699306
0.51759154 0.030059623 0.056691192
0.51719451 0.029549884 0.056683075
0.51679748 0.029040137 0.056674961
0.51640052 0.028530398 0.056666847
0.51600349 0.028020658 0.056658734
0.51560646 0.027510919 0.05665062
0.51520944 0.027001172 0.056642506
0.51481241 0.026491433 0.056634393
0.51507688 0.025314685 0.056262895
0.51534003 0.02413623 0.055891372
0.51494163 0.023624785 0.055883233
0.51520282 0.022443747 0.05551165
0.51480383 0.021931458 0.055503495
0.51506299 0.020747896 0.05513189
0.51532084 0.019562637 0.054760259
0.51557732 0.018375676 0.054388601
0.5151763 0.017860826 0.054380406
0.51477534 0.017345982 0.05437221
0.51437432 0.016831132 0.054364014
0.51462752 0.015639916 0.05399229
0.51422584 0.01512422 0.053984083
0.51447707 0.013930417 0.053612292
0.5140748 0.013413869 0.05360407
0.51367247 0.012897315 0.053595848
0.51392102 0.011700144 0.053224027
0.51351804 0.011182744 0.053215791
0.51376456 0.0099830236 0.052843932
0.51400983 0.0087815933 0.052472044
0.51425374 0.0075784605 0.052100129
0.51384872 0.0070585115 0.052091852
0.51409072 0.0058527952 0.051719874
0.51433128 0.0046454091 0.051347893
0.51457059 0.0034363193 0.050975882
0.51480854 0.0022255322 0.050603844
0.51504517 0.0010130077 0.050231759
0.51528049 -0.00020118654 0.049859669
0.51551443 -0.0014170841 0.04948755
0.51574707 -0.0026346794 0.049115404
0.5159784 -0.0038539781 0.048743233
0.51620841 -0.0050750142 0.048371013
0.51643705 -0.0062977197 0.047998786
0.517304 -0.0082172146 0.047262706
0.51752937 -0.0094441725 0.046890412
0.51775342 -0.010672868 0.046518069
0.519889 -0.013996189 0.045054093
0.52074534 -0.015929306 0.044317793
0.52159899 -0.017865816 0.043581441
0.52308571 -0.02050597 0.042481106
0.52393347 -0.022450181 0.041744608
0.52477849 -0.024397761 0.041008081
0.52625459 -0.027051523 0.039907526
0.52709371 -0.029006762 0.039170876
0.52729785 -0.030260952 0.038798146
0.52750063 -0.031516846 0.038425393
0.52770215 -0.032774471 0.038052589
0.52727205 -0.033326764 0.038043797
0.52747154 -0.03458691 0.037670974
0.52704072 -0.035140052 0.037662171
0.5266099 -0.035693191 0.037653364
0.52617908 -0.036246333 0.037644561
0.52574825 -0.036799479 0.037635755
0.52531743 -0.037352614 0.037626952
0.52488661 -0.03790576 0.037618145
0.52445579 -0.038458902 0.037609339
0.52402496 -0.039012045 0.037600536
0.52359414 -0.039565183 0.037591729
0.52254027 -0.03940196 0.037947092
0.54722953 0.044251319 0.050653696
0.54542798 0.044969559 0.05137267
0.54502171 0.044447906 0.051364366
0.54531103 0.04330375 0.050992381
0.54490405 0.042781241 0.050984066
0.54449707 0.042258739 0.050975747
0.54339647 0.042361282 0.051331148
0.54299021 0.041839629 0.051322844
0.54189157 0.041944731 0.051678289
0.54148597 0.041423928 0.05167
0.5396983 0.042160075 0.052389279
0.53860366 0.04227028 0.052744802
0.53820002 0.041752029 0.052736551
0.53710735 0.04186479 0.053092118
0.53601605 0.041979253 0.053447708
0.534926 0.042095449 0.053803351
0.53383732 0.042213317 0.054158997
0.53274995 0.042332884 0.054514669
0.53234965 0.041818887 0.054506488
0.53126431 0.041941009 0.054862201
0.5308646 0.041427862 0.054854032
0.53046495 0.040914718 0.054845862
0.52938223 0.041040242 0.055201631
0.52898324 0.040527944 0.055193476
0.52858424 0.040015653 0.055185322
0.52818525 0.039503358 0.055177167
0.52710581 0.03963317 0.055533025
0.52670747 0.039121728 0.055524886
0.52630907 0.038610283 0.055516742
0.52591074 0.038098842 0.055508602
0.52483469 0.038232878 0.055864505
0.52443701 0.037722286 0.055856377
0.52403933 0.037211694 0.055848248
0.52364165 0.036701098 0.055840123
0.52324396 0.036190506 0.055831995
0.52284628 0.035679914 0.055823866
0.5224486 0.035169326 0.055815738
0.52205092 0.034658734 0.055807613
0.52165323 0.034148142 0.055799484
0.52125555 0.033637542 0.055791356
0.52085787 0.03312695 0.055783227
0.52046019 0.032616362 0.055775099
0.52006251 0.03210577 0.055766974
0.51966482 0.031595178 0.055758845
0.51926714 0.031084586 0.055750716
0.51886946 0.030573994 0.055742588
0.51847178 0.030063402 0.055734463
0.5180741 0.029552812 0.055726334
0.51767641 0.029042214 0.055718206
0.51727873 0.028531622 0.055710077
0.51688105 0.02802103 0.055701949
0.51648337 0.027510438 0.055693824
0.51608568 0.026999848 0.055685695
0.515688 0.026489256 0.055677567
0.51529032 0.025978664 0.055669438
0.51489264 0.025468072 0.055661313
0.51515549 0.024289872 0.055288788
0.51475716 0.023778429 0.055280644
0.51501799 0.022597644 0.05490806
0.51461899 0.022085356 0.054899905
0.51487786 0.020902051 0.054527298
0.51513535 0.019717047 0.054154664
0.51539153 0.018530341 0.053782005
0.51499057 0.018015491 0.053773809
0.51458955 0.017500646 0.053765614
0.51418859 0.016985796 0.053757418
0.51444143 0.015794838 0.053384691
0.51403981 0.015279141 0.053376481
0.51429075 0.014085593 0.053003691
0.51388842 0.013569045 0.052995469
0.51348609 0.013052491 0.052987248
0.51373434 0.011855575 0.052614424
0.51333135 0.011338176 0.052606188
0.51357758 0.010138711 0.052233323
0.5138225 0.0089375367 0.051860433
0.5140661 0.0077346596 0.051487517
0.51366115 0.0072147106 0.051479239
0.51390278 0.0060092495 0.051106259
0.51414311 0.004802119 0.050733272
0.51438206 0.0035932851 0.050360262
0.51461971 0.0023827536 0.049987223
0.51485604 0.0011704848 0.049614135
0.515091 -4.3453751e-05 0.04924104
0.51532465 -0.0012590957 0.048867919
0.51555699 -0.0024764354 0.048494771
0.51578802 -0.0036954784 0.048121598
0.51601774 -0.0049162586 0.047748372
0.51624608 -0.0061387089 0.047375143
0.51647311 -0.0073628565 0.047001887
0.51669884 -0.008588708 0.046628606
0.5175612 -0.010512834 0.045890413
0.51969558 -0.013835133 0.044422429
0.52055126 -0.015767738 0.043684125
0.52140433 -0.017703738 0.042945769
0.52289009 -0.020343125 0.041842423
0.52373725 -0.022286825 0.041103922
0.52521569 -0.024935534 0.04000045
0.52605689 -0.026886888 0.039261825
0.52689534 -0.028841615 0.038523171
0.52709919 -0.030095551 0.038149439
0.52730167 -0.03135119 0.03777568
0.52750289 -0.032608557 0.037401877
0.52707273 -0.03316085 0.037393086
0.52727193 -0.034420744 0.03701926
0.5268411 -0.034973886 0.037010454
0.52641028 -0.035527021 0.037001651
0.52597946 -0.036080167 0.036992844
0.52554864 -0.036633309 0.036984038
0.52511781 -0.037186448 0.036975235
0.52468699 -0.03773959 0.036966428
0.52425617 -0.038292732 0.036957625
0.52382535 -0.038845878 0.036948819
0.52339458 -0.039399013 0.036940012
0.54814631 0.044313021 0.049680755
0.54634339 0.045028236 0.050401714
0.54523975 0.045126271 0.050758049
0.54483348 0.044604614 0.050749745
0.5451225 0.043460716 0.050376762
0.54471552 0.04293821 0.050368443
0.54361457 0.04303965 0.050724834
0.5432083 0.042517994 0.050716531
0.54280198 0.041996337 0.050708227
0.5417037 0.042101186 0.051064674
0.54129803 0.041580383 0.051056381
0.53951102 0.042316016 0.051777668
0.53841668 0.042425968 0.052134193
0.53801304 0.041907717 0.052125946
0.53692067 0.04202022 0.052482512
0.53582966 0.042134427 0.052839108
0.53473991 0.042250369 0.053195748
0.53365159 0.04236798 0.053552397
0.53325057 0.041853134 0.053544205
0.53216422 0.041973297 0.053900894
0.53176385 0.0414593 0.053892709
0.53067946 0.041582018 0.054249439
0.53027982 0.041068874 0.054241274
0.52988011 0.040555727 0.054233104
0.5287984 0.040681843 0.054589886
0.52839941 0.040169552 0.054581732
0.52800041 0.039657257 0.054573577
0.52760136 0.039144959 0.054565422
0.52652293 0.039275371 0.054922298
0.5261246 0.038763925 0.054914154
0.5257262 0.038252484 0.054906014
0.52532786 0.037741039 0.054897875
0.52492952 0.037229598 0.054889731
0.52453119 0.036718152 0.054881591
0.52345741 0.036854487 0.055238537
0.52305973 0.036343895 0.055230409
0.52266204 0.035833303 0.05522228
0.52226436 0.035322711 0.055214155
0.52186668 0.034812119 0.055206027
0.521469 0.034301527 0.055197898
0.52107131 0.033790931 0.05518977
0.52067363 0.033280339 0.055181645
0.52027595 0.032769747 0.055173516
0.51987827 0.032259155 0.055165388
0.51948059 0.031748563 0.055157259
0.5190829 0.031237973 0.055149134
0.51868522 0.030727381 0.055141006
0.51828754 0.030216789 0.055132877
0.51788986 0.029706199 0.055124748
0.51749218 0.029195601 0.05511662
0.51709449 0.028685009 0.055108495
0.51669681 0.028174417 0.055100366
0.51629913 0.027663825 0.055092238
0.51590145 0.027153235 0.055084109
0.51550376 0.026642643 0.055075984
0.51510608 0.026132051 0.055067856
0.51470846 0.025621459 0.055059727
0.51497096 0.024443515 0.0546862
0.51457262 0.023932071 0.05467806
0.51483315 0.022751544 0.054304469
0.51443416 0.022239253 0.054296315
0.51469272 0.021056203 0.053922705
0.51494992 0.019871457 0.05354907
0.5152058 0.018685006 0.053175408
0.51480478 0.018170156 0.053167213
0.51440382 0.017655311 0.053159017
0.5140028 0.017140461 0.053150821
0.5142554 0.015949758 0.052777089
0.51385373 0.015434061 0.052768882
0.51410437 0.014240769 0.052395087
0.51370203 0.013724221 0.052386865
0.5132997 0.013207668 0.052378643
0.51354766 0.012011007 0.052004818
0.51314467 0.011493608 0.051996581
0.5133906 0.010294399 0.051622715
0.51363522 0.0090934802 0.051248822
0.51387852 0.0078908587 0.050874904
0.51347357 0.0073709092 0.050866626
0.51371491 0.0061657042 0.050492644
0.51395488 0.0049588294 0.050118655
0.51419353 0.0037502511 0.04974464
0.51443082 0.0025399751 0.049370598
0.51402324 0.0020166135 0.049362268
0.51425862 0.00080374844 0.048988163
0.51449263 -0.00041078031 0.048614051
0.51472533 -0.0016270184 0.048239917
0.51495665 -0.0028449541 0.047865752
0.51582706 -0.0047575035 0.047125734
0.51605511 -0.0059796977 0.046751503
0.51628184 -0.0072035897 0.046377242
0.51650721 -0.0084291855 0.046002958
0.51736897 -0.010352802 0.045262761
0.5195021 -0.013674077 0.043790765
0.52035719 -0.015606171 0.043050457
0.52120966 -0.01754166 0.042310093
0.52269453 -0.020180279 0.041203741
0.52417541 -0.022824004 0.040097304
0.52501857 -0.024771411 0.039356753
0.52649218 -0.027424494 0.038250171
0.52669698 -0.028676469 0.037875462
0.52753222 -0.030634092 0.037134748
0.5277338 -0.031890355 0.036759954
0.52793401 -0.033148285 0.036385152
0.52750319 -0.033701431 0.036376346
0.52770144 -0.034961909 0.036001507
0.52726996 -0.035515901 0.035992689
0.52683842 -0.036069896 0.035983868
0.52640694 -0.036623891 0.03597505
0.52597547 -0.037177879 0.035966232
0.52554399 -0.037731875 0.035957415
0.52511251 -0.038285863 0.035948593
0.52468103 -0.038839858 0.035939775
0.52424955 -0.039393853 0.035930958
0.52381808 -0.039947841 0.03592214
0.54505157 0.045282979 0.050143432
0.54464525 0.044761326 0.050135128
0.54493397 0.043617681 0.049761139
0.54383266 0.043718014 0.050118521
0.54342633 0.043196358 0.050110217
0.54302007 0.042674702 0.050101914
0.54261374 0.042153049 0.05009361
0.54151577 0.042257641 0.050451055
0.54111016 0.041736834 0.050442766
0.53932369 0.04247196 0.051166058
0.5382297 0.042581655 0.051523585
0.53782606 0.042063404 0.051515337
0.53673398 0.042175654 0.051872905
0.53564328 0.042289604 0.052230503
0.53455389 0.042405289 0.05258815
0.5334658 0.042522646 0.0529458
0.53306478 0.0420078 0.052937604
0.53197873 0.042127706 0.053295296
0.53157842 0.041613709 0.053287115
0.53117806 0.041099716 0.053278934
0.53009468 0.041223027 0.053636681
0.52969497 0.040709879 0.053628512
0.52929533 0.040196735 0.053620342
0.52821457 0.040323447 0.053978145
0.52781552 0.039811153 0.053969987
0.52741653 0.039298858 0.053961832
0.52701753 0.038786568 0.053953677
0.52594006 0.038917571 0.05431157
0.52554172 0.038406126 0.054303426
0.52514333 0.037894681 0.054295287
0.52474499 0.03738324 0.054287147
0.52434665 0.036871795 0.054279003
0.52394831 0.036360353 0.054270864
0.52354997 0.035848908 0.05426272
0.52247781 0.035986688 0.054620698
0.52208012 0.0354761 0.05461257
0.52168244 0.034965508 0.054604441
0.52128476 0.034454916 0.054596316
0.52088708 0.033944316 0.054588187
0.52048939 0.033433724 0.054580059
0.52009171 0.032923136 0.05457193
0.51969403 0.032412544 0.054563805
0.51929635 0.031901952 0.054555677
0.51889873 0.03139136 0.054547548
0.51850104 0.030880768 0.05453942
0.51810336 0.030370176 0.054531291
0.51770568 0.029859584 0.054523166
0.517308 0.029348988 0.054515038
0.51691031 0.028838396 0.054506909
0.51651263 0.028327804 0.054498781
0.51611495 0.027817212 0.054490656
0.51571727 0.02730662 0.054482527
0.51531959 0.02679603 0.054474398
0.5149219 0.026285438 0.05446627
0.51518476 0.0251086 0.054091755
0.51478642 0.024597157 0.054083612
0.51438808 0.024085714 0.054075472
0.51464832 0.022905441 0.053700879
0.51424932 0.022393152 0.053692725
0.51450753 0.021210358 0.053318113
0.51476443 0.020025866 0.052943476
0.51502001 0.01883967 0.052568808
0.51461905 0.01832482 0.052560613
0.51421803 0.017809976 0.052552421
0.51381707 0.017295126 0.052544225
0.51406932 0.016104678 0.052169491
0.51366764 0.015588982 0.05216128
0.51391798 0.014395946 0.051786486
0.51351565 0.013879398 0.051778264
0.51311332 0.013362844 0.051770039
0.51336098 0.01216644 0.051395211
0.51295799 0.01164904 0.051386975
0.51320362 0.010450087 0.051012106
0.51344794 0.0092494236 0.050637212
0.51369089 0.0080470573 0.050262291
0.51328593 0.0075271083 0.050254013
0.51352698 0.0063221585 0.049879026
0.51376665 0.0051155398 0.049504038
0.51400501 0.0039072167 0.04912902
0.51424199 0.0026971968 0.048753973
0.51383442 0.0021738349 0.048745643
0.5140695 0.00096122554 0.048370536
0.51430321 -0.00025304756 0.047995422
0.51453555 -0.00146903 0.047620285
0.51476663 -0.0026867101 0.047245119
0.51499635 -0.0039060935 0.046869922
0.51522481 -0.0051272144 0.046494681
0.51609057 -0.0070443233 0.045752596
0.51631564 -0.008269663 0.04537731
0.51717681 -0.010192768 0.04463511
0.51867193 -0.012816119 0.043526001
0.51952714 -0.014746872 0.042783678
0.52101499 -0.01737958 0.04167442
0.52249897 -0.020017434 0.040565059
0.52397889 -0.022660391 0.039455615
0.52545482 -0.025308419 0.038346115
0.52629411 -0.027259601 0.037603468
0.52713072 -0.029214159 0.036860786
0.52796471 -0.031172149 0.036118031
0.52816528 -0.03242898 0.035742242
0.52773446 -0.032982118 0.035733435
0.527933 -0.03424149 0.035357606
0.52750152 -0.034795485 0.035348788
0.52707005 -0.035349477 0.03533997
0.52663857 -0.035903469 0.035331149
0.52620709 -0.036457464 0.035322331
0.52577561 -0.037011456 0.035313513
0.52534413 -0.037565451 0.035304695
0.52491266 -0.038119439 0.035295878
0.52448118 -0.038673434 0.035287056
0.52404964 -0.03922743 0.035278238
0.52361816 -0.039781418 0.035269421
0.54486334 0.04543969 0.049528811
0.54445702 0.044918034 0.049520507
0.54405075 0.044396378 0.049512204
0.54364443 0.043874726 0.0495039
0.54323816 0.04335307 0.049495596
0.54283184 0.042831413 0.049487293
0.54242557 0.042309757 0.049478989
0.54132783 0.042414095 0.04983744
0.54092222 0.041893288 0.049829151
0.53982645 0.042000212 0.050187662
0.53873211 0.0421088 0.050546184
0.53763902 0.042219091 0.050904728
0.5365473 0.042331085 0.051263299
0.5354569 0.04244478 0.051621899
0.5343678 0.042560212 0.051980548
0.53396612 0.042044513 0.051972341
0.53287905 0.042162463 0.052331008
0.53247803 0.041647617 0.052322812
0.53139293 0.041768119 0.052681521
0.53099263 0.041254126 0.05267334
0.53059232 0.040740129 0.052665155
0.52950984 0.040864035 0.053023919
0.52911019 0.040350892 0.05301575
0.52871048 0.039837744 0.053007584
0.52763069 0.039965052 0.0533664
0.52723169 0.039452758 0.053358246
0.5268327 0.038940467 0.053350091
0.52643371 0.038428169 0.053341936
0.52535719 0.038559768 0.053700842
0.52495885 0.038048327 0.053692698
0.52456045 0.037536882 0.053684559
0.52416211 0.03702544 0.053676415
0.52376378 0.036513995 0.053668275
0.52336544 0.036002554 0.053660136
0.5229671 0.035491109 0.053651992
0.52256876 0.034979664 0.053643852
0.52217042 0.034468222 0.053635709
0.52177209 0.033956777 0.053627569
0.52137375 0.033445336 0.053619429
0.52097541 0.032933891 0.053611286
0.52057701 0.032422449 0.053603146
0.52017868 0.031911004 0.053595003
0.51978034 0.031399563 0.053586863
0.519382 0.03088812 0.053578723
0.51898366 0.030376676 0.05357058
0.51858532 0.029865233 0.05356244
0.51818699 0.02935379 0.053554296
0.51778865 0.028842345 0.053546157
0.51739031 0.028330902 0.053538017
0.51699197 0.027819458 0.053529873
0.51659358 0.027308015 0.053521734
0.51619524 0.026796572 0.05351359
0.5157969 0.026285129 0.05350545
0.51539856 0.025773685 0.053497311
0.51500022 0.025262242 0.053489167
0.51460189 0.024750799 0.053481027
0.51420355 0.024239356 0.053472884
0.51446348 0.023059338 0.053097289
0.51406449 0.022547049 0.053089134
0.5143224 0.021364512 0.052713521
0.514579 0.020180276 0.052337881
0.51483428 0.018994337 0.051962212
0.51443326 0.018479485 0.051954016
0.5140323 0.017964642 0.05194582
0.51363128 0.017449791 0.051937625
0.51388323 0.016259599 0.051561888
0.51348162 0.015743904 0.051553681
0.5137316 0.014551122 0.051177882
0.51332927 0.014034574 0.05116966
0.51292694 0.013518021 0.051161438
0.5131743 0.012321872 0.050785609
0.51277131 0.011804472 0.050777372
0.51301664 0.010605774 0.050401501
0.51326066 0.0094053671 0.050025601
0.51350331 0.0082032559 0.049649674
0.51309836 0.0076833074 0.049641401
0.5133391 0.0064786132 0.049265411
0.51357841 0.0052722497 0.048889417
0.51381648 0.0040641828 0.048513398
0.51405317 0.0028544182 0.048137352
0.51364559 0.0023310564 0.048129018
0.51388031 0.0011187027 0.047752909
0.51411372 -9.5314783e-05 0.047376793
0.51434582 -0.0013110415 0.047000654
0.51457655 -0.0025284661 0.046624482
0.51480597 -0.0037475938 0.046248287
0.51503414 -0.0049684588 0.04587204
0.51526088 -0.0061909878 0.045495789
0.51548636 -0.0074152201 0.045119513
0.51634753 -0.0093369279 0.044375341
0.51847881 -0.012655319 0.042895339
0.51933342 -0.01458556 0.042151012
0.52082038 -0.017217502 0.041038744
0.52230334 -0.019854588 0.039926376
0.52378237 -0.022496779 0.038813926
0.52525741 -0.025144041 0.037701417
0.52672845 -0.02779644 0.036588803
0.52756381 -0.029751336 0.035844106
0.52839649 -0.031709667 0.035099331
0.5285961 -0.032967083 0.034722526
0.52816463 -0.033521079 0.034713704
0.52836221 -0.034781054 0.034336857
0.52793008 -0.035335895 0.034328029
0.52749795 -0.035890736 0.034319196
0.52706581 -0.03644558 0.034310363
0.52663362 -0.037000421 0.034301531
0.52620149 -0.03755527 0.034292698
0.52576935 -0.038110111 0.034283865
0.52533722 -0.038664956 0.034275033
0.52490509 -0.039219797 0.034266204
0.52447289 -0.039774645 0.034257371
0.52404076 -0.040329486 0.034248538
0.54397941 0.046216175 0.049281858
0.54357374 0.045695372 0.049273565
0.54386252 0.04455309 0.048897587
0.54345626 0.044031434 0.048889283
0.54304993 0.043509778 0.048880979
0.54264361 0.042988125 0.048872676
0.54223734 0.042466469 0.048864372
0.54113996 0.04257055 0.049223825
0.54073429 0.042049743 0.049215533
0.53963888 0.042156409 0.049575049
0.53854483 0.042264745 0.049934573
0.53745204 0.042374779 0.05029412
0.53636062 0.042486515 0.050653696
0.53527057 0.042599957 0.051013298
0.53486824 0.042083409 0.051005077
0.5337801 0.042199437 0.051364738
0.53269327 0.04231713 0.051724412
0.53229231 0.04180228 0.051716216
0.5312075 0.041922528 0.052075926
0.5308072 0.041408535 0.052067745
0.53040683 0.040894538 0.052059561
0.52932471 0.041018188 0.052419327
0.52892506 0.040505044 0.052411158
0.52852535 0.039991897 0.052402992
0.5281257 0.039478753 0.052394822
0.52772605 0.038965605 0.052386653
0.52664787 0.039094362 0.052746501
0.52624887 0.038582068 0.052738346
0.52584982 0.038069773 0.052730191
0.52545083 0.037557479 0.052722037
0.52437598 0.037690524 0.053081971
0.52397758 0.037179083 0.053073831
0.52357924 0.036667638 0.053065687
0.5231809 0.036156196 0.053057548
0.52278256 0.035644751 0.053049408
0.52238423 0.03513331 0.053041264
0.52198589 0.034621865 0.053033125
0.52158755 0.034110423 0.053024981
0.52118921 0.033598978 0.053016841
0.52079087 0.033087533 0.053008702
0.52039248 0.032576092 0.053000558
0.51999414 0.032064646 0.052992418
0.5195958 0.031553205 0.052984275
0.51919746 0.031041762 0.052976135
0.51879913 0.030530319 0.052967992
0.51840079 0.030018875 0.052959852
0.51800245 0.029507432 0.052951712
0.51760411 0.028995989 0.052943569
0.51720577 0.028484546 0.052935429
0.51680744 0.027973102 0.052927285
0.51640904 0.027461659 0.052919146
0.5160107 0.026950216 0.052911006
0.51561236 0.026438771 0.052902862
0.51521403 0.025927328 0.052894723
0.51481569 0.025415884 0.052886579
0.5150767 0.024237826 0.052510008
0.51467764 0.023725532 0.052501854
0.51427865 0.023213238 0.052493699
0.51453692 0.022031812 0.052117098
0.51413727 0.021518664 0.052108929
0.51439357 0.020334685 0.051732287
0.5146485 0.019149002 0.051355615
0.51424754 0.018634152 0.05134742
0.51384652 0.018119307 0.051339224
0.51344556 0.017604457 0.051331028
0.51369721 0.016414519 0.05095429
0.51329553 0.015898824 0.050946079
0.51354522 0.014706298 0.050569281
0.51314288 0.01418975 0.050561056
0.51274061 0.013673197 0.050552834
0.51298761 0.012477304 0.050176002
0.51258463 0.011959904 0.050167765
0.51282966 0.010761461 0.049790893
0.51307333 0.0095613105 0.04941399
0.51331574 0.0083594555 0.049037062
0.51291072 0.0078395065 0.049028784
0.51315117 0.006635068 0.048651796
0.51339024 0.0054289601 0.0482748
0.51362795 0.0042211488 0.047897775
0.51386434 0.0030116397 0.047520727
0.51345676 0.0024882779 0.047512397
0.51369119 0.0012761798 0.047135282
0.5139243 6.241801e-05 0.046758164
0.51415604 -0.0011530531 0.046381019
0.51374644 -0.0016789642 0.046372648
0.5146156 -0.0035890942 0.045626651
0.51484346 -0.0048097037 0.045249403
0.5150699 -0.006031977 0.04487215
0.51529503 -0.0072559537 0.044494867
0.5161556 -0.0091771502 0.043748692
0.51828569 -0.012494518 0.042264678
0.51913965 -0.014424248 0.041518345
0.52062571 -0.017055424 0.040403072
0.52210778 -0.019691743 0.039287694
0.52358586 -0.022333166 0.038172238
0.52569276 -0.025680315 0.036687747
0.52716225 -0.028332766 0.035572134
0.5279963 -0.030288037 0.034825396
0.52882773 -0.032246668 0.034078624
0.52902633 -0.033504684 0.033700801
0.5285942 -0.034059525 0.033691969
0.52879089 -0.035320133 0.033314086
0.52835804 -0.035875823 0.033305239
0.52792525 -0.036431517 0.033296395
0.52749246 -0.036987215 0.033287548
0.52643347 -0.036833741 0.033647809
0.52600133 -0.037388589 0.033638977
0.52556914 -0.03794343 0.033630144
0.52513701 -0.038498279 0.033621311
0.52470487 -0.03905312 0.033612482
0.52427274 -0.039607964 0.03360365
0.52384055 -0.040162805 0.033594817
0.52340841 -0.040717654 0.033585984
0.54379147 0.04637263 0.048668239
0.54338586 0.045851827 0.04865995
0.54367429 0.044709802 0.04828297
0.54326802 0.044188146 0.048274662
0.5428617 0.043666489 0.048266359
0.54245543 0.043144833 0.048258055
0.54204911 0.042623177 0.048249751
0.54095203 0.042727005 0.04861021
0.54054642 0.042206198 0.048601918
0.5394513 0.042312611 0.048962437
0.5383575 0.042420685 0.049322963
0.53726506 0.042530466 0.049683511
0.53617394 0.042641949 0.05004409
0.53508419 0.042755134 0.050404694
0.53468186 0.042238586 0.050396472
0.53359401 0.042354356 0.05075714
0.53319234 0.041838657 0.050748929
0.53210652 0.041956946 0.051109616
0.53170556 0.0414421 0.051101424
0.53062171 0.041562945 0.051462147
0.5302214 0.041048948 0.051453967
0.52982104 0.040534951 0.051445786
0.52873987 0.040659197 0.051806565
0.52834022 0.040146049 0.0517984
0.52794057 0.039632905 0.05179023
0.52754086 0.039119761 0.05178206
0.52646303 0.039248262 0.052142911
0.52606404 0.038735967 0.052134756
0.52566499 0.038223673 0.052126601
0.52526599 0.037711374 0.052118447
0.524867 0.037199084 0.052110292
0.52379304 0.037332725 0.052471243
0.5233947 0.03682128 0.052463103
0.52299637 0.036309838 0.05245496
0.52259803 0.035798393 0.05244682
0.52219969 0.035286952 0.052438676
0.52180135 0.034775507 0.052430537
0.52140301 0.034264065 0.052422397
0.52100468 0.03375262 0.052414253
0.52060634 0.033241179 0.052406114
0.520208 0.032729734 0.05239797
0.5198096 0.032218292 0.05238983
0.51941127 0.031706847 0.052381691
0.51901293 0.031195404 0.052373547
0.51861459 0.030683961 0.052365407
0.51821625 0.030172518 0.052357264
0.51781791 0.029661074 0.052349124
0.51741958 0.029149631 0.052340984
0.51702124 0.028638188 0.052332841
0.5166229 0.028126745 0.052324701
0.51622456 0.027615301 0.052316558
0.51648784 0.026440905 0.05193904
0.51608884 0.025928611 0.051930886
0.51568985 0.025416315 0.051922731
0.51529086 0.02490402 0.051914576
0.5148918 0.024391726 0.051906422
0.51449281 0.023879431 0.051898267
0.51475143 0.022699112 0.051520675
0.51435179 0.022185966 0.051512506
0.51395214 0.021672819 0.051504336
0.51420808 0.020489095 0.051126692
0.51446277 0.019303666 0.050749019
0.51406175 0.018788816 0.050740823
0.51366079 0.018273972 0.050732628
0.51325977 0.017759122 0.050724432
0.51351112 0.016569441 0.050346691
0.51310945 0.016053744 0.050338481
0.51335883 0.014861475 0.049960677
0.51295656 0.014344927 0.049952455
0.51255423 0.013828373 0.049944233
0.51280093 0.012632735 0.049566396
0.51239794 0.012115336 0.049558159
0.51264268 0.010917149 0.049180284
0.51288605 0.009717253 0.04880238
0.5131281 0.0085156541 0.048424449
0.51272315 0.0079957051 0.048416171
0.51296324 0.0067915223 0.048038181
0.51320201 0.00558567 0.047660179
0.51343942 0.0043781144 0.047282156
0.51367551 0.0031688611 0.046904102
0.51326793 0.0026454993 0.046895772
0.51350206 0.001433657 0.046517655
0.51373488 0.00022015083 0.046139535
0.51396632 -0.00099506474 0.045761388
0.51355672 -0.0015209758 0.045753017
0.51378614 -0.0027387408 0.045374829
0.5140143 -0.003958209 0.044996615
0.51424116 -0.0051794089 0.04461835
0.51510376 -0.0070966869 0.043870222
0.51596367 -0.0090173725 0.043122042
0.51682103 -0.010941492 0.042373784
0.51894593 -0.014262936 0.040885679
0.52043104 -0.016893344 0.039767396
0.52191222 -0.019528896 0.038649011
0.52402252 -0.022869067 0.037160609
0.52612752 -0.026216045 0.035672095
0.52759534 -0.02886858 0.034553461
0.5284282 -0.030824186 0.033804704
0.52925831 -0.032783158 0.033055913
0.52945602 -0.034041803 0.032677051
0.52902317 -0.034597497 0.032668207
0.52921885 -0.035858665 0.032289326
0.52878535 -0.036415212 0.032280467
0.5283519 -0.036971755 0.032271609
0.52729195 -0.036820281 0.032632824
0.5268591 -0.037375972 0.032623976
0.52642632 -0.037931666 0.032615133
0.52599353 -0.038487364 0.032606285
0.52556068 -0.039043058 0.032597441
0.52512789 -0.039598748 0.032588594
0.5246951 -0.04015445 0.03257975
0.52426225 -0.04071014 0.032570902
0.52382946 -0.041265834 0.032562058
0.52339667 -0.041821532 0.032553211
0.5436036 0.046529084 0.048054624
0.54319793 0.046008281 0.048046336
0.54348612 0.04486651 0.047668349
0.54307979 0.044344854 0.047660045
0.54267353 0.043823201 0.047651742
0.5422672 0.043301545 0.047643438
0.54186088 0.042779889 0.047635134
0.54076415 0.042883456 0.047996592
0.54035848 0.042362653 0.047988303
0.53926367 0.042468809 0.048349824
0.53817022 0.04257663 0.048711352
0.53707808 0.042686153 0.049072903
0.53598726 0.042797379 0.049434483
0.5348978 0.042910311 0.049796093
0.53449547 0.042393763 0.049787868
0.53340793 0.042509276 0.050149541
0.53300631 0.041993577 0.050141331
0.53192079 0.042111613 0.050503019
0.53151977 0.041596763 0.050494824
0.53043628 0.041717354 0.050856553
0.53003591 0.041203357 0.050848372
0.52963561 0.04068936 0.050840192
0.5292353 0.040175363 0.050832007
0.52815509 0.040300205 0.051193807
0.52775538 0.039787062 0.051185638
0.52735573 0.039273914 0.051177468
0.52695608 0.03876077 0.051169302
0.52655637 0.038247623 0.051161133
0.52548015 0.038377568 0.051523011
0.52508116 0.037865274 0.051514857
0.52468216 0.037352983 0.051506702
0.52428317 0.036840688 0.051498547
0.52388412 0.036328394 0.051490393
0.52348512 0.035816096 0.051482238
0.52308613 0.035303805 0.051474083
0.52268714 0.034791511 0.051465929
0.52228814 0.034279216 0.051457774
0.52188909 0.033766922 0.051449619
0.5214901 0.033254627 0.051441465
0.5210911 0.032742333 0.051433306
0.52069211 0.032230038 0.051425152
0.52029306 0.031717744 0.051416997
0.51989406 0.031205447 0.051408842
0.51949507 0.030693159 0.051400688
0.51909608 0.030180864 0.051392533
0.51869708 0.029668568 0.051384378
0.51829803 0.029156273 0.051376224
0.51789904 0.028643979 0.051368069
0.51750004 0.028131682 0.051359914
0.51710105 0.027619388 0.05135176
0.516702 0.027107093 0.051343605
0.516303 0.026594805 0.05133545
0.51590401 0.026082508 0.051327296
0.51550502 0.025570214 0.051319141
0.51510602 0.025057919 0.051310986
0.51536566 0.023879554 0.050932419
0.51496601 0.023366407 0.050924249
0.5145663 0.022853266 0.050916083
0.51416665 0.022340119 0.050907914
0.513767 0.021826973 0.050899744
0.51402265 0.020643504 0.050521094
0.51427698 0.019458331 0.050142419
0.51387602 0.018943481 0.050134223
0.513475 0.018428637 0.050126027
0.51307404 0.017913787 0.050117832
0.51332504 0.016724361 0.049739089
0.51292342 0.016208665 0.049730882
0.51317251 0.015016651 0.049352076
0.51277018 0.014500103 0.04934385
0.51236784 0.01398355 0.049335629
0.51261425 0.012788167 0.048956789
0.51221126 0.012270768 0.048948556
0.5124557 0.011072837 0.048569676
0.51269877 0.0098731965 0.048190769
0.51294053 0.0086718528 0.047811836
0.51253551 0.0081519037 0.047803558
0.51277536 0.006947977 0.047424562
0.51301378 0.0057423804 0.047045562
0.51325089 0.0045350804 0.046666533
0.51348668 0.0033260826 0.046287477
0.51307911 0.0028027208 0.046279147
0.51331294 0.0015911341 0.045900028
0.51354539 0.00037788361 0.045520905
0.51377654 -0.00083707628 0.045141757
0.51336694 -0.0013629874 0.045133386
0.51359612 -0.0025804967 0.044754196
0.51382393 -0.0037997093 0.044374976
0.51405048 -0.0050206534 0.043995708
0.51427567 -0.0062432732 0.043616436
0.51513571 -0.0081625897 0.042866267
0.51599306 -0.010085353 0.042116016
0.51811737 -0.013404922 0.040623914
0.51960224 -0.016033711 0.039502636
0.52235007 -0.020064456 0.037639402
0.52445847 -0.023404457 0.036146972
0.52656162 -0.026751263 0.034654438
0.52802795 -0.029403917 0.033532761
0.52885944 -0.031359825 0.032782003
0.5296883 -0.033319175 0.032031175
0.52988499 -0.034578387 0.031651318
0.52945149 -0.03513493 0.031642459
0.52901804 -0.035691474 0.031633601
0.5285846 -0.036248017 0.031624742
0.52815109 -0.036804564 0.031615883
0.52771765 -0.037361115 0.031607024
0.52728415 -0.037917659 0.031598162
0.5268507 -0.038474202 0.031589303
0.5264172 -0.039030746 0.031580444
0.52536023 -0.03887612 0.031942718
0.52492738 -0.039431814 0.03193387
0.52449459 -0.039987512 0.031925026
0.5240618 -0.040543206 0.031916179
0.52362895 -0.041098896 0.031907335
0.52319616 -0.041654594 0.031898487
0.54341567 0.046685539 0.047441009
0.54370415 0.045544878 0.047062036
0.54329789 0.045023222 0.047053732
0.54289156 0.044501565 0.047045428
0.5424853 0.043979909 0.047037125
0.54207897 0.043458253 0.047028821
0.54167271 0.042936601 0.047020514
0.54057622 0.04303991 0.047382977
0.54017061 0.042519107 0.047374688
0.53907609 0.042625006 0.047737211
0.53798294 0.042732574 0.048099741
0.5368911 0.042841844 0.048462294
0.53580058 0.042952813 0.04882488
0.53471142 0.043065485 0.049187489
0.53430909 0.04254894 0.049179267
0.53390676 0.042032387 0.049171045
0.53282022 0.042148497 0.049533732
0.531735 0.042266276 0.049896423
0.53133404 0.041751429 0.049888227
0.53093302 0.041236583 0.049880031
0.52985048 0.041357767 0.050242778
0.52945018 0.040843766 0.050234597
0.52904981 0.040329773 0.050226413
0.52796996 0.040454358 0.050589215
0.52757025 0.039941214 0.050581045
0.5271706 0.039428066 0.050572876
0.52677095 0.038914923 0.05056471
0.52637124 0.038401779 0.05055654
0.52597159 0.037888635 0.050548371
0.52489632 0.038019173 0.050911266
0.52449733 0.037506882 0.050903112
0.52409834 0.036994584 0.050894957
0.52369928 0.036482289 0.050886802
0.52330029 0.035969995 0.050878648
0.5229013 0.035457704 0.050870493
0.5225023 0.03494541 0.050862338
0.52210331 0.034433115 0.050854184
0.52170426 0.033920821 0.050846029
0.52130526 0.033408526 0.050837874
0.52090627 0.032896232 0.05082972
0.52050728 0.032383937 0.050821565
0.52010822 0.031871639 0.05081341
0.51970923 0.031359345 0.050805256
0.51931024 0.030847056 0.050797097
0.51891124 0.030334761 0.050788943
0.51851225 0.029822467 0.050780788
0.5181132 0.029310171 0.050772633
0.5177142 0.028797876 0.050764479
0.51731521 0.028285582 0.050756324
0.51691622 0.027773285 0.050748169
0.51651716 0.027260991 0.050740015
0.51611817 0.026748702 0.05073186
0.51637954 0.025573142 0.050352331
0.51597983 0.025059996 0.050344162
0.51558018 0.024546854 0.050335996
0.51518053 0.024033708 0.050327826
0.51478082 0.023520561 0.050319657
0.51438117 0.023007421 0.050311491
0.51398152 0.022494273 0.050303321
0.51358181 0.021981126 0.050295152
0.51383722 0.020797914 0.0499155
0.51409125 0.019612996 0.049535822
0.51369023 0.019098146 0.049527626
0.51328927 0.018583301 0.049519431
0.51288825 0.018068451 0.049511235
0.51313901 0.016879281 0.04913149
0.51273733 0.016363585 0.04912328
0.51298612 0.015171827 0.048743472
0.51258379 0.014655279 0.04873525
0.51218146 0.014138726 0.048727028
0.51242757 0.012943599 0.048347186
0.51202458 0.0124262 0.04833895
0.51226866 0.011228524 0.047959067
0.51251143 0.01002914 0.047579158
0.51275289 0.0088280514 0.047199223
0.51234794 0.0083081024 0.047190946
0.51258743 0.0071044317 0.046810947
0.51282561 0.0058990908 0.046430945
0.51306242 0.004692046 0.046050914
0.51329786 0.0034833041 0.045670856
0.51289028 0.0029599422 0.045662522
0.51312381 0.0017486112 0.045282405
0.51335597 0.00053561636 0.044902276
0.51294702 1.0556987e-05 0.04489392
0.51253808 -0.0005145024 0.044885561
0.51340604 -0.0024222524 0.044133559
0.51363361 -0.0036412096 0.043753341
0.51385981 -0.0048618983 0.043373071
0.5140847 -0.0060842619 0.042992797
0.51494408 -0.0080030672 0.04224062
0.51516563 -0.0092296842 0.041860275
0.51792395 -0.013243866 0.039992251
0.51940787 -0.015871888 0.038867965
0.52278739 -0.02059954 0.036627766
0.52489388 -0.023939334 0.035131335
0.52699512 -0.027285971 0.033634774
0.52845985 -0.029938711 0.032510076
0.52929008 -0.031894956 0.031757303
0.52948779 -0.033152241 0.031376448
0.53031337 -0.035114449 0.030623581
0.52987921 -0.035671845 0.030614708
0.52944511 -0.036229242 0.030605836
0.52901095 -0.036786638 0.030596962
0.52857685 -0.037344035 0.03058809
0.52814269 -0.037901431 0.030579217
0.52770859 -0.038458832 0.030570345
0.52727443 -0.039016228 0.030561471
0.52621639 -0.038863555 0.030924719
0.52578294 -0.039420098 0.03091586
0.52534944 -0.039976649 0.030906999
0.52429408 -0.039820574 0.031270303
0.52386129 -0.040376268 0.031261455
0.5234285 -0.040931962 0.031252611
0.52299565 -0.04148766 0.031243764
0.54420978 0.045081984 0.046075728
0.54380286 0.044559475 0.046067413
0.54339588 0.04403697 0.046059094
0.54229707 0.044136621 0.046422504
0.5418908 0.043614965 0.0464142
0.54148448 0.043093309 0.046405897
0.54038835 0.043196365 0.046769362
0.53998268 0.042675562 0.046761069
0.53888845 0.042781208 0.047124598
0.5377956 0.042888518 0.047488131
0.53670412 0.042997532 0.047851689
0.53561389 0.043108243 0.048215274
0.53521097 0.042590845 0.048207037
0.53412277 0.042704113 0.048570663
0.53372043 0.042187564 0.048562441
0.53263414 0.042303421 0.04892613
0.53154927 0.042420942 0.049289826
0.53114825 0.041906092 0.049281631
0.53074729 0.041391246 0.049273435
0.53034627 0.0408764 0.049265239
0.52926469 0.040998176 0.049628999
0.52886438 0.040484183 0.049620818
0.52846402 0.039970186 0.049612638
0.52806371 0.039456192 0.049604457
0.52766335 0.038942192 0.049596272
0.52726305 0.038428195 0.049588092
0.52618611 0.038555931 0.049951948
0.52578646 0.038042787 0.049943779
0.52538675 0.037529644 0.049935613
0.5249871 0.037016496 0.049927443
0.52458745 0.036503352 0.049919274
0.52418774 0.035990205 0.049911108
0.52378809 0.035477061 0.049902938
0.52271646 0.0356116 0.050266903
0.52231747 0.035099305 0.050258748
0.52191848 0.034587014 0.050250594
0.52151942 0.03407472 0.050242439
0.52112043 0.033562426 0.050234284
0.52072144 0.033050127 0.05022613
0.52032244 0.032537833 0.050217975
0.51992339 0.032025538 0.05020982
0.5195244 0.031513244 0.050201666
0.5191254 0.031000955 0.050193511
0.51872641 0.030488659 0.050185356
0.51832741 0.029976364 0.050177202
0.51792836 0.02946407 0.050169047
0.51752937 0.028951773 0.050160889
0.51713037 0.028439479 0.050152734
0.51673138 0.027927184 0.050144579
0.51633233 0.02741489 0.050136425
0.51659405 0.026240444 0.049755909
0.51619434 0.025727296 0.049747739
0.51579469 0.025214149 0.049739569
0.51539505 0.024701009 0.049731404
0.51565343 0.023522304 0.049350817
0.51525307 0.023008306 0.049342632
0.51485276 0.022494312 0.049334452
0.5144524 0.021980314 0.049326271
0.51405209 0.021466315 0.049318086
0.51365173 0.020952323 0.049309906
0.51390547 0.019767661 0.048929226
0.51350451 0.019252811 0.04892103
0.51310349 0.018737966 0.048912834
0.51270252 0.018223116 0.048904639
0.51295292 0.017034203 0.048523888
0.51255125 0.016518507 0.048515681
0.51279974 0.015327004 0.048134867
0.51239741 0.014810456 0.048126645
0.51199508 0.014293902 0.048118424
0.51224089 0.013099032 0.04773758
0.5118379 0.012581632 0.047729343
0.51208168 0.011384212 0.047348458
0.51232415 0.010185083 0.046967547
0.51256531 0.0089842509 0.04658661
0.51216036 0.0084643019 0.046578333
0.51239955 0.007260886 0.046197332
0.51263738 0.0060558007 0.045816325
0.51287389 0.004849012 0.045435291
0.51310903 0.0036405255 0.045054231
0.51270139 0.0031171639 0.045045901
0.51293463 0.0019060884 0.044664778
0.51316655 0.00069334917 0.044283647
0.5127576 0.00016828977 0.044275291
0.51234865 -0.00035676963 0.044266932
0.51321602 -0.0022640084 0.043512926
0.51344323 -0.0034827099 0.043131702
