# .PCD v0.7 - Point Cloud Data file format
VERSION 0.7
FIELDS x y z
SIZE 4 4 4
TYPE F F F
COUNT 1 1 1
WIDTH 1330
HEIGHT 1
VIEWPOINT 0 0 0 1 0 0 0
POINTS 1330
DATA ascii
0.59577203 -0.027266091 0.032107785
0.59604853 -0.026359694 0.032096133
0.59632504 -0.025453299 0.03208448
0.59660149 -0.024546903 0.032072827
0.59687799 -0.023640508 0.032061175
0.5971545 -0.022734111 0.032049522
0.597431 -0.021827715 0.032037869
0.59770751 -0.02092132 0.032026216
0.5971387 -0.019621126 0.031599328
0.59657043 -0.018318851 0.0311724
0.59684759 -0.017410383 0.031160722
0.5971247 -0.016501922 0.031149043
0.59740186 -0.015593462 0.031137362
0.59599149 -0.013887074 0.030295083
0.59542584 -0.012576535 0.02986805
0.59486079 -0.011263953 0.029441005
0.59429634 -0.0099492744 0.029013917
0.59373254 -0.0086325323 0.028586831
0.59232724 -0.0069096126 0.027744325
0.59176499 -0.0055876998 0.027317144
0.59036189 -0.0038575318 0.026474545
0.58896005 -0.0021232315 0.02563192
0.5875594 -0.00038478753 0.024789199
0.58616006 0.0013577709 0.023946455
0.58476192 0.0031044898 0.023103641
0.58336514 0.0048553208 0.022260776
0.58280927 0.006197894 0.021833345
0.58987254 -0.041111171 0.030544348
0.59014964 -0.040202711 0.030532669
0.58957475 -0.038923282 0.030104997
0.58985221 -0.038013786 0.030093305
0.59012967 -0.037104294 0.030081613
0.59040713 -0.036194794 0.030069919
0.59068459 -0.035285302 0.030058227
0.59096199 -0.034375809 0.030046534
0.59123945 -0.033466309 0.030034842
0.5923667 -0.032935012 0.030439233
0.59264386 -0.032026552 0.030427555
0.59377021 -0.031498373 0.030831987
0.59404701 -0.030590942 0.030820321
0.59517235 -0.030065857 0.031224793
0.59544885 -0.02915946 0.03121314
0.59572536 -0.028253065 0.031201487
0.59600186 -0.027346676 0.031189835
0.59627837 -0.02644028 0.031178182
0.59655482 -0.025533885 0.031166529
0.59683132 -0.024627488 0.031154877
0.59710783 -0.023721093 0.031143222
0.59738433 -0.022814697 0.031131569
0.59766084 -0.021908302 0.031119917
0.59793735 -0.021001905 0.031108264
0.59736878 -0.019701803 0.030680329
0.59764558 -0.018794369 0.030668661
0.59707797 -0.017491153 0.030240685
0.59735507 -0.01658269 0.030229006
0.59763217 -0.01567423 0.030217325
0.59622234 -0.013968027 0.029372945
0.59565699 -0.01265758 0.028944876
0.59509218 -0.011345089 0.028516781
0.59452796 -0.010030502 0.028088642
0.59396446 -0.0087138526 0.027660508
0.5925597 -0.0069911163 0.026815915
0.59199768 -0.0056692958 0.026387684
0.59059513 -0.003939311 0.025542999
0.58919376 -0.0022051951 0.024698274
0.58779365 -0.00046693423 0.023853468
0.58639485 0.0012754399 0.023008622
0.5849973 0.0030219757 0.022163725
0.583601 0.0047726235 0.021318773
0.59010285 -0.041191939 0.029624324
0.59038001 -0.040283479 0.029612646
0.58980536 -0.03900414 0.029183924
0.59008282 -0.038094647 0.029172232
0.59036028 -0.037185155 0.029160539
0.59063774 -0.036275655 0.029148847
0.59176564 -0.035741169 0.02955425
0.5920428 -0.034832709 0.029542569
0.59231991 -0.033924241 0.02953089
0.59259707 -0.03301578 0.029519212
0.59287417 -0.03210732 0.029507531
0.59400028 -0.031579047 0.029912999
0.59427708 -0.030671619 0.029901333
0.59540218 -0.03014644 0.030306855
0.59567869 -0.029240046 0.030295203
0.59595513 -0.028333649 0.03028355
0.59623164 -0.02742726 0.030271897
0.59650815 -0.026520865 0.030260244
0.59678465 -0.025614468 0.030248592
0.59706116 -0.024708074 0.030236939
0.59733766 -0.023801677 0.030225286
0.59761417 -0.022895282 0.030213634
0.59789068 -0.021988885 0.030201981
0.59816718 -0.021082489 0.030190328
0.59759885 -0.01978248 0.02976134
0.59787571 -0.018875046 0.029749675
0.59815252 -0.017967617 0.029738009
0.59842932 -0.017060189 0.029726343
0.59786254 -0.015754998 0.029297303
0.59729648 -0.014447754 0.028868223
0.59673101 -0.013138453 0.028439118
0.59616619 -0.011827066 0.028009985
0.59560198 -0.010513628 0.027580824
0.59503835 -0.0091980947 0.027151624
0.59363377 -0.007476565 0.026304973
0.59223038 -0.0057508918 0.025458224
0.59082836 -0.00402109 0.024611453
0.58942753 -0.0022871587 0.023764629
0.58802795 -0.00054908218 0.022917721
0.58410943 0.0024204846 0.020818204
0.58271337 0.0041699084 0.019971166
0.5813185 0.0059234924 0.019124059
0.59005606 -0.042181171 0.028715966
0.59033322 -0.041272711 0.028704287
0.59061033 -0.040364251 0.028692609
0.59003597 -0.039085001 0.028262837
0.59031343 -0.038175508 0.028251145
0.59059089 -0.037266016 0.028239451
0.59086835 -0.036356516 0.02822776
0.59199601 -0.035821937 0.028634211
0.59227312 -0.034913477 0.028622532
0.59255028 -0.034005009 0.028610853
0.59282738 -0.033096548 0.028599173
0.59395355 -0.032567155 0.029005678
0.59423035 -0.031659726 0.028994013
0.59535551 -0.031133421 0.029400572
0.59563196 -0.030227026 0.029388919
0.59590846 -0.029320629 0.029377265
0.59618497 -0.028414235 0.029365612
0.59646147 -0.027507845 0.029353959
0.59673798 -0.026601449 0.029342307
0.59701449 -0.025695054 0.029330654
0.59729099 -0.024788657 0.029319001
0.5975675 -0.023882262 0.029307349
0.597844 -0.022975866 0.029295696
0.59812051 -0.022069469 0.029284043
0.59839702 -0.021163074 0.029272391
0.59782898 -0.019863157 0.028842354
0.59810579 -0.018955722 0.028830688
0.59838259 -0.018048294 0.028819021
0.5986594 -0.017140865 0.028807355
0.59809291 -0.015835768 0.028377267
0.59752709 -0.014528615 0.027947135
0.59696186 -0.013219407 0.02751698
0.59639728 -0.01190811 0.027086811
0.59583336 -0.010594765 0.026656602
0.59527004 -0.0092793219 0.026226364
0.59386593 -0.0075579765 0.025377613
0.59246308 -0.0058324868 0.024528779
0.59106159 -0.0041028708 0.023679893
0.5896613 -0.0023691223 0.022830984
0.5882622 -0.00063122885 0.02198199
0.58434498 0.0023378767 0.019877221
0.58210993 0.004497197 0.0186095
0.57987678 0.0066627092 0.017341714
0.5734511 0.010895085 0.013980744
0.57122326 0.013078171 0.012712703
0.59113866 -0.042629547 0.028215019
0.59141546 -0.041722119 0.028203353
0.5908407 -0.040445019 0.027772572
0.59026659 -0.039165862 0.02734175
0.59054404 -0.03825637 0.027330058
0.5908215 -0.037346877 0.027318364
0.59109896 -0.036437377 0.027306672
0.59222633 -0.035902705 0.027714174
0.59250349 -0.034994245 0.027702495
0.59278059 -0.034085777 0.027690817
0.59390682 -0.033555258 0.028098358
0.59418362 -0.03264783 0.028086692
0.59530878 -0.032120403 0.028494272
0.59558529 -0.031214006 0.02848262
0.59586179 -0.030307611 0.028470967
0.5961383 -0.029401215 0.028459314
0.5964148 -0.02849482 0.028447662
0.59669131 -0.027588431 0.028436009
0.59696782 -0.026682034 0.028424356
0.59724432 -0.025775639 0.028412703
0.59752083 -0.024869243 0.028401051
0.59779733 -0.023962848 0.028389398
0.59807384 -0.023056451 0.028377745
0.59835035 -0.022150056 0.028366093
0.59862679 -0.02124366 0.02835444
0.59805906 -0.019943833 0.027923366
0.59833586 -0.019036399 0.0279117
0.59861267 -0.018128971 0.027900035
0.59888947 -0.017221542 0.027888369
0.59916633 -0.016314114 0.027876703
0.59860039 -0.015008075 0.027445549
0.59719276 -0.013300358 0.026594857
0.59662843 -0.011989154 0.026163638
0.59606475 -0.010675901 0.025732378
0.59550166 -0.00936055 0.025301091
0.59409815 -0.0076393895 0.024450239
0.59269583 -0.0059140828 0.023599319
0.59129483 -0.0041846498 0.022748347
0.58905482 -0.0020442174 0.021477729
0.58765662 -0.00030548536 0.020626638
0.58374107 0.0026642014 0.018516636
0.58066785 0.0052342406 0.016826117
0.57843602 0.007401559 0.015555153
0.57369035 0.010811191 0.013025118
0.57146329 0.012994002 0.01175394
0.56337231 0.01808174 0.0075448682
0.59136873 -0.042710226 0.027296031
0.59164554 -0.041802797 0.027284365
0.59107101 -0.040525787 0.026852535
0.59134817 -0.039617326 0.026840854
0.59162527 -0.038708858 0.026829176
0.59190243 -0.037800398 0.026817497
0.59217954 -0.036891937 0.026805816
0.5924567 -0.035983477 0.026794137
0.59358323 -0.035450798 0.027202703
0.59386009 -0.034543369 0.027191037
0.59413689 -0.033635933 0.027179372
0.59526211 -0.033107385 0.027587989
0.59553862 -0.032200988 0.027576337
0.59581512 -0.031294592 0.027564684
0.59609163 -0.030388195 0.027553031
0.59636813 -0.0294818 0.027541379
0.59664464 -0.028575404 0.027529726
0.59692115 -0.027669016 0.027518073
0.59719765 -0.02676262 0.027506419
0.59747416 -0.025856223 0.027494766
0.59775066 -0.024949828 0.027483113
0.59802711 -0.024043432 0.02747146
0.59830362 -0.023137037 0.027459808
0.59858012 -0.02223064 0.027448155
0.59885663 -0.021324245 0.027436502
0.59828913 -0.02002451 0.02700438
0.59856594 -0.019117076 0.026992714
0.59884274 -0.018209647 0.026981048
0.5991196 -0.017302219 0.026969381
0.59939641 -0.01639479 0.026957715
0.5988307 -0.015088844 0.026525512
0.59742361 -0.013381311 0.025672734
0.59685957 -0.012070199 0.025240449
0.59629619 -0.010757037 0.024808155
0.59573334 -0.009441779 0.024375817
0.59433031 -0.0077208015 0.02352288
0.59292853 -0.0059956787 0.022669861
0.59152806 -0.0042664288 0.021816803
0.58928883 -0.0021262718 0.020543048
0.58789116 -0.00038772423 0.019689856
0.58313763 0.0029903417 0.017153947
0.58006579 0.0055610542 0.015459244
0.57699645 0.0081400378 0.013764407
0.57392961 0.010727298 0.012069491
0.57170337 0.012909833 0.010795177
0.56361496 0.017996652 0.0065756328
0.59245044 -0.043158315 0.026798218
0.59272695 -0.042251922 0.026786566
0.59130138 -0.040606555 0.025932496
0.59157854 -0.039698094 0.025920818
0.59185565 -0.038789626 0.025909139
0.59213281 -0.037881166 0.025897458
0.59240991 -0.036972705 0.025885779
0.5935365 -0.036438905 0.026295383
0.59381336 -0.035531476 0.026283717
0.59493893 -0.03500076 0.026693342
0.59521544 -0.034094363 0.02668169
0.59549195 -0.033187971 0.026670037
0.59576845 -0.032281574 0.026658384
0.59604496 -0.031375177 0.026646731
0.59632146 -0.030468782 0.026635079
0.59659797 -0.029562386 0.026623426
0.59687448 -0.028655989 0.026611773
0.59715098 -0.027749602 0.026600121
0.59742749 -0.026843205 0.026588468
0.59770393 -0.02593681 0.026576815
0.59798044 -0.025030414 0.026565162
0.59825695 -0.024124017 0.02655351
0.59853345 -0.023217622 0.026541857
0.59880996 -0.022311226 0.026530204
0.59908646 -0.021404831 0.026518552
0.59851921 -0.020105187 0.026085394
0.59879601 -0.019197751 0.026073726
0.59907287 -0.018290324 0.02606206
0.59934968 -0.017382896 0.026050394
0.59962648 -0.016475467 0.026038729
0.59906107 -0.015169613 0.025605476
0.59765446 -0.013462264 0.024750596
0.59709072 -0.012151244 0.024317278
0.59652758 -0.010838173 0.023883931
0.59596497 -0.0095230071 0.023450544
0.59456247 -0.0078022131 0.022595521
0.59316123 -0.0060772751 0.021740401
0.59176129 -0.0043482096 0.020885242
0.58952284 -0.0022083276 0.019608352
0.58812571 -0.00046996312 0.018753074
0.58337373 0.0029075509 0.016210878
0.58030289 0.005477896 0.01451199
0.57723463 0.008056514 0.01281298
0.57416886 0.010643405 0.011113864
0.5719434 0.012825665 0.0098364148
0.59268028 -0.043238901 0.025880281
0.59295678 -0.042332504 0.025868628
0.59238255 -0.041056722 0.02543471
0.59265935 -0.040149294 0.025423044
0.59293616 -0.039241865 0.025411379
0.59321296 -0.038334437 0.025399713
0.59348983 -0.037427008 0.025388047
0.59376663 -0.03651958 0.025376381
0.59489226 -0.035987742 0.025787059
0.59516877 -0.035081346 0.025775407
0.59544528 -0.034174949 0.025763754
0.59572178 -0.033268552 0.025752101
0.59599829 -0.032362159 0.025740448
0.59627479 -0.031455763 0.025728796
0.5965513 -0.030549366 0.025717143
0.59682781 -0.029642969 0.02570549
0.59710431 -0.028736575 0.025693838
0.59738076 -0.027830185 0.025682185
0.59765726 -0.026923791 0.025670532
0.59793377 -0.026017394 0.025658878
0.59821028 -0.025110997 0.025647225
0.59848678 -0.024204602 0.025635572
0.59876329 -0.023298206 0.025623919
0.59903979 -0.022391811 0.025612267
0.5993163 -0.021485414 0.025600614
0.5995928 -0.02057902 0.025588961
0.59902614 -0.019278429 0.025154725
0.59930295 -0.018371001 0.025143059
0.59957975 -0.017463572 0.025131393
0.59985656 -0.016556146 0.025119727
0.59929144 -0.015250382 0.024685439
0.59788537 -0.013543216 0.023828473
0.59732187 -0.012232288 0.023394104
0.59675896 -0.01091931 0.022959707
0.59619665 -0.0096042342 0.022525284
0.59479469 -0.0078836251 0.021668162
0.59339392 -0.0061588711 0.020810941
0.59199446 -0.0044299886 0.019953696
0.58975685 -0.0022903834 0.018673657
0.58836025 -0.00055220199 0.017816292
0.58360982 0.0028247614 0.015267825
0.58054006 0.0053947377 0.013564736
0.57747287 0.0079729874 0.011861539
0.57440811 0.010559511 0.010158237
0.57218343 0.012741496 0.0088776518
0.59263361 -0.044225883 0.024973998
0.59291011 -0.043319486 0.024962345
0.59318662 -0.042413089 0.024950692
0.59261262 -0.041137401 0.024515724
0.59288943 -0.040229972 0.024504058
0.59316623 -0.039322544 0.024492392
0.59429258 -0.038787514 0.02490408
0.59456909 -0.037881117 0.024892427
0.59484559 -0.036974721 0.024880774
0.5951221 -0.036068324 0.024869122
0.5953986 -0.035161931 0.024857469
0.59567511 -0.034255534 0.024845816
0.59595162 -0.033349138 0.024834163
0.59622812 -0.032442741 0.024822511
0.59650463 -0.031536348 0.024810858
0.59678108 -0.03062995 0.024799205
0.59705758 -0.029723555 0.024787553
0.59733409 -0.028817158 0.0247759
0.59761059 -0.027910771 0.024764247
0.5978871 -0.027004374 0.024752595
0.5981636 -0.026097978 0.024740942
0.59844011 -0.025191583 0.024729289
0.59871662 -0.024285186 0.024717636
0.59899312 -0.023378791 0.024705984
0.59926963 -0.022472395 0.024694331
0.59954613 -0.021566 0.024682678
0.59982264 -0.020659603 0.024671026
0.60009909 -0.019753208 0.024659373
0.60037559 -0.018846812 0.02464772
0.6006521 -0.017940423 0.024636067
0.60008663 -0.016636822 0.024200739
0.59952176 -0.015331151 0.0237654
0.59811622 -0.013624169 0.022906335
0.59755296 -0.012313332 0.022470931
0.59699035 -0.011000446 0.022035485
0.59642828 -0.0096854633 0.021600012
0.59502685 -0.0079650376 0.020740788
0.59362662 -0.0062404657 0.019881496
0.5922277 -0.004511768 0.019022152
0.58999085 -0.0023724379 0.017738974
0.58523953 0.00099571422 0.015184327
0.5830074 0.0031505506 0.013900937
0.58077723 0.0053115808 0.012617496
0.57771105 0.0078894617 0.010910099
0.57464737 0.01047562 0.0092026247
0.57242346 0.012657328 0.0079188887
0.59286344 -0.044306468 0.024056045
0.59313989 -0.043400072 0.024044393
0.59341639 -0.042493675 0.02403274
0.5936929 -0.041587278 0.024021087
0.5939694 -0.040680885 0.024009435
0.59424591 -0.039774489 0.023997782
0.59452242 -0.038868099 0.023986129
0.59479892 -0.037961703 0.023974476
0.59592408 -0.037429672 0.02438724
0.59620023 -0.036524311 0.024375601
0.59647644 -0.035618946 0.024363961
0.59675264 -0.034713581 0.024352321
0.59702879 -0.033808228 0.024340684
0.597305 -0.032902863 0.024329044
0.59758115 -0.031997498 0.024317404
0.59785736 -0.031092135 0.024305765
0.59813356 -0.030186772 0.024294125
0.59840971 -0.029281417 0.024282485
0.59868592 -0.028376052 0.024270846
0.59896213 -0.027470689 0.024259206
0.59923828 -0.026565326 0.024247566
0.59951448 -0.025659969 0.024235927
0.59979063 -0.024754606 0.024224287
0.60006684 -0.023849243 0.024212649
0.60034305 -0.022943879 0.024201009
0.6006192 -0.022038523 0.02418937
0.60005242 -0.020740189 0.023753073
0.60032892 -0.019833794 0.02374142
0.60060543 -0.018927397 0.023729768
0.60088193 -0.018021008 0.023718115
0.60031676 -0.016717499 0.023281753
0.59975213 -0.015411919 0.022845363
0.59834713 -0.013705121 0.021984212
0.5977841 -0.012394377 0.021547757
0.59722173 -0.011081583 0.021111261
0.59665996 -0.0097666914 0.020674737
0.59525907 -0.0080464492 0.019813428
0.59385931 -0.0063220621 0.018952036
0.59246093 -0.004593547 0.018090606
0.59022492 -0.0024544937 0.016804278
0.58547509 0.00091310783 0.014243359
0.58324379 0.0030676678 0.012956818
0.58101439 0.0052284226 0.011670241
0.57794929 0.0078059365 0.0099586584
0.57488668 0.010391726 0.0082469983
0.57182658 0.012985758 0.0065352027
0.59394413 -0.04475306 0.023563471
0.59422034 -0.043847695 0.023551831
0.59449649 -0.04294233 0.023540191
0.5947727 -0.042036969 0.023528552
0.5950489 -0.041131612 0.023516912
0.59532505 -0.040226247 0.023505272
0.59560126 -0.039320886 0.023493633
0.59587741 -0.038415521 0.023481993
0.59615362 -0.037510164 0.023470353
0.59642982 -0.036604803 0.023458714
0.59670597 -0.035699438 0.023447076
0.59698218 -0.034794074 0.023435436
0.59725839 -0.03388872 0.023423797
0.59838134 -0.033362791 0.023837689
0.59865719 -0.032458466 0.023826065
0.5989331 -0.031554136 0.023814438
0.59920895 -0.030649811 0.023802811
0.5994848 -0.02974548 0.023791185
0.59976071 -0.028841149 0.02377956
0.60003656 -0.027936826 0.023767933
0.60031247 -0.027032495 0.023756307
0.60058832 -0.026128171 0.02374468
0.60086417 -0.02522384 0.023733053
0.60114008 -0.024319509 0.023721429
0.60141593 -0.023415186 0.023709802
0.60084879 -0.022119015 0.023272483
0.60112494 -0.021213653 0.023260843
0.60140115 -0.020308288 0.023249203
0.60167736 -0.019402925 0.023237564
0.60111177 -0.018101593 0.022800179
0.60054684 -0.016798176 0.022362767
0.59998244 -0.015492688 0.021925326
0.59857798 -0.013786075 0.021062076
0.59801525 -0.012475422 0.020624571
0.59745312 -0.011162719 0.020187039
0.59605175 -0.0094457334 0.019323668
0.5946517 -0.0077246511 0.018460229
0.59325284 -0.0059994087 0.017596724
0.59185529 -0.0042700525 0.016733181
0.5871045 -0.00091129105 0.01416608
0.5857107 0.00083050021 0.013302376
0.58348018 0.0029847862 0.012012714
0.58041394 0.005554683 0.010297067
0.57818747 0.0077224118 0.0090072323
0.57512593 0.010307833 0.007291371
0.57206684 0.0129015 0.0055754045
0.59389752 -0.045738909 0.022658208
0.59417367 -0.044833552 0.022646569
0.59444988 -0.043928187 0.022634929
0.59557605 -0.043390803 0.023049727
0.59585196 -0.042486474 0.0230381
0.59612781 -0.041582149 0.023026476
0.59640366 -0.040677819 0.023014849
0.59667957 -0.039773494 0.023003222
0.59695542 -0.038869165 0.022991596
0.59723127 -0.037964832 0.022979969
0.59750718 -0.03706051 0.022968344
0.59778303 -0.036156178 0.022956718
0.59805888 -0.035251852 0.022945091
0.59833479 -0.034347523 0.022933464
0.59861064 -0.03344319 0.02292184
0.59888649 -0.032538868 0.022910213
0.5991624 -0.031634536 0.022898586
0.59943825 -0.030730214 0.02288696
0.59971416 -0.029825883 0.022875335
0.59999001 -0.028921552 0.022863708
0.60026586 -0.028017227 0.022852082
0.60054177 -0.027112896 0.022840455
0.60081762 -0.026208572 0.022828829
0.60109347 -0.025304241 0.022817204
0.60136938 -0.02439991 0.022805577
0.60164523 -0.023495587 0.022793951
0.60192108 -0.022591256 0.022782324
0.60219699 -0.021686932 0.022770699
0.60163069 -0.020388782 0.022332303
0.6019069 -0.019483419 0.022320664
0.60134161 -0.018182179 0.021882227
0.60077691 -0.016878851 0.021443779
0.60021281 -0.015573457 0.02100529
0.59880883 -0.013867026 0.020139951
0.5982464 -0.012556466 0.019701397
0.59684455 -0.010842785 0.018835951
0.59628367 -0.0095270537 0.018397344
0.5948841 -0.0078061549 0.01753182
0.59348577 -0.0060810954 0.016666228
0.58957273 -0.0031363433 0.014519851
0.58733958 -0.00099371304 0.013227213
0.58594626 0.00074789382 0.012361408
0.58371651 0.0029019031 0.011068596
0.58065134 0.005471434 0.0093487771
0.57758862 0.0080492375 0.0076288092
0.5745284 0.010635318 0.0059087635
0.59412706 -0.045819402 0.021741306
0.59440327 -0.044914044 0.021729669
0.59467947 -0.044008683 0.021718029
0.59580535 -0.043471206 0.022133876
0.59608126 -0.042566873 0.022122251
0.59635711 -0.041662551 0.022110624
0.59748185 -0.041129235 0.022526527
0.5977574 -0.040225938 0.022514913
0.59803295 -0.039322648 0.0225033
0.5983085 -0.038419347 0.022491688
0.59858406 -0.037516057 0.022480074
0.59885961 -0.036612764 0.022468461
0.59913516 -0.035709467 0.022456849
0.59941071 -0.034806173 0.022445235
0.59968626 -0.033902876 0.022433624
0.59996182 -0.032999586 0.02242201
0.60023737 -0.032096285 0.022410396
0.60051292 -0.031192996 0.022398785
0.60078847 -0.030289697 0.022387171
0.60106403 -0.029386405 0.022375558
0.60133964 -0.028483106 0.022363946
0.60161519 -0.027579814 0.022352332
0.60189074 -0.026676524 0.022340719
0.6021663 -0.025773225 0.022329107
0.60244185 -0.024869934 0.022317493
0.6027174 -0.023966635 0.022305882
0.60299295 -0.023063343 0.022294268
0.60242629 -0.021767333 0.021854848
0.60186028 -0.020469276 0.021415401
0.60213643 -0.019563911 0.021403762
0.60157144 -0.018262763 0.020964291
0.60100698 -0.016959529 0.020524777
0.60044318 -0.015654227 0.020085253
0.59903973 -0.01394798 0.019217815
0.59763753 -0.012237588 0.018350339
0.59707624 -0.010924013 0.017910678
0.59567624 -0.0092063872 0.017043108
0.5942775 -0.0074846013 0.016175471
0.59288007 -0.0057587177 0.01530778
0.58980703 -0.0032184899 0.013584118
0.58757466 -0.0010761364 0.012288331
0.58618188 0.00066528743 0.011420441
0.5839529 0.0028190215 0.010124492
0.58088875 0.0053881835 0.0084004728
0.5778271 0.0079656215 0.0066763326
0.59435666 -0.045899894 0.020824421
0.5946328 -0.044994537 0.020812782
0.5957588 -0.044455938 0.021229651
0.59603465 -0.043551609 0.021218026
0.59631056 -0.042647276 0.021206399
0.5974353 -0.042112838 0.021623338
0.59771085 -0.041209545 0.021611726
0.59798646 -0.040306248 0.021600112
0.59826201 -0.039402954 0.021588499
0.59853756 -0.038499657 0.021576887
0.59881312 -0.037596367 0.021565273
0.59908867 -0.036693074 0.021553662
0.59936422 -0.035789777 0.021542048
0.6004861 -0.035264611 0.021959091
0.60076135 -0.034362353 0.021947492
0.60103655 -0.033460096 0.021935891
0.6013118 -0.032557826 0.021924293
0.60158706 -0.031655569 0.021912692
0.60186231 -0.030753309 0.021901093
0.60213751 -0.029851044 0.021889493
0.60156864 -0.028563416 0.021449145
0.60184419 -0.027660124 0.021437531
0.60211974 -0.026756832 0.02142592
0.6023953 -0.025853535 0.021414306
0.60267085 -0.024950244 0.021402692
0.6029464 -0.024046944 0.021391081
0.60322195 -0.023143653 0.021379467
0.60265559 -0.021847734 0.020938996
0.60208982 -0.020549769 0.020498514
0.60236603 -0.019644404 0.020486875
0.60180122 -0.01834335 0.020046338
0.60123712 -0.017040206 0.019605791
0.6006735 -0.015734995 0.019165214
0.59927058 -0.014028932 0.018295692
0.59786892 -0.012318725 0.017426115
0.59730786 -0.011005242 0.016985403
0.59590846 -0.0092877997 0.016115749
0.5945102 -0.0075661973 0.01524601
0.5931133 -0.005840498 0.01437622
0.58920318 -0.002895623 0.012219385
0.58780968 -0.0011585596 0.011349449
0.58641744 0.0005826811 0.010479473
0.5841893 0.0027361398 0.0091803875
0.58112621 0.005304934 0.0074521825
0.57806557 0.0078820027 0.005723842
0.59458619 -0.045980386 0.019907519
0.5948624 -0.045075033 0.01989588
0.59598809 -0.044536341 0.020313801
0.59711325 -0.043999735 0.020731764
0.5973888 -0.043096446 0.02072015
0.59766436 -0.042193145 0.020708537
0.59793991 -0.041289855 0.020696925
0.59821546 -0.040386558 0.020685311
0.59849101 -0.039483264 0.020673698
0.59876657 -0.038579967 0.020662086
0.59904212 -0.037676673 0.020650472
0.59931767 -0.036773384 0.020638861
0.59959322 -0.035870086 0.020627247
0.60071486 -0.035344828 0.02104534
0.60099012 -0.03444257 0.021033742
0.60126537 -0.033540312 0.021022141
0.60154057 -0.032638043 0.021010542
0.60181582 -0.031735785 0.020998942
0.60209107 -0.030833527 0.020987343
0.60236633 -0.02993126 0.020975742
0.60264152 -0.029029002 0.020964144
0.60291678 -0.028126743 0.020952543
0.60319203 -0.027224477 0.020940945
0.60346729 -0.026322218 0.020929344
0.60374248 -0.025419958 0.020917745
0.60401773 -0.024517693 0.020906145
0.60345101 -0.023223963 0.020464666
0.60288489 -0.021928135 0.020023145
0.60231942 -0.020630261 0.019581614
0.60259557 -0.019724898 0.019569974
0.60203105 -0.018423934 0.019128403
0.60146719 -0.017120883 0.018686803
0.60090387 -0.015815765 0.018245177
0.59950149 -0.014109885 0.017373554
0.59810036 -0.012399861 0.016501892
0.59670043 -0.010685677 0.015630161
0.59362411 -0.0081637576 0.013898338
0.5922274 -0.0064392667 0.013026475
0.59083188 -0.0047106277 0.012154559
0.58943772 -0.0029778618 0.011282603
0.58804476 -0.0012409816 0.010410581
0.58665305 0.0005000747 0.0095385043
0.58442569 0.0026532568 0.0082362685
0.58136362 0.0052216849 0.0065038921
0.57914031 0.00738831 0.0052014841
0.59481579 -0.046060883 0.018990617
0.59509194 -0.045155525 0.018978979
0.59621739 -0.04461674 0.01939795
0.59734231 -0.044080045 0.019816963
0.59761786 -0.043176755 0.019805349
0.59789342 -0.042273454 0.019793736
0.59816897 -0.041370165 0.019782124
0.59844452 -0.040466864 0.01977051
0.59872007 -0.039563574 0.019758899
0.59899563 -0.038660277 0.019747285
0.59927118 -0.037756983 0.019735672
0.59954673 -0.036853693 0.01972406
0.60066843 -0.036327306 0.020143175
0.60178947 -0.035802998 0.020562332
0.60206437 -0.034901764 0.020550746
0.60233927 -0.034000538 0.020539159
0.60261422 -0.033099312 0.020527573
0.60288912 -0.032198083 0.020515986
0.60316408 -0.031296857 0.0205044
0.60343897 -0.030395631 0.020492814
0.60371393 -0.029494405 0.020481227
0.60398883 -0.028593171 0.020469641
0.60426378 -0.027691944 0.020458056
0.60453868 -0.026790718 0.020446468
0.60481364 -0.025889492 0.020434882
0.60508853 -0.024988264 0.020423295
0.60452175 -0.023695651 0.019980781
0.60479701 -0.022793394 0.01996918
0.60423118 -0.021497682 0.01952664
0.60366589 -0.020199876 0.019084042
0.60310131 -0.018900035 0.018641433
0.60253739 -0.017598122 0.018198812
0.60113418 -0.015896533 0.017325141
0.59973234 -0.014190837 0.016451431
0.59833175 -0.012480997 0.015577668
0.59693235 -0.010766997 0.014703837
0.59385711 -0.0082454449 0.012967843
0.59246093 -0.0065211379 0.012093879
0.59106588 -0.0047926824 0.011219877
0.58967227 -0.003060102 0.010345807
0.58827984 -0.0013234048 0.0094716987
0.58688861 0.00041746831 0.0085975369
0.58466202 0.0025703751 0.007292165
0.5824374 0.0047294754 0.0059867431
0.59504533 -0.046141375 0.018073732
0.59532154 -0.045236018 0.018062092
0.59644669 -0.044697143 0.018482098
0.59757131 -0.044160355 0.018902162
0.59784687 -0.043257065 0.018890548
0.59897047 -0.042723358 0.019310622
0.59924573 -0.041821092 0.019299023
0.59952098 -0.040918831 0.019287422
0.59979624 -0.040016573 0.019275824
0.60007143 -0.039114308 0.019264223
0.60034668 -0.03821205 0.019252624
0.60062194 -0.037309788 0.019241024
0.60089719 -0.036407523 0.019229425
0.60201794 -0.035883121 0.019649632
0.60313809 -0.035360791 0.020069836
0.60341275 -0.034460597 0.020058263
0.60368735 -0.033560403 0.02004669
0.60396194 -0.032660205 0.020035118
0.60423654 -0.031760011 0.020023543
0.60451114 -0.030859819 0.020011971
0.60478574 -0.029959625 0.020000398
0.6050604 -0.029059431 0.019988826
0.605335 -0.028159237 0.019977251
0.6056096 -0.027259042 0.019965678
0.60588419 -0.026358848 0.019954106
0.60531706 -0.025068389 0.019510595
0.60475051 -0.023775868 0.01906703
0.60502577 -0.02287361 0.01905543
0.60446018 -0.02157799 0.018611839
0.60389519 -0.020280277 0.01816819
0.60333091 -0.018980527 0.017724548
0.60276723 -0.017678708 0.017280862
0.60136455 -0.015977301 0.016405104
0.59996319 -0.014271789 0.015529308
0.59856313 -0.012562133 0.014653445
0.59716427 -0.010848316 0.013777528
0.59409004 -0.008327133 0.012037333
0.5926944 -0.0066030091 0.011161284
0.59129995 -0.0048747379 0.010285181
0.58990681 -0.0031423408 0.0094090253
0.58851492 -0.0014058281 0.0085328165
0.58712423 0.00033486195 0.0076565687
0.58489841 0.0024874923 0.0063480465
0.58267456 0.0046463171 0.0050394884
0.59527487 -0.046221867 0.01715683
0.59555107 -0.04531651 0.01714519
0.59667599 -0.044777542 0.017566247
0.59780037 -0.044240665 0.017987346
0.59807593 -0.043337375 0.017975733
0.5991993 -0.042803574 0.018396871
0.59947449 -0.041901309 0.018385271
0.59974974 -0.040999051 0.018373672
0.600025 -0.04009679 0.018362071
0.60030025 -0.039194524 0.018350473
0.60057545 -0.038292266 0.018338872
0.6008507 -0.037390005 0.018327273
0.60197157 -0.036864474 0.018748503
0.60309178 -0.036341019 0.019169744
0.60421133 -0.035819624 0.019591028
0.60448563 -0.034920461 0.019579468
0.60475993 -0.034021299 0.019567909
0.60503423 -0.033122137 0.019556347
0.60530853 -0.032222975 0.019544788
0.60558277 -0.03132382 0.019533228
0.60585707 -0.03042466 0.019521669
0.60613137 -0.029525498 0.019510109
0.60640568 -0.028626336 0.019498549
0.60667998 -0.027727174 0.01948699
0.60611248 -0.026438883 0.019042442
0.60554558 -0.025148515 0.01859788
0.60497934 -0.023856085 0.018153278
0.60441369 -0.022561593 0.017708637
0.60468924 -0.021658301 0.017697023
0.60412449 -0.020360678 0.017252341
0.60356045 -0.019061022 0.016807646
0.60299706 -0.017759293 0.016362924
0.60159492 -0.016058069 0.015485081
0.6001941 -0.014352743 0.014607171
0.59879452 -0.01264327 0.013729222
0.59739619 -0.010929638 0.012851204
0.59432304 -0.0084088212 0.011106824
0.59292787 -0.0066848807 0.010228688
0.59153396 -0.0049567926 0.0093504991
0.59014136 -0.0032245799 0.0084722433
0.58874995 -0.0014882501 0.0075939493
0.58735979 0.00025225556 0.0067156004
0.5851348 0.0024046104 0.0054039424
0.59267992 -0.046118092 0.014950463
0.59550446 -0.04630236 0.01623993
0.59578061 -0.045397006 0.01622829
0.59690529 -0.044857945 0.016650397
0.59802938 -0.044320974 0.017072545
0.59830493 -0.043417685 0.017060932
0.59942806 -0.042883795 0.017483106
0.59970331 -0.041981526 0.017471507
0.59997851 -0.041079268 0.017459907
0.60025376 -0.04017701 0.017448308
0.60052902 -0.039274741 0.017436707
0.60080427 -0.038372483 0.017425109
0.60192513 -0.037845828 0.017847374
0.60220009 -0.036944602 0.017835788
0.60332 -0.036421049 0.01825808
0.60443932 -0.035899565 0.018680412
0.60555804 -0.035380159 0.019102788
0.60583204 -0.034482028 0.019091241
0.60610604 -0.033583902 0.019079695
0.60637999 -0.032685779 0.019068148
0.60665399 -0.031787649 0.019056601
0.60692793 -0.03088952 0.019045055
0.60720193 -0.029991398 0.019033508
0.60747594 -0.029093269 0.019021962
0.60690796 -0.027807117 0.018576374
0.60634071 -0.026518915 0.018130776
0.6057741 -0.025228642 0.017685166
0.6052081 -0.023936303 0.017239513
0.60464275 -0.022641901 0.016793836
0.6049183 -0.021738609 0.016782222
0.60435379 -0.02044108 0.016336489
0.60379004 -0.019141516 0.015890744
0.60322684 -0.017839879 0.015444973
0.60182524 -0.016138839 0.014565044
0.60042495 -0.014433694 0.013685048
0.59902591 -0.012724406 0.012804998
0.59762812 -0.011010957 0.011924895
0.59455597 -0.0084905084 0.010176328
0.5931614 -0.0067667519 0.0092960922
0.59176797 -0.0050388486 0.0084158033
0.5903759 -0.0033068187 0.0075354618
0.58898503 -0.0015706733 0.0066550672
0.5875954 0.00016964792 0.0057746181
0.59460866 -0.046925109 0.014899925
0.595734 -0.046382852 0.015323043
0.59601021 -0.045477498 0.015311403
0.59713459 -0.044938348 0.015734546
0.59825844 -0.044401284 0.016157744
0.59938157 -0.043866269 0.016580954
0.59965682 -0.042964011 0.016569356
0.60077906 -0.042432092 0.016992606
0.60105395 -0.041530866 0.016981019
0.60132885 -0.040629633 0.016969433
0.60160381 -0.039728407 0.016957846
0.6018787 -0.038827181 0.01694626
0.60215366 -0.037925951 0.016934674
0.60327363 -0.037401278 0.017357988
0.60439301 -0.036878668 0.017781358
0.60466731 -0.035979506 0.017769799
0.60578579 -0.03546001 0.018193223
0.60605979 -0.03456188 0.018181676
0.60633373 -0.03366375 0.01817013
0.60660774 -0.032765627 0.018158583
0.60688168 -0.0318675 0.018147036
0.60715568 -0.03096937 0.01813549
0.60742968 -0.030071247 0.018123943
0.60770363 -0.029173119 0.018112397
0.60713595 -0.027887058 0.017665761
0.60656899 -0.026598949 0.017219111
0.60600257 -0.025308765 0.016772466
0.60543686 -0.024016522 0.016325762
0.60487175 -0.022722211 0.015879035
0.6051473 -0.021818919 0.015867421
0.60458308 -0.020521481 0.015420638
0.60401958 -0.019222008 0.014973857
0.60345668 -0.017920462 0.014527036
0.60205561 -0.016219607 0.013645006
0.60065585 -0.014514647 0.012762911
0.59925729 -0.012805543 0.011880775
0.59786004 -0.011092277 0.010998571
0.59478897 -0.0085721966 0.0092458185
0.59423208 -0.0072510061 0.0087987585
0.59283888 -0.0055243429 0.0079163974
0.591447 -0.0037935192 0.0070339679
0.59005636 -0.0020585838 0.0061514862
0.58866692 -0.00031948509 0.0052689649
0.5948385 -0.047005694 0.013981989
0.5959636 -0.046463348 0.014406141
0.59623975 -0.045557991 0.014394502
0.59736389 -0.045018747 0.014818709
0.5984875 -0.044481594 0.015242944
0.59961039 -0.043946486 0.015667204
0.60073262 -0.043413445 0.016091477
0.60100752 -0.042512219 0.01607989
0.60128248 -0.041610993 0.016068304
0.60155737 -0.04070976 0.016056718
0.60183233 -0.03980853 0.016045131
0.60210723 -0.038907304 0.016033545
0.60322732 -0.038381506 0.016457897
0.60350192 -0.037481312 0.016446324
0.60462099 -0.036958609 0.016870743
0.60573953 -0.036437981 0.017295191
0.60601354 -0.035539858 0.017283645
0.60628748 -0.034641732 0.017272098
0.60656148 -0.033743601 0.017260551
0.60683542 -0.032845479 0.017249005
0.60710943 -0.031947348 0.017237458
0.60738343 -0.03104922 0.017225912
0.60765737 -0.030151099 0.017214365
0.60793138 -0.029252969 0.017202819
0.60736394 -0.027967 0.016755145
0.60679722 -0.026678983 0.016307447
0.60623109 -0.025388893 0.015859749
0.60566562 -0.024096739 0.015412012
0.60510081 -0.022802521 0.014964234
0.60537636 -0.021899229 0.01495262
0.60481238 -0.020601882 0.014504801
0.60424912 -0.0193025 0.014056956
0.60368651 -0.018001048 0.013609099
0.60228592 -0.016300377 0.01272497
0.6008867 -0.0145956 0.011840787
0.59948874 -0.012886679 0.010956552
0.59809196 -0.011173598 0.010072262
0.59502196 -0.0086538838 0.0083153229
0.59446532 -0.0073327865 0.0078671984
0.59307265 -0.0056063053 0.0069827661
0.59168124 -0.0038756661 0.0060982364
0.59029114 -0.0021409136 0.005213669
0.59506828 -0.04708628 0.013064037
0.59619313 -0.04654384 0.01348924
0.59646934 -0.045638483 0.013477601
0.59759319 -0.045099147 0.013902858
0.5987165 -0.0445619 0.014328143
0.59983915 -0.044026703 0.014753439
0.60096115 -0.043493573 0.015178761
0.60123605 -0.042592347 0.015167176
0.601511 -0.041691117 0.015155589
0.6017859 -0.040789884 0.015144003
0.60290635 -0.040261928 0.015569392
0.60318094 -0.039361734 0.015557819
0.60345554 -0.03846154 0.015546246
0.60457468 -0.037937712 0.015971689
0.60484898 -0.03703855 0.015960129
0.60596728 -0.036517832 0.016385626
0.60624123 -0.03561971 0.01637408
0.60651523 -0.034721579 0.016362533
0.60678917 -0.033823449 0.016350986
0.60706317 -0.03292533 0.01633944
0.60733718 -0.0320272 0.016327893
0.60761112 -0.03112907 0.016316347
0.60788512 -0.030230947 0.0163048
0.60815907 -0.029332818 0.016293254
0.60843307 -0.02843469 0.016281707
0.60786623 -0.027147779 0.015832972
0.6073001 -0.025858821 0.015384223
0.6075747 -0.024958627 0.01537265
0.60700947 -0.023666566 0.014923862
0.6064449 -0.022372438 0.014475048
0.60588098 -0.02107624 0.014026207
0.60447872 -0.019382995 0.013140055
0.60391635 -0.018081633 0.012691149
0.60251629 -0.016381145 0.011804933
0.60111755 -0.014676553 0.01091865
0.59972012 -0.012967816 0.010032329
0.59832388 -0.011254918 0.0091459388
0.5952549 -0.008735572 0.0073848129
0.59469855 -0.0074145659 0.0069356528
0.59330642 -0.0056882687 0.0060491203
0.59191555 -0.0039578141 0.0051624905
0.59332418 -0.047349628 0.011281993
0.59529811 -0.047166865 0.0121461
0.59642267 -0.046624333 0.012572354
0.59669888 -0.045718975 0.012560714
0.59782249 -0.04517955 0.012987007
0.59894556 -0.04464221 0.013413342
0.60006791 -0.044106923 0.013839688
0.60118967 -0.043573696 0.014266062
0.60146457 -0.04267247 0.014254475
0.60173947 -0.041771244 0.014242888
0.60201442 -0.040870011 0.014231302
0.60313457 -0.040341962 0.014657727
0.60340917 -0.039441768 0.014646154
0.60452843 -0.038916808 0.015072634
0.60480267 -0.038017653 0.015061074
0.60507697 -0.037118495 0.015049513
0.60619497 -0.03659768 0.015476061
0.60646898 -0.035699558 0.015464514
0.60674292 -0.034801431 0.015452968
0.60701692 -0.033903301 0.015441421
0.60729092 -0.033005178 0.015429876
0.60756487 -0.032107048 0.015418329
0.60783887 -0.031208919 0.015406783
0.60811281 -0.030310797 0.015395236
0.60838681 -0.029412668 0.01538369
0.60866082 -0.028514538 0.015372143
0.60809422 -0.027227722 0.014922356
0.60752833 -0.025938855 0.014472558
0.60780293 -0.025038661 0.014460986
0.60723799 -0.02374669 0.014011161
0.60667366 -0.022452656 0.013561297
0.60610998 -0.021156548 0.013111406
0.60470825 -0.019463487 0.012223169
0.60414618 -0.018162217 0.011773211
0.60274667 -0.016461914 0.010884895
0.60134846 -0.014757505 0.0099965269
0.59995151 -0.013048952 0.0091081047
0.59688169 -0.010536167 0.0073428871
0.59548789 -0.0088172583 0.0064543174
0.59493178 -0.0074963449 0.0060041077
0.59354019 -0.0057702325 0.0051154746
0.5935545 -0.047430396 0.010361956
0.59467983 -0.046884693 0.01078922
0.59580445 -0.046341054 0.011216496
0.59692842 -0.045799471 0.011643813
0.59805179 -0.045259953 0.012071156
0.59917462 -0.04472252 0.012498542
0.60029668 -0.04418714 0.012925924
0.60141814 -0.043653823 0.013353347
0.60169309 -0.042752597 0.01334176
0.60196799 -0.041851368 0.013330174
0.6030882 -0.04132219 0.013757636
0.60336286 -0.040421996 0.013746062
0.60448211 -0.039895914 0.014173578
0.60475641 -0.038996752 0.014162019
0.60503066 -0.038097598 0.014150459
0.60530496 -0.037198436 0.014138899
0.60642272 -0.036677532 0.014566482
0.60669672 -0.035779409 0.014554936
0.60697067 -0.034881279 0.01454339
0.60724467 -0.033983152 0.014531843
0.60751861 -0.03308503 0.014520297
0.60779262 -0.032186899 0.01450875
0.60806662 -0.031288769 0.014497204
0.60834056 -0.030390648 0.014485657
0.60861456 -0.029492518 0.014474111
0.60888851 -0.02859439 0.014462564
0.6083222 -0.027307663 0.014011742
0.60775656 -0.02601889 0.013560894
0.60803121 -0.025118696 0.01354932
0.60746652 -0.023826817 0.013098447
0.60690242 -0.022532873 0.012647532
0.60633904 -0.021236857 0.012196605
0.60577619 -0.019938761 0.011745622
0.60437596 -0.018242804 0.01085526
0.60297698 -0.016542682 0.0099648582
0.60157931 -0.014838458 0.009074389
0.60018289 -0.013130088 0.0081838816
0.59711415 -0.010617671 0.0064144777
0.59572083 -0.0088989465 0.0055238078
0.59516501 -0.0075781252 0.0050725476
0.59096229 -0.047337867 0.0081337132
0.59378487 -0.047511164 0.0094419187
0.59490991 -0.046965372 0.009870219
0.59688181 -0.046785321 0.010738552
0.59715801 -0.045879964 0.010726912
0.59828109 -0.045340352 0.011155305
0.59940362 -0.04480283 0.011583741
0.60052544 -0.044267356 0.012012172
0.60164666 -0.043733947 0.012440646
0.60192162 -0.042832721 0.012429059
0.60219651 -0.041931495 0.012417473
0.60331649 -0.041402224 0.012845971
0.60359108 -0.04050203 0.012834398
0.6047101 -0.039975855 0.013262964
0.6049844 -0.039076693 0.013251404
0.60525864 -0.038177539 0.013239845
0.60553294 -0.037278377 0.013228284
0.60665047 -0.03675738 0.013656918
0.60692441 -0.035859261 0.013645371
0.60719842 -0.03496113 0.013633825
0.60747236 -0.034063 0.013622278
0.60774636 -0.033164877 0.013610732
0.60802037 -0.032266747 0.013599185
0.60829431 -0.031368621 0.013587639
0.60856831 -0.030470498 0.013576092
0.60884225 -0.029572368 0.013564546
0.60911626 -0.028674239 0.013552999
0.60855019 -0.027387604 0.013101127
0.60798484 -0.026098924 0.012649229
0.60825944 -0.02519873 0.012637655
0.60769504 -0.023906941 0.012185746
0.60713124 -0.022613091 0.011733782
0.60656804 -0.021317167 0.011281804
0.60600549 -0.020019162 0.010829772
0.60460579 -0.018323388 0.0099373236
0.60320735 -0.016623452 0.0090448204
0.60181022 -0.01491941 0.008152266
0.60041428 -0.013211225 0.0072596585
0.5973466 -0.010699174 0.0054860683
0.58639288 -0.047449891 0.0050290846
0.58667254 -0.046533156 0.0050172992
0.59119338 -0.047418911 0.0072105401
0.59401524 -0.047591936 0.0085218819
0.59513998 -0.047046047 0.0089512318
0.5971114 -0.046865813 0.0098216645
0.59738755 -0.045960456 0.0098100249
0.59851038 -0.045420755 0.010239454
0.59963268 -0.044883139 0.010668925
0.60075426 -0.044347573 0.011098422
0.60187519 -0.043814074 0.011527931
0.60215014 -0.042912848 0.011516345
0.60242504 -0.042011619 0.011504758
0.60354471 -0.041482259 0.011934306
0.60381931 -0.040582065 0.011922733
0.60493809 -0.040055797 0.012352334
0.60521239 -0.039156634 0.012340775
0.60548669 -0.03825748 0.012329215
0.60576093 -0.037358321 0.012317656
0.60687816 -0.036837231 0.012747353
0.60715216 -0.035939109 0.012735807
0.60742611 -0.035040978 0.012724261
0.60770011 -0.034142848 0.012712714
0.60797411 -0.033244729 0.012701168
0.60824805 -0.032346599 0.012689621
0.60852206 -0.031448469 0.012678075
0.608796 -0.030550348 0.012666528
0.60907 -0.029652217 0.012654982
0.60934401 -0.028754089 0.012643435
0.60877818 -0.027467547 0.012190497
0.60821307 -0.026178958 0.011737564
0.60848767 -0.025278764 0.011725991
0.60792351 -0.023987068 0.011273031
0.60736001 -0.022693308 0.010820031
0.6067971 -0.021397477 0.010366989
0.60623479 -0.020099564 0.0099139204
0.60483563 -0.018403973 0.0090193721
0.60343766 -0.01670422 0.0081247836
0.60204107 -0.015000363 0.0072301286
0.60064572 -0.013292361 0.006335435
0.59142452 -0.047499958 0.0062873666
0.59424555 -0.047672704 0.0076018446
0.59537011 -0.047126725 0.0080322446
0.59734094 -0.046946306 0.0089047635
0.59761715 -0.046040948 0.0088931238
0.59873968 -0.045501154 0.0093236035
0.59986168 -0.044963449 0.0097541241
0.60098302 -0.044427793 0.010184657
0.60210371 -0.043894198 0.010615216
0.60237861 -0.042992972 0.01060363
0.60265356 -0.042091746 0.010592043
0.603773 -0.041562293 0.011022641
0.6040476 -0.040662099 0.011011068
0.60516608 -0.040135738 0.01144172
0.60544038 -0.039236579 0.01143016
0.60571468 -0.038337424 0.011418601
0.60598892 -0.037438262 0.011407041
0.60710591 -0.036917083 0.011837775
0.60737985 -0.03601896 0.011826228
0.60765386 -0.03512083 0.011814682
0.60792786 -0.0342227 0.011803135
0.6082018 -0.033324577 0.011791589
0.6084758 -0.03242645 0.011780042
0.60874975 -0.03152832 0.011768496
0.60902375 -0.030630197 0.011756949
0.60929775 -0.029732069 0.011745403
0.6095717 -0.028833939 0.011733856
0.60900617 -0.02754749 0.011279883
0.60844135 -0.026258992 0.010825899
0.60871595 -0.025358798 0.010814326
0.60815203 -0.024067193 0.010360316
0.60758877 -0.022773527 0.0099062659
0.60702616 -0.021477787 0.0094521884
0.60646409 -0.020179966 0.0089980699
0.60506546 -0.018484559 0.0081014354
0.60366803 -0.016784988 0.0072047464
0.60310853 -0.015478926 0.0067505366
0.60171342 -0.013772133 0.0058537559
0.59165567 -0.047581002 0.0053641936
0.59447592 -0.047753472 0.0066818073
0.59560019 -0.0472074 0.0071132579
0.59757054 -0.047026798 0.0079878625
0.59784669 -0.046121441 0.0079762228
0.59896898 -0.045581557 0.008407752
0.60009074 -0.045043759 0.0088393232
0.60121179 -0.04450801 0.0092709064
0.60233223 -0.043974325 0.0097025158
0.60260713 -0.043073099 0.0096909292
0.60288209 -0.042171869 0.0096793426
0.60400122 -0.041642327 0.010110976
0.60427582 -0.040742133 0.010099404
0.60539407 -0.040215682 0.010531105
0.60566837 -0.03931652 0.010519546
0.60594267 -0.038417365 0.010507986
0.60621691 -0.037518203 0.010496426
0.60733366 -0.036996931 0.01092821
0.6076076 -0.036098808 0.010916663
0.60788161 -0.035200678 0.010905117
0.60815555 -0.034302551 0.01089357
0.60842955 -0.033404429 0.010882024
0.60870349 -0.032506298 0.010870477
0.6089775 -0.031608168 0.010858931
0.6092515 -0.030710047 0.010847385
0.60952544 -0.029811919 0.010835839
0.60979944 -0.028913788 0.010824292
0.60923415 -0.027627431 0.010369268
0.60866958 -0.026339024 0.0099142343
0.60810566 -0.025048545 0.0094592022
0.60838056 -0.024147319 0.0094476156
0.60781753 -0.022853743 0.0089925155
0.60725516 -0.021558095 0.0085373875
0.60669339 -0.020260368 0.0080822185
0.6052953 -0.018565143 0.0071834982
0.60473514 -0.017262254 0.0067282775
0.60333914 -0.015559787 0.0058294493
0.59470624 -0.04783424 0.0057617701
0.59583026 -0.047288079 0.0061942707
0.59780008 -0.04710729 0.0070709754
0.59807622 -0.046201933 0.0070593362
0.59919828 -0.045661956 0.0074919015
0.6003198 -0.045124069 0.0079245232
0.60144055 -0.044588227 0.0083571551
0.60256076 -0.044054449 0.0087898001
0.60283566 -0.043153223 0.0087782145
0.60311055 -0.042251997 0.0087666279
0.60422945 -0.041722357 0.0091993259
0.60450411 -0.040822163 0.0091877524
0.60562205 -0.040295623 0.0096204905
0.60589635 -0.039396461 0.0096089309
0.60617065 -0.038497306 0.0095973713
0.6064449 -0.037598144 0.0095858118
0.60756135 -0.037076779 0.010018646
0.60783535 -0.03617866 0.010007099
0.6081093 -0.035280529 0.0099955527
0.6083833 -0.034382399 0.0099840062
0.60865724 -0.033484276 0.0099724596
0.60893124 -0.03258615 0.0099609131
0.60920525 -0.03168802 0.0099493666
0.60947919 -0.030789897 0.00993782
0.60975319 -0.029891768 0.0099262735
0.61002719 -0.028993638 0.009914727
0.60946214 -0.027707372 0.0094586536
0.60889786 -0.026419058 0.009002584
0.60833412 -0.02512867 0.0085464874
0.60860908 -0.024227444 0.0085349008
0.60804635 -0.02293396 0.0080787642
0.60748422 -0.021638405 0.007622587
0.60692269 -0.020340769 0.0071663675
0.60552508 -0.018645728 0.0062655471
0.60496521 -0.017342931 0.0058092908
0.59606034 -0.047368757 0.0052752695
0.59802961 -0.047187787 0.0061540743
0.59830582 -0.046282429 0.0061424351
0.59942758 -0.045742359 0.0065760645
0.6005488 -0.045204375 0.0070097218
0.60166937 -0.044668444 0.0074433903
0.60278922 -0.044134576 0.0078771003
0.60306418 -0.04323335 0.0078655137
0.60333908 -0.04233212 0.0078539271
0.60445774 -0.041802391 0.0082876608
0.60473233 -0.040902197 0.0082760882
0.60585004 -0.040375564 0.0087098759
0.60612434 -0.039476402 0.0086983163
0.60639864 -0.038577247 0.0086867567
0.60667294 -0.037678085 0.0086751971
0.6077891 -0.03715663 0.0091090668
0.60806304 -0.036258508 0.0090975203
0.60833704 -0.035360381 0.0090859737
0.60861105 -0.034462251 0.0090744272
0.60888499 -0.033564128 0.0090628807
0.60915899 -0.032665998 0.0090513341
0.60943294 -0.031767871 0.0090397876
0.60970694 -0.030869748 0.009028241
0.60998094 -0.029971618 0.0090166945
0.61025488 -0.02907349 0.009005148
0.61052889 -0.028175367 0.0089936014
0.61080283 -0.027277237 0.0089820549
0.61023873 -0.025988998 0.0085249199
0.60967529 -0.024698703 0.0080677727
0.6091125 -0.023406336 0.0076106139
0.60855037 -0.022111911 0.0071533998
0.60715199 -0.020421168 0.0062505309
0.60575491 -0.018726313 0.00534761
0.59825921 -0.047268279 0.0052371877
0.59853536 -0.046362922 0.0052255485
0.59965688 -0.045822758 0.0056602135
0.60077786 -0.045284685 0.0060949209
0.60189813 -0.04474866 0.0065296399
0.60217339 -0.043846402 0.0065180403
0.6032927 -0.043313473 0.0069527985
0.6035676 -0.042412248 0.0069412123
0.60468596 -0.041882426 0.0073759961
0.60496062 -0.040982231 0.007364423
0.60607803 -0.040455505 0.0077992612
0.60635233 -0.039556343 0.0077877017
0.60662663 -0.038657188 0.0077761421
0.60690093 -0.037758026 0.0077645821
0.60801679 -0.037236482 0.0081995018
0.60829079 -0.036338359 0.0081879552
0.60856479 -0.035440229 0.0081764087
0.60883874 -0.034542099 0.0081648622
0.60911274 -0.03364398 0.0081533156
0.60938668 -0.032745849 0.0081417691
0.60966069 -0.031847719 0.0081302235
0.60993469 -0.030949596 0.008118677
0.61020863 -0.030051468 0.0081071304
0.61048263 -0.029153338 0.0080955839
0.61075658 -0.028255217 0.0080840373
0.61103058 -0.027357087 0.0080724908
0.61046672 -0.026068941 0.0076143052
0.60990357 -0.024778737 0.007156108
0.60934103 -0.023486461 0.0066978987
0.60877913 -0.02219213 0.0062396489
0.60738128 -0.020501569 0.00533468
0.60100687 -0.045364995 0.0051801205
0.6021269 -0.044828881 0.0056158747
0.60240215 -0.043926619 0.005604275
0.60352117 -0.043393601 0.0060400837
0.60379612 -0.042492375 0.0060284971
0.60407102 -0.041591141 0.006016911
0.60518885 -0.041062266 0.0064527583
0.60546345 -0.040162072 0.0064411853
0.60573804 -0.039261878 0.0064296122
0.60685462 -0.038737133 0.0068655275
0.60712892 -0.037837971 0.0068539674
0.60824454 -0.03731633 0.0072899372
0.60851854 -0.036418207 0.0072783912
0.60879248 -0.03552008 0.0072668446
0.60906649 -0.03462195 0.0072552981
0.60934043 -0.033723827 0.0072437515
0.60961443 -0.032825697 0.007232205
0.60988843 -0.031927567 0.0072206585
0.61016238 -0.031029446 0.0072091119
0.61043638 -0.030131318 0.0071975654
0.61071032 -0.029233187 0.0071860189
0.61098433 -0.028335067 0.0071744728
0.61125833 -0.027436936 0.0071629263
0.61069471 -0.026148882 0.0067036906
0.6101318 -0.024858771 0.0062444434
0.60956955 -0.023566587 0.005785184
0.60900789 -0.022272347 0.0053258836
0.60374969 -0.043473724 0.0051273829
0.60402465 -0.042572498 0.0051157968
0.60429955 -0.041671265 0.0051042102
0.6045745 -0.040770039 0.0050926241
0.60569173 -0.040242106 0.0055295206
0.60596633 -0.039341912 0.0055179475
0.60708261 -0.038817074 0.0059549124
0.60735691 -0.037917912 0.0059433528
0.60847229 -0.037396181 0.0063803587
0.60874623 -0.036498059 0.0063688122
0.60902023 -0.035599928 0.0063572656
0.60929424 -0.034701802 0.0063457191
