# .PCD v0.7 - Point Cloud Data file format
VERSION 0.7
FIELDS x y z
SIZE 4 4 4
TYPE F F F
COUNT 1 1 1
WIDTH 1379
HEIGHT 1
VIEWPOINT 0 0 0 1 0 0 0
POINTS 1379
DATA ascii
0.55314577 0.029698791 0.039265111
0.55272442 0.029164573 0.039243717
0.55230308 0.028630355 0.039222322
0.55188173 0.028096139 0.039200932
0.55146039 0.02756192 0.039179537
0.55103904 0.027027704 0.039158143
0.55061769 0.026493488 0.039136752
0.55019635 0.025959272 0.039115358
0.549775 0.025425052 0.039093968
0.54935366 0.024890836 0.039072573
0.54826927 0.024976848 0.039478704
0.54784858 0.024443479 0.039457347
0.54742789 0.023910107 0.039435986
0.5470072 0.023376739 0.039414629
0.54658651 0.022843366 0.039393269
0.54616582 0.022309998 0.039371911
0.54508609 0.022401968 0.039778307
0.54400766 0.022495601 0.040184744
0.56541443 0.044265393 0.038821954
0.56499243 0.043730333 0.038800526
0.56457043 0.04319527 0.038779099
0.56414843 0.042660203 0.038757674
0.56304097 0.042716276 0.039163593
0.56261963 0.042182058 0.039142203
0.56219828 0.04164784 0.039120808
0.56109351 0.0417073 0.039526865
0.56067282 0.041173927 0.039505508
0.56025213 0.040640555 0.039484147
0.5598315 0.040107187 0.03946279
0.55941081 0.039573815 0.039441429
0.55899012 0.039040443 0.039420068
0.55856943 0.038507074 0.039398711
0.55814874 0.037973702 0.03937735
0.55772805 0.03744033 0.039355993
0.55730736 0.036906961 0.039334632
0.55688667 0.036373589 0.039313275
0.55646604 0.035840221 0.039291915
0.55604535 0.035306849 0.039270557
0.55562466 0.034773476 0.039249197
0.55520397 0.034240108 0.03922784
0.55478328 0.033706736 0.039206479
0.5543626 0.033173367 0.039185122
0.55394191 0.032639995 0.039163761
0.55352122 0.032106627 0.0391424
0.55310059 0.031573255 0.039121043
0.5526799 0.031039886 0.039099682
0.55225921 0.030506514 0.039078325
0.55183852 0.029973142 0.039056964
0.55141783 0.029439773 0.039035607
0.55099714 0.028906401 0.039014246
0.55057645 0.028373033 0.038992889
0.55015576 0.027839661 0.038971528
0.54973513 0.027306292 0.038950171
0.54931444 0.02677292 0.038928811
0.54889375 0.026239552 0.038907453
0.54847306 0.025706179 0.038886093
0.54805237 0.025172807 0.038864732
0.54763168 0.024639439 0.038843375
0.54654962 0.024727715 0.039250609
0.54612958 0.024195191 0.039229285
0.54570955 0.023662666 0.039207958
0.54528958 0.023130141 0.039186634
0.54486954 0.022597617 0.039165311
0.54379147 0.022690939 0.039572723
0.56519687 0.044461977 0.038206033
0.56477487 0.043926913 0.038184606
0.56435287 0.04339185 0.038163178
0.56393081 0.042856786 0.03814175
0.56282377 0.042912543 0.038548648
0.56240243 0.042378329 0.038527254
0.5612973 0.042436626 0.038934253
0.56087667 0.041903257 0.038912892
0.56045598 0.041369885 0.038891535
0.55935353 0.041431606 0.039298691
0.5589335 0.040899079 0.039277367
0.55851346 0.040366556 0.03925604
0.55809349 0.03983403 0.039234716
0.55767345 0.039301511 0.039213393
0.55725342 0.038768984 0.039192066
0.55683345 0.038236462 0.039170742
0.55641341 0.037703935 0.039149415
0.55599338 0.037171412 0.039128091
0.5555734 0.036638886 0.039106764
0.55515337 0.036106367 0.03908544
0.55473334 0.03557384 0.039064117
0.55431336 0.035041317 0.039042789
0.55389333 0.034508791 0.039021466
0.55347329 0.033976268 0.039000139
0.55305332 0.033443745 0.038978815
0.55263329 0.032911222 0.038957488
0.55221325 0.032378696 0.038936164
0.55179328 0.031846173 0.038914841
0.55137324 0.031313647 0.038893513
0.55095321 0.030781124 0.03887219
0.55053324 0.030248603 0.038850863
0.5501132 0.029716078 0.038829539
0.54969317 0.029183554 0.038808212
0.54927319 0.028651029 0.038786888
0.54885316 0.028118504 0.038765561
0.54843313 0.027585983 0.038744237
0.54801315 0.027053459 0.038722914
0.54759312 0.026520934 0.038701586
0.54717308 0.025988409 0.038680263
0.54675305 0.025455885 0.038658936
0.54633307 0.024923362 0.038637612
0.54591304 0.024390839 0.038616285
0.54549301 0.023858314 0.038594961
0.54441398 0.023949632 0.039003283
0.54399467 0.023417953 0.038981989
0.54357529 0.022886276 0.038960699
0.56497931 0.044658557 0.037590109
0.56455731 0.044123493 0.037568685
0.56413531 0.04358843 0.037547257
0.56371325 0.043053366 0.037525829
0.56260651 0.043108813 0.0379337
0.56218517 0.042574599 0.037912305
0.56108046 0.042632584 0.038320281
0.56065977 0.042099215 0.03829892
0.55955702 0.042159777 0.038707018
0.55913699 0.041627254 0.038685694
0.55871695 0.041094728 0.038664371
0.55761689 0.041158643 0.039072577
0.55719757 0.040626965 0.039051287
0.55677819 0.040095288 0.039029997
0.55635887 0.039563611 0.039008703
0.5559395 0.039031934 0.038987413
0.55552018 0.038500257 0.038966123
0.5551008 0.03796858 0.038944829
0.55468148 0.037436903 0.038923539
0.55426216 0.036905225 0.038902249
0.55384278 0.036373548 0.038880955
0.55342346 0.035841871 0.038859665
0.55300409 0.035310194 0.038838375
0.55258477 0.034778517 0.038817082
0.55216539 0.03424684 0.038795792
0.55174607 0.033715162 0.038774502
0.55132669 0.033183485 0.038753208
0.55090737 0.032651808 0.038731918
0.550488 0.032120131 0.038710628
0.55006868 0.031588454 0.038689334
0.5496493 0.031056773 0.038668044
0.54922998 0.030525096 0.038646754
0.5488106 0.029993419 0.03862546
0.54839128 0.029461741 0.03860417
0.54797196 0.028930064 0.03858288
0.54755259 0.028398387 0.038561586
0.54713327 0.02786671 0.038540296
0.54671389 0.027335033 0.038519006
0.54629457 0.026803356 0.038497712
0.54587519 0.026271679 0.038476422
0.54545587 0.025740001 0.038455132
0.54503649 0.025208324 0.038433839
0.54461718 0.024676647 0.038412549
0.5441978 0.02414497 0.038391259
0.54377848 0.023613289 0.038369965
0.5433591 0.023081612 0.038348675
0.56476176 0.044855136 0.036974188
0.56433976 0.044320077 0.036952764
0.56391776 0.043785013 0.036931336
0.5634957 0.04324995 0.036909908
0.56238931 0.043305084 0.037318755
0.56196797 0.04277087 0.037297361
0.56086355 0.042828545 0.037706308
0.56044292 0.042295177 0.037684947
0.55934048 0.042355426 0.038094021
0.55892044 0.041822903 0.038072698
0.55782008 0.041885659 0.038481846
0.5574007 0.041353982 0.038460556
0.55698138 0.040822305 0.038439263
0.55656201 0.040290628 0.038417973
0.55614269 0.03975895 0.038396683
0.55572331 0.039227273 0.038375389
0.55530399 0.038695592 0.038354099
0.55488461 0.038163915 0.038332809
0.55446529 0.037632238 0.038311515
0.55404598 0.037100561 0.038290225
0.5536266 0.036568884 0.038268935
0.55320728 0.036037207 0.038247641
0.5527879 0.035505529 0.038226351
0.55236858 0.034973852 0.038205061
0.5519492 0.034442175 0.038183767
0.55152988 0.033910498 0.038162477
0.55111051 0.033378821 0.038141187
0.55069119 0.032847144 0.038119894
0.55027181 0.032315467 0.038098603
0.54985249 0.031783789 0.038077313
0.54943311 0.031252109 0.03805602
0.54901379 0.030720433 0.03803473
0.54859442 0.030188756 0.03801344
0.5481751 0.029657079 0.037992146
0.54775578 0.029125402 0.037970856
0.5473364 0.028593725 0.037949566
0.54691708 0.028062047 0.037928272
0.5464977 0.02753037 0.037906982
0.54607838 0.026998693 0.037885692
0.54565901 0.026467016 0.037864398
0.54523969 0.025935339 0.037843108
0.54482031 0.025403662 0.037821818
0.54440099 0.024871984 0.037800524
0.54398161 0.024340307 0.037779234
0.54356229 0.023808626 0.037757944
0.54314291 0.023276949 0.037736651
0.54075456 0.024622584 0.039010473
0.56565356 0.045001127 0.035948616
0.56523091 0.044465218 0.035927158
0.56480825 0.043929309 0.035905696
0.56370014 0.043981593 0.036315415
0.56327814 0.04344653 0.036293987
0.56217211 0.043501355 0.036703806
0.56175077 0.042967141 0.036682412
0.56064671 0.043024503 0.037092336
0.56022602 0.042491134 0.037070975
0.55912393 0.042551074 0.037481025
0.55802321 0.042612672 0.037891116
0.5576039 0.042080995 0.037869822
0.5565052 0.042145133 0.038280014
0.55608648 0.041614305 0.038258757
0.55566782 0.041083474 0.038237501
0.55524915 0.040552642 0.038216244
0.55483049 0.040021811 0.038194984
0.55441177 0.039490983 0.038173728
0.55399311 0.038960148 0.038152471
0.55357444 0.03842932 0.038131215
0.55315572 0.037898488 0.038109954
0.55273706 0.037367657 0.038088698
0.55231839 0.036836825 0.038067441
0.55189973 0.036305998 0.038046185
0.55148101 0.035775166 0.038024928
0.55106235 0.035244334 0.038003668
0.55064368 0.034713503 0.037982412
0.55022502 0.034182675 0.037961155
0.5498063 0.033651844 0.037939899
0.54938763 0.033121012 0.037918638
0.5496363 0.031979129 0.037465289
0.54921693 0.031447448 0.037443995
0.54879761 0.030915769 0.037422705
0.54837823 0.030384092 0.037401415
0.54795891 0.029852415 0.037380122
0.54753959 0.029320737 0.037358832
0.54712021 0.02878906 0.037337542
0.54670089 0.028257383 0.037316248
0.54628152 0.027725706 0.037294958
0.5458622 0.027194029 0.037273668
0.54478216 0.027281873 0.037684809
0.5450235 0.026130674 0.037231084
0.54460412 0.025598999 0.037209794
0.5441848 0.025067322 0.0371885
0.54376543 0.024535645 0.03716721
0.54334611 0.024003964 0.03714592
0.54292673 0.023472287 0.037124626
0.54053938 0.024816988 0.038401373
0.56808186 0.045640107 0.034532178
0.56654608 0.045149431 0.034921166
0.56612271 0.044612676 0.034899671
0.56501299 0.044662111 0.035310261
0.56459033 0.044126198 0.0352888
0.56348258 0.044178173 0.03569949
0.56306058 0.04364311 0.035678066
0.56195486 0.043697625 0.036088858
0.56153351 0.043163408 0.036067467
0.56042981 0.043220464 0.036478363
0.56000912 0.042687092 0.036457002
0.55890739 0.042746723 0.036868025
0.55780703 0.042808011 0.037279092
0.55738771 0.042276334 0.037257798
0.55628932 0.042340159 0.037668966
0.55519229 0.042405684 0.038080201
0.55477428 0.041875698 0.038058978
0.55435628 0.041345712 0.038037755
0.55393827 0.04081573 0.038016532
0.55352026 0.040285744 0.037995309
0.55310225 0.039755762 0.037974082
0.55268425 0.039225779 0.037952859
0.55226624 0.038695794 0.037931636
0.55184823 0.038165811 0.037910413
0.55143023 0.037635826 0.03788919
0.55101222 0.037105843 0.037867967
0.55059421 0.036575858 0.037846744
0.5501762 0.036045875 0.037825521
0.5497582 0.03551589 0.037804294
0.54934013 0.034985904 0.037783071
0.54959047 0.03384687 0.037328847
0.54917181 0.033316039 0.03730759
0.54942012 0.032174464 0.036853265
0.54900074 0.031642783 0.036831975
0.54858142 0.031111106 0.036810681
0.54816204 0.030579429 0.036789391
0.54774272 0.030047752 0.036768101
0.54732341 0.029516075 0.036746807
0.54690403 0.028984398 0.036725517
0.54648471 0.02845272 0.036704227
0.54606533 0.027921043 0.036682934
0.544985 0.028007733 0.037095018
0.54456633 0.027476899 0.037073761
0.54414767 0.02694607 0.037052501
0.54438794 0.025794335 0.03659777
0.54396862 0.025262658 0.03657648
0.54354924 0.02473098 0.036555186
0.54312992 0.024199301 0.036533896
0.54271054 0.023667624 0.036512606
0.54032427 0.025011392 0.037792273
0.53990692 0.024482256 0.037771083
0.56786323 0.045837622 0.033913333
0.5674392 0.045300014 0.033891805
0.56590444 0.044809878 0.034281798
0.56479508 0.044859003 0.034693364
0.56437242 0.04432309 0.034671903
0.56326503 0.044374757 0.03508357
0.56284302 0.043839693 0.035062142
0.56173766 0.043893896 0.035473913
0.56131631 0.043359678 0.035452519
0.56021297 0.043416422 0.03586439
0.55979228 0.042883053 0.03584303
0.55869091 0.042942371 0.036255028
0.55759084 0.043003347 0.036667068
0.55717152 0.04247167 0.036645778
0.55607349 0.042535186 0.037057918
0.55497682 0.042600397 0.037470128
0.55455881 0.042070415 0.037448902
0.55346411 0.042138197 0.037861239
0.55304676 0.041609056 0.03784005
0.55262941 0.041079924 0.03781886
0.55221206 0.040550783 0.037797671
0.55179471 0.040021647 0.037776481
0.55137736 0.03949251 0.037755292
0.55096 0.03896337 0.037734102
0.55054271 0.038434234 0.037712913
0.55012536 0.037905097 0.037691724
0.54970801 0.03737596 0.037670534
0.54929066 0.03684682 0.037649345
0.54887331 0.036317684 0.037628155
0.54845595 0.035788547 0.037606966
0.54937464 0.034041893 0.036717799
0.54895598 0.033511065 0.036696542
0.54853725 0.032980233 0.036675286
0.54811859 0.032449402 0.036654029
0.54769993 0.031918574 0.036632769
0.54728127 0.031387743 0.036611512
0.54686254 0.030856909 0.036590256
0.54644388 0.03032608 0.036568999
0.54602522 0.02979525 0.036547739
0.54560649 0.029264418 0.036526483
0.54518783 0.028733589 0.036505226
0.54476917 0.028202757 0.03648397
0.5443505 0.027671926 0.036462709
0.54393178 0.027141096 0.036441453
0.54417175 0.025989672 0.035985745
0.54375243 0.025457995 0.035964455
0.54333305 0.024926318 0.035943165
0.54291373 0.024394639 0.035921872
0.54249436 0.023862962 0.035900582
0.5401091 0.025205797 0.037183173
0.53969175 0.02467666 0.037161984
0.56806868 0.046572737 0.033316016
0.56764466 0.046035133 0.033294488
0.56722063 0.045497529 0.033272959
0.56568623 0.04500708 0.033663929
0.56457716 0.045055896 0.034076467
0.56415451 0.044519983 0.034055006
0.56304747 0.044571336 0.034467649
0.56262547 0.044036273 0.034446221
0.56152046 0.044090167 0.034858964
0.56109911 0.043555949 0.03483757
0.55999607 0.04361238 0.035250418
0.55957538 0.043079011 0.035229057
0.55847436 0.04313802 0.035642028
0.55737466 0.043198682 0.036055043
0.55695534 0.042667005 0.036033753
0.55585766 0.042730212 0.036446869
0.55476135 0.042795114 0.036860052
0.55366629 0.042861737 0.037273329
0.55324894 0.042332601 0.037252139
0.55283159 0.041803461 0.03723095
0.55173928 0.04187344 0.037644338
0.55132258 0.041345149 0.037623182
0.55090588 0.040816858 0.037602026
0.55048925 0.040288564 0.03758087
0.55007255 0.039760273 0.037559714
0.54965585 0.039231982 0.037538558
0.54923922 0.038703695 0.037517402
0.54882252 0.038175404 0.037496246
0.54840583 0.037647113 0.03747509
0.54798919 0.037118822 0.037453938
0.54757249 0.036590531 0.037432782
0.54849118 0.034845352 0.0365417
0.54874009 0.033706091 0.036085494
0.54832143 0.03317526 0.036064237
0.54790276 0.032644428 0.036042977
0.5474841 0.032113597 0.036021721
0.54706538 0.031582769 0.036000464
0.54664671 0.031051936 0.035979208
0.54622805 0.030521106 0.035957947
0.54580939 0.029990276 0.035936691
0.54539067 0.029459443 0.035915434
0.544972 0.028928613 0.035894178
0.54455334 0.028397784 0.035872918
0.54413462 0.027866952 0.035851661
0.54371595 0.027336122 0.035830405
0.54395556 0.02618501 0.035373721
0.54353625 0.025653332 0.035352431
0.54311687 0.025121655 0.035331141
0.54269755 0.024589974 0.035309847
0.54227817 0.024058297 0.035288557
0.53989393 0.025400199 0.036574073
0.56785005 0.046770252 0.032697171
0.56742609 0.046232648 0.032675643
0.56700206 0.045695044 0.032654114
0.56546795 0.045204286 0.033046059
0.56435931 0.045252789 0.03345957
0.56393659 0.044716876 0.033438113
0.56282991 0.04476792 0.033851728
0.56240791 0.044232856 0.0338303
0.5613032 0.044286437 0.034244016
0.56088185 0.04375222 0.034222625
0.55977923 0.043808341 0.034636445
0.55867785 0.043866187 0.035050355
0.55825782 0.043333668 0.035029031
0.55715847 0.043394022 0.035443019
0.55673915 0.042862345 0.035421729
0.55564183 0.042925239 0.035835821
0.55454582 0.042989828 0.036249977
0.55345112 0.043056142 0.036664229
0.55303377 0.042527005 0.036643039
0.55261642 0.041997865 0.03662185
0.55152446 0.042067531 0.037036214
0.55110776 0.041539241 0.037015058
0.55069113 0.04101095 0.036993902
0.55027443 0.040482659 0.036972746
0.54985774 0.039954368 0.03695159
0.5494411 0.039426077 0.036930434
0.5490244 0.038897786 0.036909278
0.54860771 0.038369495 0.036888123
0.54819107 0.037841205 0.036866967
0.54777437 0.037312914 0.036845811
0.54735768 0.036784623 0.036824655
0.54760832 0.035648216 0.036367577
0.54852426 0.033901118 0.035474446
0.5481056 0.033370286 0.035453185
0.54768693 0.032839455 0.035431929
0.54726821 0.032308623 0.035410672
0.54684955 0.031777795 0.035389416
0.54643089 0.031246962 0.035368156
0.54601222 0.030716132 0.035346899
0.5455935 0.030185303 0.035325643
0.54517484 0.029654469 0.035304386
0.54475617 0.02912364 0.03528313
0.54433751 0.02859281 0.035261869
0.54391879 0.028061977 0.035240613
0.54350013 0.027531147 0.035219356
0.54373938 0.026380347 0.034761701
0.54332006 0.02584867 0.034740407
0.54290068 0.025316993 0.034719117
0.54248136 0.024785312 0.034697827
0.54206198 0.024253635 0.034676533
0.56763148 0.046967767 0.032078326
0.56720746 0.046430163 0.032056797
0.56678343 0.045892559 0.032035269
0.56524968 0.045401487 0.032428186
0.56414139 0.045449682 0.032842677
0.56371868 0.044913769 0.032821216
0.56261235 0.0449645 0.033235803
0.56219035 0.044429436 0.033214379
0.561086 0.044482708 0.033629071
0.56066465 0.04394849 0.033607677
0.55956233 0.044004299 0.034022473
0.55846131 0.044061836 0.034437358
0.55736166 0.044121034 0.034852289
0.55694228 0.043589357 0.034830999
0.55652297 0.04305768 0.034809705
0.555426 0.043120265 0.035224773
0.55433035 0.043184545 0.035639904
0.55323595 0.043250546 0.036055129
0.55281866 0.042721409 0.03603394
0.5524013 0.042192269 0.03601275
0.55130965 0.042261627 0.036428086
0.55089295 0.041733336 0.036406931
0.54980332 0.04180523 0.036822371
0.54938734 0.041277785 0.036801249
0.5489713 0.040750343 0.036780126
0.54855531 0.040222898 0.036759004
0.54813927 0.039695453 0.036737882
0.54772329 0.039168011 0.036716763
0.54730725 0.038640566 0.036695641
0.54689127 0.038113121 0.036674518
0.54647529 0.037585679 0.036653396
0.54672623 0.036450427 0.036195375
0.54764217 0.034704797 0.035300329
0.54788977 0.033565313 0.034842137
0.54747105 0.033034481 0.034820881
0.54705238 0.03250365 0.034799624
0.54663372 0.031972822 0.034778368
0.54621506 0.031441987 0.034757107
0.54579633 0.030911159 0.034735851
0.54537767 0.030380329 0.034714594
0.54495901 0.029849496 0.034693338
0.54454035 0.029318666 0.034672078
0.54412162 0.028787836 0.034650821
0.54370296 0.028257003 0.034629565
0.5432843 0.027726173 0.034608308
0.54352319 0.026575685 0.034149677
0.54310387 0.026044007 0.034128387
0.5426845 0.02551233 0.034107093
0.54226518 0.024980649 0.034085803
0.5418458 0.024448972 0.034064513
0.56698889 0.046627678 0.031437952
0.56656486 0.046090074 0.031416424
0.56614083 0.04555247 0.031394895
0.56503147 0.045598689 0.031810317
0.56392348 0.045646571 0.03222578
0.56350076 0.045110662 0.032204319
0.5623948 0.04516108 0.032619882
0.5619728 0.044626016 0.032598458
0.5608688 0.044678975 0.033014122
0.55976611 0.044733632 0.033429857
0.55934548 0.04420026 0.0334085
0.55824476 0.044257484 0.033824362
0.55714548 0.044316374 0.034240264
0.5567261 0.043784697 0.034218974
0.55562884 0.043846123 0.034634981
0.55521011 0.043315291 0.034613721
0.55411482 0.043379258 0.035029829
0.55302083 0.04344495 0.035446029
0.55260348 0.04291581 0.03542484
0.55218613 0.042386673 0.03540365
0.55109483 0.042455718 0.035819963
0.55067813 0.041927427 0.035798807
0.54958886 0.041999012 0.03621522
0.54917288 0.041471567 0.036194097
0.54875684 0.040944126 0.036172975
0.54834086 0.04041668 0.036151852
0.54792482 0.039889235 0.036130734
0.54750884 0.039361794 0.036109611
0.5470928 0.038834345 0.036088489
0.54667681 0.038306903 0.036067367
0.54626077 0.037779462 0.036046244
0.54651141 0.036644518 0.035587251
0.54742664 0.03489951 0.034690253
0.54767394 0.033760339 0.034231089
0.54725522 0.033229508 0.034209833
0.54683656 0.032698676 0.034188576
0.54641789 0.032167848 0.034167316
0.54599917 0.031637013 0.034146059
0.54558051 0.031106185 0.034124803
0.54516184 0.030575354 0.034103546
0.54474318 0.030044522 0.034082286
0.54432446 0.029513692 0.03406103
0.54390579 0.028982863 0.034039773
0.54348713 0.028452029 0.034018517
0.54306847 0.0279212 0.03399726
0.54330701 0.02677102 0.033537652
0.54288769 0.026239343 0.033516362
0.54246831 0.025707666 0.033495069
0.54204899 0.025175987 0.033473779
0.54162961 0.02464431 0.033452488
0.56788194 0.046782702 0.030402871
0.56634623 0.046287589 0.030797578
0.5659222 0.045749985 0.03077605
0.5648132 0.045795895 0.031192444
0.56370556 0.045843463 0.031608883
0.56328285 0.045307554 0.031587422
0.56217724 0.045357663 0.032003962
0.56175524 0.0448226 0.031982534
0.5606516 0.044875246 0.032399178
0.55954927 0.04492959 0.032815885
0.55844826 0.044985656 0.033232689
0.55802822 0.044453133 0.033211362
0.55692929 0.044511709 0.03362824
0.55650991 0.043980032 0.03360695
0.55541295 0.044041149 0.034023929
0.55431736 0.044103958 0.034440979
0.55389935 0.043573976 0.034419756
0.55280566 0.043639354 0.034836929
0.55238831 0.043110214 0.03481574
0.55197096 0.042581078 0.03479455
0.55088001 0.042649813 0.035211835
0.55046338 0.042121522 0.035190683
0.5493744 0.042192794 0.035608068
0.54895842 0.041665349 0.035586946
0.54854238 0.041137908 0.035565823
0.5481264 0.040610462 0.035544705
0.54771036 0.040083017 0.035523582
0.54729438 0.039555576 0.03550246
0.54687834 0.039028127 0.035481337
0.54646236 0.038500685 0.035460215
0.54604632 0.03797324 0.035439093
0.54563034 0.037445795 0.035417974
0.5458799 0.036310323 0.034957968
0.54679316 0.034564245 0.034058958
0.54703939 0.033424534 0.033598784
0.54662073 0.032893702 0.033577524
0.54620206 0.032362875 0.033556268
0.54578334 0.031832039 0.033535011
0.54536468 0.031301212 0.033513755
0.54494601 0.03077038 0.033492494
0.54452729 0.030239549 0.033471238
0.54410863 0.029708719 0.033449981
0.54368997 0.029177889 0.033428725
0.5432713 0.028647056 0.033407468
0.54285258 0.028116226 0.033386208
0.54309082 0.026966358 0.032925628
0.5426715 0.02643468 0.032904338
0.54225212 0.025903003 0.032883048
0.5418328 0.025371324 0.032861754
0.54141343 0.024839647 0.032840464
0.54099411 0.02430797 0.032819174
0.56766295 0.04698053 0.029783051
0.56723827 0.046442077 0.029761489
0.5650183 0.046529856 0.030596068
0.56459492 0.045993097 0.030574575
0.56348765 0.046040356 0.030991986
0.56306499 0.045504447 0.030970527
0.56195968 0.045554243 0.031388041
0.56153762 0.04501918 0.031366613
0.56043434 0.045071516 0.031784229
0.55933237 0.045125548 0.032201912
0.55823171 0.045181304 0.032619689
0.55713242 0.045238722 0.03303751
0.5567131 0.044707045 0.03301622
0.55561578 0.044767004 0.033434138
0.55519712 0.044236176 0.033412881
0.55410182 0.044298671 0.033830903
0.55368382 0.043768689 0.03380968
0.55259049 0.043833759 0.034227829
0.5521732 0.043304618 0.03420664
0.55175585 0.042775482 0.034185451
0.5506652 0.042843904 0.034603711
0.55024856 0.042315613 0.034582555
0.54915994 0.042386577 0.035000917
0.5487439 0.041859131 0.034979794
0.54832792 0.04133169 0.034958676
0.54791188 0.040804245 0.034937553
0.5474959 0.040276799 0.034916431
0.54707992 0.039749358 0.034895308
0.54666388 0.039221909 0.034874186
0.5462479 0.038694467 0.034853064
0.54583186 0.038167022 0.034831945
0.54541588 0.037639577 0.034810822
0.54566509 0.036504414 0.034349844
0.54657763 0.034758959 0.033448882
0.54682356 0.03361956 0.032987732
0.5464049 0.033088729 0.032966476
0.54598618 0.032557897 0.032945219
0.54556751 0.032027066 0.032923963
0.54514885 0.031496238 0.032902706
0.54473013 0.030965406 0.032881446
0.54431146 0.030434573 0.03286019
0.5438928 0.029903743 0.032838933
0.54347414 0.029372914 0.032817677
0.54305542 0.028842082 0.032796416
0.54263675 0.028311253 0.03277516
0.54287463 0.027161695 0.032313608
0.54245532 0.026630018 0.032292314
0.54203594 0.026098341 0.032271024
0.54161662 0.02556666 0.03224973
0.54185116 0.02441287 0.031788006
0.5420844 0.023257354 0.03132619
0.54166377 0.022723986 0.031304833
0.54189497 0.021565957 0.030842938
0.54147363 0.021031741 0.030821545
0.5425806 0.01808173 0.02945685
0.54432815 0.014492638 0.027651018
0.54390216 0.013952496 0.027629388
0.54520762 0.0098029375 0.025801113
0.56744403 0.047178354 0.029163232
0.56590909 0.046682619 0.029559888
0.56480008 0.046727058 0.029978197
0.56437671 0.046190303 0.029956704
0.56326973 0.046237249 0.030375091
0.56284708 0.04570134 0.03035363
0.56174213 0.045750827 0.030772118
0.56063849 0.045802005 0.031190675
0.55953622 0.045854878 0.031609301
0.5584352 0.045909479 0.032028016
0.55801523 0.045376953 0.032006692
0.55691624 0.045434061 0.032425486
0.55649692 0.044902384 0.032404196
0.55539995 0.04496203 0.03282309
0.55498129 0.044431202 0.032801833
0.55388635 0.044493385 0.033220831
0.55346835 0.043963403 0.033199608
0.55237538 0.044028163 0.03361873
0.55195802 0.043499023 0.03359754
0.55154067 0.042969886 0.033576351
0.55045038 0.043037996 0.033995587
0.55003375 0.042509705 0.033974431
0.54894549 0.042580359 0.034393769
0.54852945 0.042052913 0.034372646
0.54811347 0.041525472 0.034351524
0.54769742 0.040998023 0.034330402
0.54728144 0.040470582 0.034309279
0.54686546 0.03994314 0.034288157
0.54644942 0.039415691 0.034267038
0.54603344 0.03888825 0.034245916
0.5456174 0.038360804 0.034224793
0.54520142 0.037833359 0.034203671
0.54545033 0.036698505 0.03374172
0.54636216 0.034953672 0.032838807
0.54594415 0.03442369 0.032817584
0.54552615 0.033893704 0.032796361
0.54510814 0.033363722 0.032775138
0.54535168 0.032222092 0.032312915
0.54493302 0.031691264 0.032291654
0.5445143 0.031160433 0.032270398
0.54409564 0.030629599 0.032249141
0.54367697 0.03009877 0.032227885
0.54325825 0.02956794 0.032206625
0.54283959 0.029037109 0.032185368
0.54242092 0.028506277 0.032164112
0.54265845 0.027357033 0.031701583
0.54223913 0.026825355 0.03168029
0.54181975 0.026293678 0.031659
0.54205465 0.025141042 0.031196335
0.54163462 0.024608517 0.03117501
0.54186755 0.023453314 0.030712217
0.54209906 0.022296444 0.030249383
0.54167771 0.021762228 0.030227991
0.54190725 0.020602822 0.029765055
0.54213548 0.019441722 0.029302051
0.5430119 0.017652022 0.028397342
0.54388565 0.015858959 0.027492525
0.54410851 0.014691086 0.02702925
0.54497766 0.012892065 0.026124168
0.5445503 0.012350228 0.02610247
0.54476911 0.011177276 0.025638992
0.54434109 0.010634592 0.02561726
0.54391307 0.010091907 0.025595529
0.5672251 0.047376178 0.028543413
0.56680042 0.046837728 0.028521849
0.56569046 0.04688013 0.028941043
0.56458181 0.046924263 0.029360328
0.56415844 0.046387505 0.029338833
0.56305182 0.046434142 0.029758194
0.56262916 0.045898229 0.029736733
0.56152457 0.045947406 0.030156197
0.56042129 0.045998275 0.030575728
0.55931932 0.046050835 0.030995326
0.55821866 0.046105128 0.031415019
0.55779868 0.045572601 0.031393696
0.55670005 0.045629397 0.031813461
0.55628073 0.04509772 0.031792171
0.55518413 0.045157056 0.032212041
0.55476546 0.044626225 0.032190785
0.55367082 0.044688102 0.032610755
0.55325282 0.04415812 0.032589532
0.5521602 0.044222567 0.03300963
0.55174285 0.043693427 0.03298844
0.5513255 0.04316429 0.032967251
0.55023563 0.043232091 0.03338746
0.54981893 0.0427038 0.033366304
0.54873103 0.042774141 0.033786617
0.54831499 0.042246696 0.033765495
0.54789901 0.041719254 0.033744372
0.54748297 0.041191805 0.03372325
0.54706699 0.040664364 0.033702128
0.54665095 0.040136918 0.033681009
0.54623497 0.039609473 0.033659887
0.54581892 0.039082032 0.033638764
0.54540294 0.038554586 0.033617642
0.54498696 0.038027141 0.033596519
0.54457092 0.0374997 0.033575397
0.54481882 0.036364309 0.033112437
0.54572862 0.034618404 0.032207511
0.54531062 0.034088418 0.032186288
0.54489261 0.033558436 0.032165062
0.5444746 0.03302845 0.032143839
0.54405659 0.032498468 0.032122616
0.54363859 0.031968482 0.032101393
0.54322058 0.031438496 0.03208017
0.54280257 0.030908516 0.032058947
0.54238456 0.03037853 0.032037724
0.54262376 0.029232133 0.03157432
0.5422051 0.028701304 0.031553064
0.54244226 0.02755237 0.031089559
0.54202294 0.027020693 0.031068267
0.54160357 0.026489016 0.031046977
0.54183811 0.02533669 0.030583337
0.54207134 0.024182642 0.030119603
0.5423032 0.023026934 0.029655829
0.54188186 0.022492714 0.029634437
0.54211175 0.021334467 0.02917056
0.5429908 0.019549647 0.028264098
0.54256743 0.019012894 0.028242603
0.54344255 0.017222963 0.027335912
0.54366636 0.016057096 0.02687173
0.54388893 0.014889534 0.02640748
0.54346287 0.014349392 0.026385849
0.54454845 0.011376657 0.0250143
0.54412043 0.010833973 0.024992567
0.54433692 0.0096587958 0.024528014
0.54390824 0.0091152638 0.024506247
0.56700617 0.047574006 0.027923591
0.56658149 0.047035556 0.027902029
0.56547189 0.047077645 0.028322197
0.56436354 0.047121465 0.028742457
0.56394023 0.046584707 0.028720962
0.56283391 0.046631034 0.029141298
0.56241125 0.046095122 0.029119838
0.56130695 0.046143986 0.029540274
0.56020403 0.046194546 0.029960781
0.55910248 0.046246797 0.030381354
0.55800217 0.046300776 0.030802021
0.55758214 0.04576825 0.030780695
0.55648386 0.045824736 0.031201439
0.55606455 0.045293059 0.031180149
0.5549683 0.045352083 0.031600993
0.55454963 0.044821251 0.031579737
0.55345535 0.044882815 0.032000683
0.55303735 0.044352833 0.031979457
0.55194503 0.044416968 0.032400534
0.55152774 0.043887831 0.032379344
0.55111039 0.043358695 0.032358151
0.55002081 0.043426182 0.032779336
0.54960412 0.042897891 0.03275818
0.54851657 0.042967919 0.033179466
0.54810053 0.042440478 0.033158343
0.54768455 0.041913036 0.033137221
0.54726851 0.041385587 0.033116102
0.54685253 0.040858146 0.03309498
0.54643649 0.040330701 0.033073857
0.54602051 0.039803255 0.033052735
0.54560447 0.039275814 0.033031613
0.54518849 0.038748369 0.03301049
0.54477245 0.038220923 0.032989372
0.54435647 0.037693478 0.032968249
0.544604 0.036558401 0.032504313
0.54418731 0.03603011 0.032483157
0.54509515 0.034283131 0.031576212
0.54467714 0.033753149 0.03155499
0.54425913 0.033223167 0.031533767
0.54384112 0.032693181 0.031512544
0.54342312 0.032163199 0.031491317
0.54300505 0.031633213 0.031470094
0.54258704 0.031103229 0.031448871
0.54216903 0.030573245 0.031427648
0.54240793 0.02942716 0.030963272
0.54198921 0.02889633 0.030942013
0.54222608 0.027747706 0.030477537
0.54180676 0.027216028 0.030456245
0.54138738 0.026684351 0.030434953
0.54162157 0.025532339 0.029970339
0.5418545 0.024378601 0.029505631
0.54208601 0.023223205 0.029040882
0.5423162 0.022066113 0.028576065
0.54254502 0.020907329 0.02811118
0.54277253 0.019746851 0.027646227
0.54299873 0.01858465 0.02718118
0.54322362 0.017420789 0.026716091
0.54344708 0.016255233 0.026250936
0.54366928 0.015087981 0.025785711
0.54324323 0.014547839 0.025764082
0.54346347 0.013378013 0.02529873
0.5443278 0.011576038 0.024389606
0.54389977 0.011033353 0.024367874
0.54411596 0.0098584872 0.023902345
0.54368722 0.0093149561 0.023880579
0.54325855 0.0087714242 0.023858814
0.54282987 0.0082278932 0.023837047
0.56789851 0.047732588 0.026882732
0.56636256 0.04723338 0.02728221
0.56525326 0.04727516 0.027703352
0.56414533 0.047318667 0.028124586
0.56372195 0.046781912 0.028103091
0.56261605 0.046827927 0.028524401
0.56219333 0.046292014 0.028502941
0.5610894 0.04634057 0.028924353
0.55998683 0.046390813 0.029345833
0.55888557 0.046442755 0.029767383
0.55778563 0.046496421 0.030189022
0.5573656 0.045963898 0.030167697
0.55626768 0.046020072 0.030589415
0.55584836 0.045488395 0.030568125
0.55475247 0.045547109 0.030989943
0.55433375 0.045016278 0.030968687
0.55323988 0.045077533 0.031390607
0.55282187 0.04454755 0.031369384
0.55172992 0.044611372 0.03179143
0.55131257 0.044082236 0.031770241
0.55089521 0.043553099 0.031749051
0.549806 0.043620277 0.032171212
0.5493893 0.043091986 0.032150056
0.54830205 0.043161701 0.032572314
0.54788607 0.04263426 0.032551195
0.54747009 0.042106815 0.032530073
0.54705405 0.041579369 0.032508951
0.54663807 0.041051928 0.032487828
0.54622203 0.040524483 0.032466706
0.54580605 0.039997038 0.032445583
0.54539001 0.039469596 0.032424465
0.54497403 0.038942151 0.032403342
0.54455799 0.038414706 0.03238222
0.54414201 0.03788726 0.032361098
0.54372597 0.037359819 0.032339975
0.54397249 0.036224201 0.031875033
0.54355586 0.03569591 0.031853877
0.54380035 0.03455776 0.03138883
0.54338306 0.034028623 0.031367641
0.54296571 0.033499487 0.031346451
0.54320759 0.032357913 0.030881245
0.54278958 0.031827927 0.03086002
0.54237157 0.031297944 0.030838797
0.54195356 0.030767959 0.030817574
0.54153556 0.030237976 0.030796351
0.54177338 0.029091356 0.030330965
0.54200989 0.027943043 0.029865513
0.54159057 0.027411366 0.029844221
0.54117119 0.026879689 0.029822929
0.54140508 0.025727987 0.02935734
0.5416376 0.024574559 0.02889166
0.54186881 0.023419473 0.028425936
0.54209864 0.022262694 0.027960142
0.54232711 0.021104222 0.027494283
0.54255426 0.019944055 0.027028356
0.54278016 0.018782165 0.026562335
0.54300463 0.017618615 0.026096271
0.54322779 0.016453369 0.025630141
0.54344964 0.015286429 0.025163943
0.54367018 0.014117761 0.02469765
0.54388934 0.012947437 0.024231317
0.54410714 0.011775418 0.023764914
0.54367912 0.011232735 0.023743181
0.54389495 0.010058179 0.023276679
0.54346621 0.0095146475 0.023254912
0.54303753 0.0089711156 0.023233147
0.54260886 0.0084275845 0.02321138
0.54218018 0.0078840591 0.023189615
0.5692175 0.048433632 0.025861623
0.56947839 0.047316924 0.025396425
0.56767923 0.047930725 0.026261939
0.56614357 0.047431204 0.026662391
0.56503469 0.047472674 0.027084507
0.56392705 0.047515873 0.027506715
0.56350368 0.046979114 0.02748522
0.56239814 0.04702482 0.027907506
0.56197542 0.046488907 0.027886044
0.56087184 0.04653715 0.028308431
0.55976963 0.046587083 0.028730886
0.55866873 0.046638712 0.02915341
0.55756909 0.04669207 0.029576026
0.55714905 0.046159547 0.0295547
0.55605149 0.046215408 0.029977392
0.55563217 0.04568373 0.029956101
0.55453658 0.045742135 0.030378895
0.55411792 0.045211304 0.030357637
0.55302435 0.045272246 0.030780533
0.55260634 0.044742264 0.03075931
0.55151474 0.044805776 0.031182332
0.55109739 0.04427664 0.031161143
0.55068004 0.043747503 0.031139951
0.54959118 0.043814369 0.031563085
0.54917449 0.043286078 0.031541929
0.5480876 0.043355484 0.031965166
0.54767162 0.042828042 0.031944044
0.54725558 0.042300597 0.031922922
0.54683959 0.041773152 0.031901799
0.54642355 0.04124571 0.031880677
0.54600757 0.040718265 0.031859558
0.54559159 0.04019082 0.031838436
0.54517555 0.039663374 0.031817313
0.54475957 0.039135933 0.031796191
0.54434353 0.038608488 0.031775068
0.54392755 0.038081042 0.031753946
0.54351151 0.037553601 0.031732827
0.54375774 0.036418293 0.031266905
0.54334104 0.035890006 0.031245751
0.54292434 0.035361715 0.031224595
0.54316789 0.034223028 0.030758539
0.54275054 0.033693891 0.03073735
0.54233319 0.033164755 0.03071616
0.54257411 0.032022644 0.030249946
0.54215604 0.031492658 0.030228723
0.54173803 0.030962674 0.0302075
0.54132003 0.030432692 0.030186277
0.54155755 0.029286383 0.029719915
0.5417937 0.02813838 0.029253488
0.54137439 0.027606703 0.029232198
0.54095501 0.027075026 0.029210906
0.54118854 0.025923636 0.028744344
0.54142076 0.024770519 0.028277688
0.54165155 0.023615744 0.027810989
0.54188108 0.022459274 0.027344221
0.54210919 0.021301113 0.026877388
0.54233605 0.020141257 0.026410485
0.54256159 0.01897968 0.02594349
0.5427857 0.017816439 0.025476452
0.54300851 0.016651506 0.025009347
0.54323 0.015484876 0.024542173
0.54345018 0.01431652 0.024074906
0.54302353 0.01377553 0.024053244
0.54324168 0.01260467 0.023585901
0.54345846 0.011432115 0.023118488
0.54367393 0.010257871 0.022651011
0.54324526 0.0097143389 0.022629244
0.54281652 0.0091708079 0.022607479
0.54238784 0.0086272759 0.022585712
0.54195917 0.0080837505 0.022563947
0.57011181 0.048597664 0.024817009
0.56899786 0.048632082 0.025239853
0.56857187 0.048091937 0.025218222
0.56745994 0.048128862 0.025641143
0.56592464 0.047629032 0.026042569
0.56481606 0.047670189 0.02646566
0.56370878 0.047713075 0.026888844
0.56328547 0.04717632 0.026867349
0.56218022 0.047221709 0.027290609
0.5617575 0.0466858 0.027269149
0.56065428 0.046733733 0.02769251
0.55955237 0.046783354 0.028115939
0.55845183 0.046834674 0.028539438
0.55735254 0.046887718 0.028963028
0.55693257 0.046355195 0.028941702
0.55583531 0.046410747 0.029365368
0.55541599 0.04587907 0.029344078
0.55432075 0.045937162 0.029767845
0.55390209 0.04540633 0.029746588
0.55280888 0.045466959 0.030170459
0.55239087 0.044936977 0.030149236
0.55129957 0.045000181 0.030573232
0.55088228 0.044471044 0.030552043
0.55046493 0.043941904 0.030530853
0.54937637 0.04400846 0.030954961
0.54895967 0.043480173 0.030933805
0.54787314 0.043549266 0.031358015
0.54745716 0.043021824 0.031336892
0.54704112 0.042494379 0.03131577
0.54662514 0.041966934 0.031294648
0.5462091 0.041439492 0.031273529
0.54579312 0.040912047 0.031252407
0.54537708 0.040384602 0.031231284
0.54496109 0.039857157 0.031210162
0.54454511 0.039329715 0.031189039
0.54412907 0.03880227 0.031167919
0.54371309 0.038274825 0.031146796
0.54329705 0.037747383 0.031125674
0.54288107 0.037219938 0.031104553
0.54312623 0.036084097 0.030637626
0.54270953 0.035555806 0.03061647
0.54295272 0.034417432 0.030149441
0.54253536 0.033888292 0.030128252
0.54211801 0.033359159 0.030107062
0.54235858 0.032217357 0.029639872
0.54194057 0.031687375 0.029618649
0.54152256 0.031157389 0.029597426
0.54110456 0.030627407 0.029576201
0.54134172 0.029481409 0.029108867
0.54157752 0.028333718 0.028641466
0.5411582 0.027802041 0.028620174
0.54073882 0.027270364 0.028598882
0.54097199 0.026119282 0.028131345
0.54120386 0.024966478 0.027663715
0.54143435 0.023812015 0.02719604
0.54166347 0.022655856 0.026728299
0.54189134 0.021498006 0.026260491
0.54211777 0.020338461 0.025792614
0.54234296 0.019177195 0.025324645
0.54256678 0.018014265 0.024856633
0.54278928 0.016849643 0.024388552
0.54301041 0.015683323 0.023920404
0.54323024 0.014515278 0.023452165
0.54344869 0.013345577 0.022983879
0.54302132 0.01280374 0.022962181
0.54323781 0.011631495 0.022493796
0.54345292 0.010457562 0.022025343
0.54302424 0.0099140313 0.022003578
0.54259551 0.0093704993 0.021981811
0.54216683 0.0088269683 0.021960046
0.54173815 0.0082834428 0.021938279
0.57005632 0.050450958 0.024682974
0.56963027 0.049910814 0.024661345
0.56920427 0.049370673 0.024639715
0.56877822 0.048830528 0.024618084
0.56835222 0.048290383 0.024596455
0.56724066 0.048326999 0.02502035
0.56570572 0.047826856 0.02542275
0.56459749 0.047867704 0.025846815
0.56349057 0.047910281 0.026270973
0.5630672 0.047373522 0.026249478
0.56196231 0.047418602 0.026673714
0.56153959 0.046882693 0.026652252
0.56043673 0.046930313 0.027076589
0.55933517 0.046979625 0.027500993
0.55823493 0.047030631 0.027925465
0.55713606 0.047083367 0.028350029
0.55671602 0.046550844 0.028328704
0.55561912 0.046606082 0.028753346
0.5551998 0.046074405 0.028732054
0.55410492 0.046132188 0.029156797
0.55368626 0.045601357 0.029135538
0.55259335 0.045661677 0.029560383
0.55217534 0.045131695 0.02953916
0.55108446 0.045194585 0.029964132
0.55066711 0.044665448 0.029942943
0.55024976 0.044136308 0.029921753
0.54916155 0.044202555 0.030346835
0.54874486 0.043674264 0.030325679
0.54765868 0.043743048 0.030750863
0.5472427 0.043215606 0.030729743
0.54682666 0.042688161 0.03070862
0.54641068 0.042160716 0.030687498
0.54599464 0.041633271 0.030666377
0.54557866 0.041105829 0.030645255
0.54516262 0.040578384 0.030624133
0.54474664 0.040050939 0.030603012
0.5443306 0.039523497 0.03058189
0.54391462 0.038996052 0.030560767
0.54349864 0.038468607 0.030539647
0.54308259 0.037941165 0.030518524
0.54266661 0.037413716 0.030497402
0.54291141 0.036278188 0.0300295
0.54249477 0.035749901 0.030008344
0.54207808 0.03522161 0.029987188
0.54232025 0.034082696 0.029519152
0.5419029 0.033553563 0.029497962
0.54214311 0.032412071 0.029029798
0.5417251 0.031882089 0.029008573
0.54130709 0.031352106 0.02898735
0.54088902 0.030822122 0.028966127
0.54112589 0.029676434 0.028497817
0.54136133 0.028529055 0.028029442
0.54094201 0.027997378 0.028008152
0.54052263 0.027465701 0.02798686
0.54075545 0.026314931 0.027518347
0.54098701 0.025162438 0.027049743
0.54121715 0.024008285 0.026581094
0.54144591 0.022852438 0.026112378
0.54167342 0.021694899 0.025643595
0.54189956 0.020535665 0.025174743
0.54212439 0.019374708 0.024705799
0.54234785 0.018212091 0.024236811
0.54256999 0.017047778 0.023767758
0.54279077 0.015881771 0.023298634
0.54301023 0.014714036 0.022829421
0.54258358 0.014173047 0.022807756
0.54280102 0.013002809 0.022338463
0.54301715 0.011830877 0.021869104
0.5432319 0.010657255 0.021399677
0.54280323 0.010113723 0.02137791
0.54237455 0.0095701916 0.021356145
0.54194582 0.0090266597 0.021334378
0.54151714 0.0084831342 0.021312613
0.56957352 0.051760916 0.024529133
0.56983668 0.050649405 0.024061207
0.56941068 0.050109264 0.024039576
0.56898463 0.049569119 0.024017945
0.56855863 0.049028974 0.023996316
0.56813258 0.048488833 0.023974685
0.56702137 0.048525136 0.024399554
0.56548679 0.04802468 0.024802931
0.56437892 0.048065219 0.02522797
0.5632723 0.048107482 0.025653102
0.56284893 0.047570724 0.025631607
0.56174439 0.047615495 0.026056817
0.56132174 0.047079585 0.026035355
0.56021917 0.047126893 0.026460666
0.55911797 0.047175895 0.026886044
0.55801809 0.047226593 0.027311493
0.55691952 0.047279015 0.027737031
0.55649948 0.046746492 0.027715705
0.55540293 0.046801422 0.028141322
0.55498362 0.046269745 0.02812003
0.5538891 0.046327211 0.028545748
0.55347037 0.045796383 0.02852449
0.55237788 0.04585639 0.028950309
0.55195987 0.045326408 0.028929086
0.55086929 0.045388989 0.029355032
0.55045193 0.044859853 0.029333843
0.55003458 0.044330712 0.029312653
0.54894674 0.044396646 0.029738711
0.5485301 0.043868355 0.029717555
0.54744422 0.04393683 0.030143714
0.54702824 0.043409389 0.030122591
0.5466122 0.042881943 0.030101469
0.54619622 0.042354498 0.030080348
0.54578018 0.041827053 0.030059226
0.5453642 0.041299611 0.030038103
0.54494816 0.040772166 0.030016983
0.54453218 0.040244721 0.029995861
0.54411614 0.039717279 0.029974738
0.54370016 0.039189834 0.029953618
0.54328412 0.038662389 0.029932495
0.54286814 0.038134947 0.029911373
0.5424521 0.037607498 0.029890252
0.5426966 0.036472283 0.029421376
0.54227996 0.035943992 0.02940022
0.54186326 0.035415702 0.029379064
0.54210508 0.0342771 0.028910052
0.54168773 0.033747967 0.028888863
0.54192758 0.032606788 0.028419722
0.54150957 0.032076806 0.028398499
0.54109156 0.03154682 0.028377276
0.54067355 0.031016838 0.028356053
0.54091001 0.02987146 0.027886769
0.54114515 0.028724391 0.027417418
0.54072583 0.028192714 0.027396128
0.54030645 0.027661037 0.027374836
0.54053897 0.02651058 0.026905349
0.54077011 0.025358398 0.02643577
0.54099989 0.024204556 0.025966147
0.54122835 0.023049019 0.025496455
0.54145551 0.02189179 0.0250267
0.54168129 0.020732868 0.024556872
0.54190576 0.019572223 0.024086954
0.54212892 0.018409917 0.023616992
0.54235071 0.017245915 0.023146963
0.54257113 0.016080219 0.022676867
0.54279029 0.014912795 0.022206677
0.54236358 0.014371806 0.022185013
0.54258072 0.013201878 0.021714745
0.54279649 0.012030257 0.02124441
0.54301089 0.010856946 0.020774009
0.54258221 0.010313415 0.020752244
0.54215354 0.009769883 0.020730477
0.5417248 0.009226351 0.020708712
0.56909001 0.05306856 0.024377173
0.56935424 0.051959053 0.023908339
0.56892884 0.051419757 0.023886742
0.5685035 0.050880458 0.023865147
0.56807816 0.050341163 0.023843549
0.56765276 0.049801864 0.023821954
0.56722742 0.049262568 0.023800356
0.56680208 0.048723273 0.023778761
0.56637669 0.048183974 0.023757163
0.56526786 0.048222508 0.024183109
0.56416029 0.048262734 0.024609124
0.56305403 0.048304684 0.02503523
0.56263071 0.04776793 0.025013737
0.56152648 0.047812387 0.02543992
0.56110382 0.047276478 0.02541846
0.56000161 0.047323477 0.025844745
0.55890071 0.047372166 0.026271097
0.55780119 0.047422551 0.02669752
0.55738056 0.046889182 0.026676161
0.55628294 0.046942137 0.027102709
0.55586296 0.046409614 0.027081383
0.55476743 0.04646508 0.027508007
0.55367321 0.046522237 0.027934698
0.55325454 0.04599141 0.027913442
0.55216235 0.046051107 0.028340235
0.55174434 0.045521125 0.028319012
0.55065411 0.045583393 0.028745933
0.55023682 0.045054257 0.028724743
0.54981947 0.044525117 0.028703554
0.54873192 0.044590741 0.029130585
0.54831529 0.044062451 0.02910943
0.54722977 0.044130612 0.029536562
0.54681373 0.043603171 0.029515442
0.54639775 0.043075725 0.029494319
0.54598171 0.04254828 0.029473197
0.54556572 0.042020835 0.029452076
0.54514974 0.041493393 0.029430954
0.5447337 0.040965948 0.029409831
0.54431772 0.040438503 0.029388711
0.54390168 0.039911062 0.029367588
0.5434857 0.039383613 0.029346466
0.54306966 0.038856171 0.029325346
0.54265368 0.03832873 0.029304223
0.54223764 0.037801281 0.029283101
0.54248178 0.036666375 0.02881325
0.54206514 0.036138084 0.028792094
0.54164845 0.035609793 0.028770939
0.54188991 0.034471504 0.028300952
0.54147255 0.033942372 0.028279763
0.54171211 0.032801501 0.027809648
0.5412941 0.032271519 0.027788425
0.54087609 0.031741533 0.027767202
0.54045808 0.031211553 0.027745979
0.54069418 0.030066486 0.027275721
0.54092896 0.028919728 0.026805395
0.54050964 0.028388051 0.026784103
0.54009026 0.027856374 0.026762813
0.54032242 0.026706228 0.02629235
0.54055321 0.025554355 0.025821798
0.54078269 0.024400825 0.0253512
0.5410108 0.023245601 0.024880534
0.54123759 0.022088682 0.024409803
0.54146302 0.02093007 0.023939002
0.54168719 0.019769737 0.023468109
0.54190993 0.018607741 0.022997173
0.54213142 0.017444052 0.022526169
0.54235148 0.016278667 0.022055097
0.54257029 0.015111553 0.021583933
0.54214364 0.014570564 0.021562269
0.54236037 0.013400949 0.021091027
0.54257584 0.012229638 0.020619718
0.54278994 0.011056638 0.020148342
0.5423612 0.010513106 0.020126576
0.54193252 0.0099695744 0.020104811
0.54150385 0.0094260434 0.020083044
0.54107511 0.0088825179 0.020061279
0.54000765 0.0089735389 0.020489326
0.57014519 0.054881737 0.023822039
0.56972045 0.054343287 0.023800477
0.56929576 0.053804833 0.023778915
0.56887108 0.053266384 0.023757353
0.56913495 0.05215719 0.023287544
0.56870955 0.051617894 0.023265949
0.56828421 0.051078595 0.023244351
0.56785887 0.0505393 0.023222756
0.56743348 0.050000001 0.02320116
0.56700814 0.049460705 0.023179563
0.5665828 0.048921406 0.023157967
0.56615746 0.048382111 0.02313637
0.56504887 0.048420332 0.02356329
0.56394172 0.048460245 0.023990279
0.56283581 0.04850189 0.024417361
0.56241244 0.047965132 0.024395866
0.56130856 0.04800928 0.024823025
0.56088591 0.047473371 0.024801563
0.55978405 0.047520056 0.025228823
0.55868351 0.047568437 0.025656151
0.55758435 0.047618508 0.026083548
0.55716366 0.04708514 0.026062187
0.55606645 0.047137786 0.02648971
0.55564642 0.046605263 0.026468385
0.55455124 0.046660416 0.026895983
0.55345738 0.046717264 0.02732365
0.55303872 0.046186436 0.027302392
0.55194688 0.046245821 0.027730161
0.55152887 0.045715839 0.027708938
0.550439 0.045777798 0.028136833
0.55002165 0.045248661 0.028115643
0.5496043 0.044719521 0.028094454
0.54851711 0.044784833 0.02852246
0.54810047 0.044256542 0.028501304
0.54701531 0.044324394 0.028929412
0.54659927 0.043796949 0.02890829
0.54618329 0.043269508 0.028887169
0.54576725 0.042742062 0.028866047
0.54535127 0.042214617 0.028844925
0.54493523 0.041687176 0.028823804
0.54451925 0.04115973 0.028802682
0.54410326 0.040632285 0.028781559
0.54368722 0.040104844 0.028760439
0.54327124 0.039577395 0.028739316
0.5428552 0.039049953 0.028718194
0.54243922 0.038522508 0.028697073
0.54202318 0.037995063 0.028675951
0.54226696 0.03686047 0.028205125
0.54185033 0.036332179 0.028183969
0.54143363 0.035803888 0.028162813
0.54167479 0.034665909 0.027691852
0.54125744 0.034136772 0.027670663
0.54149657 0.032996219 0.027199574
0.54107857 0.032466237 0.027178351
0.54066056 0.031936251 0.027157128
0.54024255 0.031406268 0.027135903
0.54047835 0.030261513 0.026664671
0.54071277 0.029115066 0.026193371
0.54029346 0.028583389 0.026172081
0.53987408 0.028051712 0.026150789
0.54010588 0.026901877 0.025679354
0.54033637 0.025750315 0.025207825
0.54056549 0.024597095 0.024736252
0.54079324 0.023442181 0.024264611
0.54101968 0.022285575 0.023792906
0.5412448 0.021127274 0.023321131
0.54146862 0.019967252 0.022849264
0.54169101 0.018805567 0.022377353
0.54191214 0.017642187 0.021905376
0.5421319 0.016477114 0.021433329
0.54235035 0.015310313 0.02096119
0.54192364 0.014769323 0.020939525
0.54214007 0.013600018 0.020467309
0.54235518 0.012429019 0.019995024
0.54256892 0.01125633 0.019522674
0.54214019 0.010712798 0.019500908
0.54171151 0.010169267 0.019479143
0.54128283 0.0096257348 0.019457376
0.5408541 0.0090822093 0.019435611
0.53978699 0.0091729192 0.019864634
0.56965941 0.056184214 0.023672834
0.5699262 0.055079561 0.02320222
0.56950152 0.054541111 0.023180658
0.56907684 0.054002661 0.023159096
0.56865215 0.053464212 0.023137532
0.56822747 0.052925762 0.02311597
0.56780279 0.052387308 0.023094408
0.5673781 0.051848859 0.023072846
0.56695342 0.051310409 0.023051282
0.56652874 0.050771959 0.02302972
