# .PCD v0.7 - Point Cloud Data file format
VERSION 0.7
FIELDS x y z
SIZE 4 4 4
TYPE F F F
COUNT 1 1 1
WIDTH 1375
HEIGHT 1
VIEWPOINT 0 0 0 1 0 0 0
POINTS 1375
DATA ascii
0.60682833 -0.20655334 0.030771777
0.60708594 -0.20570895 0.030760922
0.60734355 -0.20486458 0.030750066
0.60849673 -0.20421769 0.031186499
0.60875404 -0.20337434 0.031175658
0.60990626 -0.20273055 0.031612132
0.61016321 -0.20188823 0.031601302
0.61131459 -0.20124756 0.032037843
0.61157125 -0.20040628 0.032027029
0.61182791 -0.19956499 0.03201621
0.61208451 -0.19872372 0.032005396
0.61234117 -0.19788243 0.031994581
0.61259782 -0.19704114 0.031983767
0.61285442 -0.19619986 0.031972948
0.61311108 -0.19535857 0.031962134
0.61336774 -0.1945173 0.031951319
0.61362433 -0.19367601 0.031940501
0.61388099 -0.19283472 0.031929687
0.61413765 -0.19199345 0.031918872
0.61439425 -0.19115216 0.031908054
0.61465091 -0.19031088 0.031897239
0.61490756 -0.18946959 0.031886425
0.61516416 -0.18862832 0.031875607
0.61542082 -0.18778703 0.031864792
0.61567748 -0.18694574 0.031853978
0.61593407 -0.18610446 0.031843159
0.61530232 -0.18504189 0.031384721
0.61467117 -0.18397728 0.030926285
0.61315298 -0.18268725 0.030020187
0.61252338 -0.18161745 0.029561669
0.61100733 -0.18032019 0.028655492
0.6103794 -0.17924523 0.028196923
0.6088655 -0.17794073 0.027290624
0.60735297 -0.17663211 0.026384287
0.60584164 -0.17531933 0.02547791
0.60433161 -0.17400244 0.024571465
0.60282284 -0.17268141 0.02366497
0.60131526 -0.17135623 0.022758434
0.59980899 -0.17002694 0.02185183
0.59830397 -0.1686935 0.02094516
0.5976842 -0.16759166 0.020486245
0.59618145 -0.166251 0.019579509
0.59202987 -0.16419278 0.017329272
0.60459876 -0.21150662 0.029533548
0.60485667 -0.2106612 0.02952268
0.60601211 -0.21000595 0.029960055
0.60626972 -0.20916156 0.029949199
0.60652727 -0.20831719 0.029938344
0.60678488 -0.2074728 0.029927488
0.60704243 -0.20662841 0.029916633
0.60730004 -0.20578402 0.029905777
0.60755765 -0.20493965 0.029894922
0.60871059 -0.20429267 0.030332405
0.60896784 -0.20344932 0.030321563
0.61011988 -0.20280544 0.030759087
0.61037683 -0.20196313 0.030748257
0.61152792 -0.20132236 0.031185836
0.61178458 -0.20048107 0.031175019
0.61204118 -0.1996398 0.031164205
0.61229783 -0.19879851 0.031153388
0.61255449 -0.19795723 0.031142572
0.61281109 -0.19711594 0.031131757
0.61306775 -0.19627465 0.031120941
0.6133244 -0.19543338 0.031110125
0.61358106 -0.19459209 0.03109931
0.61383766 -0.19375081 0.031088494
0.61409432 -0.19290952 0.031077677
0.61435097 -0.19206823 0.031066863
0.61460757 -0.19122696 0.031056046
0.61486423 -0.19038567 0.031045232
0.61512089 -0.18954439 0.031034416
0.61537749 -0.1887031 0.031023599
0.61563414 -0.18786182 0.031012785
0.6158908 -0.18702054 0.031001968
0.6161474 -0.18617925 0.030991152
0.61551589 -0.18511678 0.030531678
0.61488503 -0.18405226 0.030072192
0.61336732 -0.18276241 0.029164007
0.61273801 -0.1816927 0.028704425
0.61122251 -0.18039563 0.027796162
0.61059481 -0.17932077 0.027336542
0.60908145 -0.17801645 0.026428157
0.60756946 -0.176708 0.025519734
0.6060586 -0.17539541 0.024611242
0.60454911 -0.1740787 0.023702713
0.60304087 -0.17275786 0.022794131
0.60153383 -0.17143287 0.021885494
0.59914374 -0.16987018 0.020527987
0.59763956 -0.16853589 0.019619217
0.59613669 -0.16719747 0.018710423
0.59463501 -0.16585492 0.017801546
0.59225154 -0.16427052 0.016443774
0.58898717 -0.16244116 0.014637037
0.6048131 -0.21158178 0.028677354
0.60596865 -0.2109254 0.029115766
0.60622621 -0.21008103 0.029104911
0.60648382 -0.20923664 0.029094055
0.60674137 -0.20839226 0.0290832
0.60699898 -0.20754787 0.029072344
0.60725653 -0.20670348 0.029061489
0.60751414 -0.20585909 0.029050633
0.60866714 -0.205211 0.029489154
0.60892439 -0.20436765 0.029478312
0.6091817 -0.20352429 0.029467469
0.61033344 -0.20288032 0.029906042
0.6105904 -0.202038 0.029895213
0.61174124 -0.20139715 0.030333841
0.6119979 -0.20055588 0.030323025
0.6122545 -0.19971459 0.03031221
0.61251116 -0.19887331 0.030301394
0.61276782 -0.19803202 0.030290579
0.61302441 -0.19719073 0.030279763
0.61328107 -0.19634946 0.030268947
0.61353773 -0.19550817 0.030258132
0.61379433 -0.19466689 0.030247316
0.61405098 -0.1938256 0.030236499
0.61430764 -0.19298431 0.030225685
0.61456424 -0.19214304 0.030214868
0.6148209 -0.19130175 0.030204052
0.61507756 -0.19046047 0.030193238
0.61533415 -0.18961918 0.030182421
0.61559081 -0.18877791 0.030171607
0.61584747 -0.18793662 0.03016079
0.61610407 -0.18709533 0.030149974
0.61636072 -0.18625405 0.030139159
0.61572945 -0.18519166 0.029678633
0.61509889 -0.18412723 0.029218096
0.61358172 -0.18283758 0.028307812
0.61295265 -0.18176796 0.027847195
0.61143768 -0.18047106 0.026936831
0.61081022 -0.1793963 0.026476176
0.60929739 -0.17809217 0.025565691
0.60778588 -0.1767839 0.024655167
0.60627562 -0.1754715 0.023744591
0.60476661 -0.17415497 0.022833975
0.60325891 -0.17283431 0.021923292
0.60175234 -0.1715095 0.021012556
0.59936309 -0.16994709 0.019651912
0.59785944 -0.16861297 0.018741056
0.59547353 -0.16703919 0.017380266
0.5939728 -0.16569579 0.01646929
0.59247327 -0.16434824 0.015558291
0.59009242 -0.16275792 0.014197274
0.6050275 -0.21165694 0.027821159
0.60618275 -0.21100047 0.028260622
0.60644031 -0.2101561 0.028249767
0.60669792 -0.20931171 0.028238911
0.60695547 -0.20846733 0.028228056
0.60721308 -0.20762295 0.0282172
0.60747063 -0.20677856 0.028206345
0.60772824 -0.20593417 0.028195489
0.608881 -0.20528598 0.028635059
0.60913825 -0.20444262 0.028624218
0.6093955 -0.20359927 0.028613375
0.61054701 -0.20295522 0.029052984
0.61080396 -0.2021129 0.029042155
0.61195457 -0.20147195 0.029481834
0.61221117 -0.20063066 0.029471017
0.61246783 -0.19978939 0.029460201
0.61272448 -0.1989481 0.029449387
0.61298108 -0.19810681 0.02943857
0.61323774 -0.19726554 0.029427754
0.6134944 -0.19642425 0.029416939
0.61375099 -0.19558297 0.029406123
0.61400765 -0.19474168 0.029395308
0.61426431 -0.19390041 0.029384492
0.61452097 -0.19305912 0.029373676
0.61477757 -0.19221783 0.029362861
0.61503422 -0.19137655 0.029352045
0.61529088 -0.19053526 0.029341228
0.61554748 -0.18969399 0.029330414
0.61580414 -0.1888527 0.029319597
0.61606079 -0.18801141 0.029308781
0.61631739 -0.18717013 0.029297967
0.61657405 -0.18632884 0.02928715
0.61594301 -0.18526655 0.028825575
0.6153127 -0.18420221 0.028364003
0.61379606 -0.18291274 0.027451618
0.61316723 -0.18184322 0.026989965
0.61165279 -0.18054651 0.026077515
0.61013961 -0.17924567 0.025164984
0.60862762 -0.17794068 0.0242524
0.60800236 -0.1768598 0.0237906
0.60649258 -0.17554758 0.022877937
0.6049841 -0.17423123 0.021965222
0.60347694 -0.17291076 0.021052454
0.60197091 -0.17158614 0.020139616
0.59958243 -0.17002399 0.018775837
0.59807926 -0.16869007 0.017862881
0.59569418 -0.16711655 0.016498955
0.59419394 -0.16577333 0.015585893
0.59269494 -0.16442598 0.014672793
0.59119713 -0.16307449 0.013759596
0.60498393 -0.21257752 0.026975848
0.60613924 -0.21191993 0.027416334
0.60639685 -0.21107554 0.027405478
0.60665441 -0.21023117 0.027394623
0.60691202 -0.20938678 0.027383767
0.60716957 -0.20854241 0.027372912
0.60742718 -0.20769802 0.027362056
0.60768479 -0.20685363 0.027351201
0.60883754 -0.20620431 0.027791807
0.6090948 -0.20536095 0.027780965
0.60935211 -0.2045176 0.027770123
0.60960937 -0.20367426 0.02775928
0.61076057 -0.20303009 0.028199939
0.61101753 -0.20218779 0.028189112
0.61216789 -0.20154674 0.028629825
0.61242449 -0.20070547 0.02861901
0.61268115 -0.19986418 0.028608194
0.61293781 -0.1990229 0.028597377
0.61319441 -0.19818161 0.028586563
0.61345106 -0.19734032 0.028575746
0.61370772 -0.19649905 0.02856493
0.61396432 -0.19565776 0.028554115
0.61422098 -0.19481649 0.028543299
0.61447763 -0.1939752 0.028532483
0.61473423 -0.19313391 0.028521668
0.61499089 -0.19229263 0.028510852
0.61524755 -0.19145134 0.028500037
0.61550415 -0.19061007 0.028489221
0.6157608 -0.18976878 0.028478405
0.61601746 -0.1889275 0.02846759
0.61627406 -0.18808621 0.028456774
0.61653072 -0.18724492 0.028445957
0.61678737 -0.18640365 0.028435143
0.61615664 -0.18534145 0.027972531
0.61552656 -0.18427719 0.027509909
0.61401039 -0.1829879 0.026595438
0.61338186 -0.18191847 0.02613272
0.61186796 -0.18062195 0.025218185
0.61035526 -0.17932129 0.024303569
0.6088438 -0.17801648 0.023388883
0.60821879 -0.1769357 0.022926047
0.60670954 -0.17562366 0.022011286
0.6052016 -0.17430751 0.021096468
0.60369498 -0.17298721 0.0201816
0.60218948 -0.17166278 0.019266691
0.59980178 -0.17010091 0.017899761
0.59829915 -0.16876717 0.01698472
0.59679782 -0.1674293 0.016069639
0.59441513 -0.16585089 0.014702496
0.59291667 -0.16450372 0.013787296
0.59230137 -0.16339087 0.013324019
0.60519832 -0.21265268 0.026119653
0.60635334 -0.21199501 0.026561189
0.60661095 -0.21115062 0.026550334
0.60686851 -0.21030624 0.026539478
0.60712612 -0.20946185 0.026528623
0.60738367 -0.20861748 0.026517767
0.60764128 -0.20777309 0.026506912
0.60789889 -0.2069287 0.026496056
0.60905141 -0.20627929 0.026937714
0.60930866 -0.20543593 0.026926871
0.60956591 -0.20459259 0.026916029
0.61071724 -0.20394731 0.027357725
0.61097413 -0.20310499 0.027346896
0.61123109 -0.20226267 0.027336067
0.61238116 -0.20162155 0.02777783
0.61263782 -0.20078026 0.027767016
0.61289448 -0.19993898 0.027756199
0.61315107 -0.19909769 0.027745385
0.61340773 -0.1982564 0.027734568
0.61366439 -0.19741513 0.027723752
0.61392099 -0.19657384 0.027712937
0.61417764 -0.19573256 0.027702121
0.6144343 -0.19489127 0.027691305
0.6146909 -0.19404998 0.02768049
0.61494756 -0.19320871 0.027669674
0.61520422 -0.19236742 0.027658857
0.61546087 -0.19152614 0.027648043
0.61571747 -0.19068485 0.027637227
0.61597413 -0.18984358 0.027626412
0.61623079 -0.18900229 0.027615596
0.61648738 -0.188161 0.027604779
0.61674404 -0.18731973 0.027593965
0.6170007 -0.18647844 0.027583148
0.6163702 -0.18541633 0.027119488
0.61574036 -0.18435217 0.026655814
0.61422479 -0.18306307 0.025739243
0.6135965 -0.18199372 0.025275489
0.61208308 -0.18069738 0.024358854
0.61057097 -0.17939691 0.023442153
0.60906005 -0.1780923 0.022525366
0.60843527 -0.17701159 0.022061482
0.60692656 -0.17569974 0.021144632
0.60541916 -0.17438377 0.020227715
0.60391301 -0.17306367 0.019310761
0.60240805 -0.1717394 0.018393751
0.60002112 -0.17017782 0.017023686
0.59851903 -0.16884425 0.016106544
0.59701824 -0.16750658 0.015189378
0.59463632 -0.16592844 0.013819085
0.59313834 -0.16458146 0.012901798
0.59252334 -0.1634687 0.012437486
0.60630989 -0.21291447 0.025716916
0.60656744 -0.21207008 0.02570606
0.60682505 -0.21122569 0.025695205
0.60708261 -0.21038131 0.025684349
0.60734022 -0.20953692 0.025673494
0.60759777 -0.20869254 0.025662638
0.60785538 -0.20784816 0.025651783
0.60811299 -0.20700377 0.025640927
0.60926521 -0.20635428 0.026083618
0.61041689 -0.20570682 0.026526324
0.61067384 -0.20486452 0.026515495
0.6109308 -0.2040222 0.026504666
0.61208123 -0.20337892 0.026947454
0.61233789 -0.20253763 0.026936639
0.61259449 -0.20169634 0.026925823
0.61285114 -0.20085506 0.026915006
0.6131078 -0.20001377 0.026904192
0.6133644 -0.1991725 0.026893375
0.61362106 -0.19833121 0.026882559
0.61387771 -0.19748992 0.026871745
0.61413431 -0.19664864 0.026860928
0.61439097 -0.19580735 0.026850114
0.61464763 -0.19496608 0.026839297
0.61490422 -0.19412479 0.026828481
0.61516088 -0.1932835 0.026817666
0.61541754 -0.19244222 0.02680685
0.61567414 -0.19160093 0.026796034
0.6159308 -0.19075966 0.026785219
0.61618745 -0.18991837 0.026774403
0.61644405 -0.18907709 0.026763588
0.61670071 -0.1882358 0.026752772
0.61695737 -0.18739451 0.026741955
0.61721396 -0.18655324 0.026731141
0.61658376 -0.18549122 0.02626643
0.61595422 -0.18442716 0.02580172
0.61443913 -0.18313824 0.024883064
0.61381114 -0.18206897 0.024418259
0.61229825 -0.18077283 0.023499524
0.61078662 -0.17947254 0.02258072
0.60927624 -0.1781681 0.02166185
0.60865176 -0.1770875 0.021196915
0.60714352 -0.17577583 0.020277979
0.60563666 -0.17446004 0.019358978
0.60413098 -0.17314011 0.018439922
0.60262656 -0.17181604 0.017520813
0.60024047 -0.17025472 0.016147612
0.59873891 -0.16892135 0.015228368
0.5972386 -0.16758385 0.014309116
0.59485745 -0.166006 0.012935687
0.59336007 -0.1646592 0.0120163
0.59274524 -0.16354653 0.011550938
0.60652399 -0.21298954 0.024861772
0.60678154 -0.21214515 0.024850916
0.60703915 -0.21130076 0.024840061
0.60729671 -0.21045639 0.024829205
0.60755432 -0.209612 0.02481835
0.60781187 -0.20876761 0.024807492
0.60806948 -0.20792323 0.024796637
0.60922182 -0.2072726 0.025240352
0.6103735 -0.20662403 0.025684109
0.61063045 -0.20578171 0.02567328
0.61178124 -0.20513627 0.026117092
0.6120379 -0.20429498 0.026106276
0.61318773 -0.20365262 0.026550082
0.61344403 -0.20281237 0.026539281
0.61370033 -0.20197213 0.026528478
0.61395669 -0.20113188 0.026517676
0.61421299 -0.20029163 0.026506873
0.61446935 -0.19945137 0.026496071
0.61472565 -0.19861113 0.026485268
0.61498195 -0.19777088 0.026474467
0.61523831 -0.19693063 0.026463663
0.61549461 -0.19609037 0.026452862
0.61575091 -0.19525012 0.026442058
0.61600727 -0.19440988 0.026431257
0.61626357 -0.19356963 0.026420454
0.61651993 -0.19272938 0.026409652
0.61677623 -0.19188912 0.026398849
0.61703253 -0.19104888 0.026388047
0.61728889 -0.19020863 0.026377244
0.61754519 -0.18936838 0.026366442
0.61780155 -0.18852812 0.026355639
0.61805785 -0.18768787 0.026344838
0.61742729 -0.18662803 0.025879147
0.61679733 -0.18556611 0.025413385
0.61616808 -0.18450214 0.024947612
0.61465353 -0.1832134 0.024026869
0.61402577 -0.18214424 0.023561014
0.61251342 -0.18084827 0.022640193
0.61100233 -0.17954816 0.021719305
0.60949242 -0.17824391 0.020798333
0.60886818 -0.17716339 0.020332363
0.60736048 -0.17585191 0.019411312
0.60585415 -0.1745363 0.018490225
0.60434902 -0.17321657 0.017569084
0.60284513 -0.17189267 0.016647873
0.60045981 -0.17033164 0.015271536
0.59895873 -0.16899845 0.014350208
0.59745902 -0.16766113 0.013428855
0.59507865 -0.16608354 0.012052289
0.59358174 -0.16473693 0.011130803
0.59296721 -0.16362436 0.010664404
0.59147257 -0.16227052 0.0097428104
0.60827452 -0.21427977 0.024928525
0.60853148 -0.21343745 0.024917698
0.60699564 -0.21222022 0.023995772
0.60814929 -0.21156433 0.024440469
0.60840654 -0.21072099 0.024429629
0.60866386 -0.20987763 0.024418786
0.60892111 -0.20903428 0.024407944
0.60917836 -0.20819093 0.024397101
0.60943562 -0.20734759 0.024386259
0.61058706 -0.20669892 0.024831066
0.61173797 -0.20605235 0.025275899
0.6128881 -0.20540783 0.025720743
0.61314446 -0.20456758 0.025709942
0.61340076 -0.20372733 0.025699139
0.61365706 -0.20288709 0.025688337
0.61391342 -0.20204683 0.025677534
0.61416972 -0.20120658 0.025666732
0.61442608 -0.20036633 0.025655929
0.61468238 -0.19952609 0.025645128
0.61493868 -0.19868582 0.025634324
0.61519504 -0.19784558 0.025623523
0.61545134 -0.19700533 0.025612719
0.61570764 -0.19616508 0.025601918
0.615964 -0.19532484 0.025591115
0.6162203 -0.19448458 0.025580313
0.61647666 -0.19364433 0.02556951
0.61673295 -0.19280408 0.025558708
0.61698925 -0.19196382 0.025547905
0.61724561 -0.19112357 0.025537103
0.61750191 -0.19028333 0.0255263
0.61775827 -0.18944308 0.025515499
0.61801457 -0.18860283 0.025504695
0.61827087 -0.18776257 0.025493894
0.61764061 -0.18670283 0.025027137
0.61701089 -0.18564099 0.02456034
0.61638188 -0.18457711 0.024093518
0.61486787 -0.18328856 0.023170689
0.61424035 -0.18221949 0.022703784
0.61272854 -0.1809237 0.021780863
0.61121798 -0.17962378 0.020857874
0.60970861 -0.17831972 0.019934816
0.60908467 -0.1772393 0.019467795
0.6075775 -0.175928 0.018544659
0.60607165 -0.17461257 0.017621471
0.60456705 -0.17329301 0.01669823
0.6030637 -0.17196931 0.015774949
0.60067916 -0.17040855 0.014395461
0.59917861 -0.16907553 0.013472032
0.59767938 -0.16773841 0.012548594
0.59529984 -0.16616111 0.011168878
0.59380347 -0.16481467 0.010245305
0.59230828 -0.16346408 0.0093216645
0.59169501 -0.16234854 0.0088541768
0.58492023 -0.15954968 0.0051930854
0.60848808 -0.21435466 0.024075482
0.60874504 -0.21351235 0.024064653
0.60900199 -0.21267003 0.024053823
0.60925895 -0.21182771 0.024042996
0.60951591 -0.21098539 0.024032166
0.60977286 -0.21014307 0.024021337
0.61002982 -0.20930076 0.024010507
0.61028677 -0.20845844 0.02399968
0.61054373 -0.20761612 0.02398885
0.61169463 -0.20696843 0.024434721
0.61284482 -0.20632279 0.024880588
0.61310118 -0.20548254 0.024869787
0.61335748 -0.20464228 0.024858983
0.61361378 -0.20380203 0.024848182
0.61387014 -0.20296179 0.024837378
0.61412644 -0.20212154 0.024826577
0.6143828 -0.20128129 0.024815774
0.6146391 -0.20044103 0.024804972
0.6148954 -0.19960079 0.024794169
0.61515176 -0.19876054 0.024783367
0.61540806 -0.19792028 0.024772564
0.61566442 -0.19708003 0.024761762
0.61592072 -0.19623978 0.024750959
0.61617702 -0.19539954 0.024740158
0.61732256 -0.19476938 0.025186239
0.61757857 -0.19393016 0.025175449
0.61783457 -0.19309096 0.02516466
0.61809057 -0.19225174 0.025153872
0.61834657 -0.19141252 0.025143081
0.61860257 -0.1905733 0.025132293
0.61885858 -0.18973409 0.025121504
0.61911458 -0.18889487 0.025110714
0.61848396 -0.18783729 0.024642935
0.61785394 -0.18677762 0.024175145
0.61722451 -0.18571588 0.023707297
0.61659575 -0.18465209 0.023239423
0.6150822 -0.18336372 0.022314494
0.61445498 -0.18229474 0.021846553
0.61294371 -0.18099914 0.020921532
0.61143363 -0.17969941 0.019996459
0.60992479 -0.17839552 0.019071314
0.60841727 -0.17708752 0.018146133
0.606911 -0.17577536 0.017220885
0.60540599 -0.1744591 0.016295582
0.60390216 -0.17313866 0.015370241
0.60239971 -0.17181413 0.014444848
0.6008985 -0.17048545 0.013519386
0.59939849 -0.16915263 0.012593871
0.59789979 -0.16781569 0.011668332
0.59552103 -0.16623865 0.01028548
0.59402514 -0.16489241 0.0093598217
0.59164983 -0.163304 0.0079768244
0.59015679 -0.16194846 0.0070510171
0.57831538 -0.21094678 0.0081549259
0.57858276 -0.21007036 0.0081436578
0.6089586 -0.21358724 0.023211595
0.60921556 -0.21274492 0.023200765
0.61036807 -0.21209092 0.023647606
0.61062473 -0.21124965 0.023636792
0.61088139 -0.21040836 0.023625975
0.61113799 -0.20956708 0.023615159
0.61139464 -0.2087258 0.023604345
0.6116513 -0.20788451 0.023593528
0.61280155 -0.20723774 0.024040433
0.61395121 -0.20659304 0.024487378
0.61420721 -0.20575382 0.02447659
0.61446321 -0.2049146 0.024465799
0.61471927 -0.20407538 0.024455011
0.61497527 -0.20323616 0.024444222
0.61523128 -0.20239694 0.024433432
0.61548728 -0.20155773 0.024422644
0.61574328 -0.20071852 0.024411853
0.61599928 -0.1998793 0.024401065
0.61625528 -0.19904009 0.024390277
0.61651129 -0.19820087 0.024379486
0.61676729 -0.19736165 0.024368698
0.61702329 -0.19652243 0.024357909
0.61727935 -0.19568321 0.024347119
0.61753535 -0.19484399 0.024336331
0.61779135 -0.19400479 0.024325542
0.61804736 -0.19316557 0.024314752
0.61830336 -0.19232635 0.024303963
0.61855936 -0.19148713 0.024293173
0.61881536 -0.19064792 0.024282385
0.61907136 -0.1898087 0.024271596
0.61932737 -0.18896949 0.024260806
0.61869699 -0.18791199 0.023791978
0.61806726 -0.18685243 0.023323135
0.61743808 -0.18579076 0.022854239
0.61680961 -0.18472707 0.022385329
0.61618173 -0.1836613 0.021916393
0.61466962 -0.18237001 0.02098931
0.61315882 -0.18107459 0.020062216
0.61164933 -0.17977503 0.019135041
0.61014104 -0.17847133 0.018207798
0.608634 -0.17716351 0.01728053
0.6071282 -0.17585154 0.016353181
0.60562372 -0.17453545 0.015425794
0.60412049 -0.17321521 0.014498352
0.60261852 -0.17189085 0.013570858
0.60111785 -0.17056237 0.012643311
0.59961838 -0.16922972 0.011715695
0.59812015 -0.16789296 0.010788056
0.59574217 -0.1663162 0.0094020832
0.59424686 -0.16497014 0.0084743239
0.59187233 -0.16338201 0.0070881904
0.59037983 -0.16202666 0.0061602979
0.57853764 -0.2110247 0.0072673275
0.57880497 -0.21014829 0.0072560604
0.61096406 -0.21403445 0.023275893
0.61122036 -0.21319419 0.023265092
0.61147666 -0.21235394 0.023254288
0.61173302 -0.2115137 0.023243487
0.61198932 -0.21067345 0.023232684
0.61224568 -0.20983319 0.023221882
0.61250198 -0.20899294 0.023211079
0.61275828 -0.2081527 0.023200277
0.61390799 -0.20750687 0.02364826
0.61505705 -0.20686311 0.024096267
0.61531276 -0.20602491 0.024085492
0.61556846 -0.20518674 0.024074716
0.61582416 -0.20434855 0.024063941
0.61607987 -0.20351036 0.024053166
0.61633551 -0.20267218 0.024042388
0.61659122 -0.20183401 0.024031613
0.61684692 -0.20099582 0.024020838
0.61710262 -0.20015764 0.024010062
0.61735833 -0.19931945 0.023999285
0.61761397 -0.19848126 0.02398851
0.61786968 -0.19764309 0.023977734
0.61812538 -0.1968049 0.023966959
0.61838108 -0.19596672 0.023956181
0.61863679 -0.19512853 0.023945406
0.61889243 -0.19429035 0.023934631
0.61914814 -0.19345216 0.023923855
0.61940384 -0.19261399 0.02391308
0.61965954 -0.1917758 0.023902303
0.61991525 -0.19093762 0.023891527
0.62017095 -0.19009943 0.023880752
0.6204266 -0.18926126 0.023869976
0.61979616 -0.18820488 0.023400109
0.61916637 -0.18714644 0.022930216
0.61853719 -0.18608592 0.022460327
0.61702341 -0.18480206 0.021531235
0.61639583 -0.18373637 0.021061249
0.61488426 -0.18244526 0.02013208
0.61337399 -0.18115002 0.019202886
0.61186498 -0.17985065 0.018273611
0.61035722 -0.17854714 0.017344281
0.60885072 -0.17723951 0.016414914
0.60734546 -0.17592771 0.015485479
0.60584152 -0.17461181 0.014555991
0.60433877 -0.17329176 0.013626463
0.60283732 -0.17196758 0.012696883
0.60133719 -0.17063928 0.011767236
0.5998382 -0.16930681 0.010837534
0.59834057 -0.16797024 0.0099077951
0.59684414 -0.16662952 0.0089779878
0.59446853 -0.16504788 0.0075888266
0.59297496 -0.16369785 0.0066588852
0.59060282 -0.16210485 0.0052695638
0.61271268 -0.21531944 0.023355169
0.61296839 -0.21448126 0.023344392
0.61322409 -0.21364309 0.023333617
0.61258477 -0.21261677 0.022863086
0.61284077 -0.21177755 0.022852296
0.61309677 -0.21093833 0.022841508
0.61335278 -0.21009913 0.022830719
0.61360878 -0.20925991 0.022819929
0.61386478 -0.20842069 0.02280914
0.6150139 -0.2077758 0.023258187
0.61616242 -0.20713298 0.023707245
0.61641777 -0.20629583 0.023696482
0.61667317 -0.20545869 0.02368572
0.61692852 -0.20462152 0.023674956
0.61718392 -0.20378438 0.023664193
0.61743927 -0.20294723 0.023653431
0.61769468 -0.20211008 0.023642669
0.61795002 -0.20127293 0.023631906
0.61820543 -0.20043579 0.023621144
0.61846077 -0.19959864 0.023610381
0.61871618 -0.19876148 0.023599619
0.61897153 -0.19792433 0.023588857
0.61922693 -0.19708718 0.023578094
0.61948228 -0.19625004 0.02356733
0.61973768 -0.19541289 0.023556568
0.61999309 -0.19457573 0.023545805
0.62024844 -0.19373858 0.023535043
0.62050384 -0.19290143 0.023524281
0.62075919 -0.19206429 0.023513518
0.6210146 -0.19122714 0.023502756
0.62126994 -0.19038999 0.023491994
0.62063915 -0.18933578 0.023021119
0.62000895 -0.18827949 0.022550201
0.6193794 -0.18722114 0.022079272
0.61875051 -0.18616073 0.021608317
0.61812216 -0.18509823 0.021137321
0.61660993 -0.18381144 0.02020612
0.61509889 -0.18252051 0.019274849
0.61358917 -0.18122546 0.018343555
0.61208069 -0.17992628 0.017412195
0.61057341 -0.17862295 0.016480764
0.60906744 -0.17731549 0.015549311
0.60756272 -0.17600389 0.014617776
0.6069417 -0.17491764 0.014146488
0.60543919 -0.17359881 0.013214875
0.60393792 -0.17227584 0.012283207
0.60243797 -0.17094874 0.011351487
0.60005808 -0.16938391 0.0099593587
0.59856093 -0.16804752 0.0090275342
0.59706503 -0.16670698 0.0080956258
0.59469026 -0.16512561 0.0067033293
0.59319717 -0.16377577 0.0057713017
0.61471665 -0.21576385 0.023427827
0.6149717 -0.21492773 0.023417078
0.61433166 -0.2139046 0.022945523
0.61369228 -0.21287942 0.022473969
0.61394799 -0.21204124 0.022463193
0.61420369 -0.21120305 0.022452418
0.61445934 -0.21036488 0.022441642
0.61471504 -0.20952669 0.022430865
0.61497074 -0.20868851 0.02242009
0.61611927 -0.20804456 0.022870185
0.61726725 -0.20740269 0.023320336
0.6175223 -0.20656657 0.023309587
0.61777741 -0.20573047 0.023298837
0.61803246 -0.20489435 0.023288088
0.6182875 -0.20405823 0.023277339
0.61854255 -0.20322211 0.023266589
0.61879766 -0.20238599 0.02325584
0.61905271 -0.20154987 0.023245091
0.61930776 -0.20071377 0.023234341
0.6195628 -0.19987765 0.023223592
0.61981785 -0.19904153 0.023212843
0.62007296 -0.19820541 0.023202093
0.62032801 -0.19736931 0.023191344
0.62058306 -0.19653319 0.023180595
0.62083811 -0.19569707 0.023169845
0.62109321 -0.19486095 0.023159096
0.62134826 -0.19402483 0.023148347
0.62160331 -0.19318873 0.023137597
0.62185836 -0.19235261 0.023126848
0.62211347 -0.19151649 0.023116099
0.62236851 -0.19068037 0.023105351
0.6217376 -0.18962726 0.022633409
0.62110734 -0.18857211 0.022161471
0.6204778 -0.18751489 0.021689504
0.61896384 -0.18623552 0.020756325
0.61833578 -0.18517312 0.020284263
0.61682403 -0.18388651 0.019350976
0.61531353 -0.18259577 0.018417604
0.61380428 -0.18130091 0.017484225
0.61229634 -0.1800019 0.016550764
0.6107896 -0.17869875 0.015617248
0.60928416 -0.17739148 0.014683709
0.60777998 -0.17608006 0.013750073
0.6071592 -0.1749939 0.013277736
0.60565722 -0.17367527 0.012344021
0.60415649 -0.17235248 0.011410268
0.60265702 -0.17102557 0.010476448
0.60027796 -0.169461 0.0090811979
0.59878135 -0.16812479 0.0081472723
0.59728593 -0.16678444 0.0072132787
0.59491193 -0.16520335 0.0058178315
0.61492866 -0.21583819 0.022581056
0.61518371 -0.21500207 0.022570306
0.61454391 -0.21397904 0.022097714
0.61479932 -0.21314187 0.022086952
0.61505467 -0.21230473 0.02207619
0.61531007 -0.21146758 0.022065427
0.61556542 -0.21063043 0.022054665
0.61582083 -0.20979328 0.022043902
0.61607617 -0.20895614 0.02203314
0.61722422 -0.20831315 0.022484314
0.61837155 -0.20767221 0.022935499
0.6186263 -0.20683713 0.022924762
0.61888105 -0.20600204 0.022914026
0.6191358 -0.20516697 0.02290329
0.61939055 -0.20433187 0.022892553
0.6196453 -0.2034968 0.022881817
0.61990005 -0.20266171 0.022871083
0.6201548 -0.20182663 0.022860346
0.62040949 -0.20099156 0.02284961
0.62066424 -0.20015647 0.022838874
0.62091899 -0.19932139 0.022828138
0.62117374 -0.1984863 0.022817401
0.62142849 -0.19765122 0.022806667
0.62168324 -0.19681613 0.022795931
0.62193799 -0.19598106 0.022785194
0.62219274 -0.19514596 0.022774458
0.62244749 -0.19431089 0.022763722
0.62270224 -0.19347581 0.022752985
0.62295699 -0.19264072 0.022742251
0.62321174 -0.19180565 0.022731515
0.62258053 -0.19075471 0.022258578
0.62194985 -0.18970169 0.0217856
0.62131989 -0.18864663 0.021312611
0.62069058 -0.1875895 0.020839596
0.61917716 -0.18631032 0.019904315
0.61854935 -0.185248 0.019431219
0.61703813 -0.18396159 0.018495832
0.61552811 -0.18267103 0.017560374
0.61401945 -0.18137634 0.016624894
0.61251199 -0.18007752 0.015689347
0.61100578 -0.17877457 0.014753732
0.60950089 -0.17746747 0.013818092
0.60799718 -0.17615624 0.012882371
0.60737669 -0.17507017 0.012408983
0.60587525 -0.17375171 0.011473183
0.60437506 -0.17242911 0.010537329
0.60287613 -0.17110239 0.0096014226
0.60049784 -0.1695381 0.0082030222
0.59900177 -0.16820207 0.0072670109
0.59750688 -0.16686191 0.0063309171
0.61514068 -0.21591254 0.021734284
0.61539572 -0.21507642 0.021723535
0.61565077 -0.2142403 0.021712786
0.61590582 -0.21340418 0.021702036
0.61616093 -0.21256806 0.021691287
0.61641598 -0.21173194 0.021680538
0.61667103 -0.21089584 0.021669788
0.61692607 -0.21005972 0.021659039
0.61718112 -0.2092236 0.02164829
0.61832851 -0.20858154 0.022100512
0.61858326 -0.20774646 0.022089776
0.61972976 -0.20710748 0.022542037
0.61998415 -0.20627344 0.022531314
0.6202386 -0.20543939 0.022520592
0.62049305 -0.20460534 0.022509869
0.62074745 -0.20377129 0.022499146
0.6210019 -0.20293725 0.022488425
0.62125629 -0.2021032 0.022477701
0.62151074 -0.20126915 0.022466978
0.6217652 -0.2004351 0.022456257
0.62201959 -0.19960104 0.022445533
0.62227404 -0.19876701 0.02243481
0.62252849 -0.19793294 0.022424087
0.62278289 -0.1970989 0.022413366
0.62303734 -0.19626485 0.022402642
0.62329179 -0.1954308 0.022391919
0.62354618 -0.19459675 0.022381198
0.62380064 -0.1937627 0.022370474
0.62405509 -0.19292866 0.022359751
0.62342346 -0.19187988 0.021885792
0.62279248 -0.19082905 0.021411806
0.6221621 -0.18977612 0.020937778
0.62153244 -0.18872115 0.020463753
0.62090337 -0.18766412 0.019989688
0.61939043 -0.18638511 0.019052323
0.61876291 -0.1853229 0.018578175
0.61725223 -0.18403666 0.017640686
0.61574274 -0.18274628 0.016703144
0.61423457 -0.18145178 0.015765565
0.6127277 -0.18015315 0.014827931
0.61122197 -0.17885037 0.013890215
0.60971761 -0.17754346 0.01295249
0.60821444 -0.17623241 0.012014668
0.60759419 -0.17514643 0.011540229
0.60609329 -0.17382817 0.010602344
0.60459358 -0.17250575 0.0096643893
0.60309523 -0.17117921 0.0087263975
0.60071766 -0.16961519 0.0073248614
0.59922212 -0.16827935 0.0063867499
0.59772778 -0.16693936 0.0054485695
0.61445767 -0.21580219 0.02042361
0.61560774 -0.21515074 0.020876778
0.61586279 -0.21431462 0.020866029
0.61611784 -0.21347852 0.02085528
0.61637288 -0.2126424 0.02084453
0.61662799 -0.21180628 0.020833781
0.61688304 -0.21097016 0.020823032
0.61803079 -0.21032594 0.021276262
0.61828554 -0.20949087 0.021265525
0.61854029 -0.20865579 0.021254789
0.61879504 -0.2078207 0.021244055
0.61994123 -0.20718163 0.021697365
0.62019563 -0.2063476 0.021686643
0.62045008 -0.20551354 0.02167592
0.62070453 -0.20467949 0.021665197
0.62095892 -0.20384544 0.021654475
0.62121338 -0.20301139 0.021643752
0.62146783 -0.20217735 0.021633029
0.62172222 -0.2013433 0.021622308
0.62197667 -0.20050925 0.021611584
0.62223107 -0.1996752 0.021600861
0.62248552 -0.19884115 0.021590138
0.62273997 -0.19800711 0.021579416
0.62299436 -0.19717306 0.021568693
0.62324882 -0.196339 0.02155797
0.62350327 -0.19550495 0.021547249
0.62375766 -0.1946709 0.021536525
0.62401211 -0.19383685 0.021525802
0.62426656 -0.19300281 0.021515081
0.62363523 -0.19195414 0.021040071
0.6230045 -0.19090338 0.02056505
0.62237442 -0.18985055 0.020089971
0.62174493 -0.18879567 0.019614883
0.62111616 -0.18773873 0.01913978
0.61960375 -0.18645991 0.018200314
0.61897647 -0.18539779 0.017725116
0.61746633 -0.18411173 0.016785542
0.61595738 -0.18282154 0.0158459
0.61444974 -0.18152723 0.014906234
0.61294335 -0.18022877 0.0139665
0.61143821 -0.17892617 0.013026698
0.60993433 -0.17761946 0.012086873
0.6084317 -0.17630859 0.011146965
0.60781169 -0.17522269 0.010671491
0.60631132 -0.17390461 0.0097315051
0.60481215 -0.17258237 0.0087914653
0.60331428 -0.17125602 0.0078513725
0.60093755 -0.16969228 0.0064466861
0.59944254 -0.16835663 0.0055064885
0.61466998 -0.21587662 0.019575788
0.61581969 -0.21522509 0.020030005
0.6160748 -0.21438897 0.020019256
0.61632985 -0.21355285 0.020008506
0.6165849 -0.21271673 0.019997757
0.61683995 -0.21188062 0.019987008
0.61798781 -0.21123527 0.020441277
0.6182425 -0.21040019 0.020430541
0.61849725 -0.2095651 0.020419804
0.618752 -0.20873003 0.020409068
0.61900675 -0.20789495 0.020398332
0.62015271 -0.2072558 0.020852679
0.6204071 -0.20642175 0.020841956
0.62066156 -0.2055877 0.020831235
0.62091601 -0.20475365 0.020820512
0.62206036 -0.20411967 0.021274926
0.62231445 -0.20328665 0.021264216
0.62256855 -0.20245364 0.021253506
0.6228227 -0.20162062 0.021242797
0.6230768 -0.2007876 0.021232087
0.62333089 -0.19995458 0.021221379
0.62358505 -0.19912158 0.021210669
0.62383914 -0.19828856 0.02119996
0.62409323 -0.19745554 0.02118925
0.62434739 -0.19662254 0.02117854
0.62460148 -0.19578952 0.021167831
0.62485564 -0.1949565 0.021157121
0.62510973 -0.19412348 0.021146413
0.62536383 -0.19329047 0.021135703
0.62473243 -0.19224291 0.020659672
0.6241017 -0.1911933 0.020183614
0.62347156 -0.1901416 0.019707527
0.62284201 -0.18908784 0.019231386
0.62132895 -0.18781334 0.018289873
0.61981708 -0.1865347 0.017348306
0.61919004 -0.18547267 0.016872073
0.61768043 -0.1841868 0.015930412
0.61617202 -0.18289679 0.014988669
0.61466491 -0.18160266 0.014046918
0.61315906 -0.18030439 0.013105084
0.6116544 -0.17900199 0.012163182
0.61015105 -0.17769544 0.01122127
0.60864896 -0.17638476 0.010279262
0.60802925 -0.17529896 0.0098027382
0.60652936 -0.17398107 0.0088606514
0.60503072 -0.17265901 0.0079185255
0.60353339 -0.17133284 0.006976333
0.60115743 -0.16976938 0.0055685104
0.61488223 -0.21595104 0.018727981
0.61603171 -0.21529943 0.019183233
0.61628681 -0.21446331 0.019172484
0.61654186 -0.21362719 0.019161735
0.61679691 -0.21279107 0.019150985
0.61705196 -0.21195495 0.019140236
0.61819953 -0.21130952 0.019595554
0.61845428 -0.21047443 0.019584818
0.61870903 -0.20963936 0.019574082
0.61896378 -0.20880428 0.019563347
0.62010974 -0.20816399 0.02001873
0.62036419 -0.20732994 0.020008007
0.62061858 -0.2064959 0.019997286
0.62087303 -0.20566185 0.019986562
0.62112749 -0.2048278 0.019975839
0.62227154 -0.20419373 0.020431289
0.62252569 -0.20336072 0.020420579
0.62277979 -0.2025277 0.020409871
0.62303388 -0.20169468 0.020399161
0.62328804 -0.20086166 0.020388452
0.62354213 -0.20002866 0.020377742
0.62379622 -0.19919564 0.020367034
0.62405038 -0.19836262 0.020356324
0.62430447 -0.19752961 0.020345613
0.62455863 -0.19669659 0.020334905
0.62481272 -0.19586357 0.020324195
0.62506682 -0.19503056 0.020313486
0.62532097 -0.19419755 0.020302776
0.62557507 -0.19336453 0.020292068
0.62494391 -0.19231707 0.019815
0.62431347 -0.19126754 0.019337891
0.62368357 -0.19021595 0.018860755
0.62305433 -0.18916225 0.018383579
0.62154174 -0.18788795 0.017439965
0.6200304 -0.18660951 0.016496312
0.61940366 -0.18554756 0.016019028
0.61789453 -0.18426187 0.015075268
0.61638665 -0.18297204 0.01413144
0.61488003 -0.1816781 0.013187587
0.61337471 -0.18038002 0.012243668
0.61187059 -0.17907779 0.011299665
0.61036777 -0.17777143 0.010355653
0.60886621 -0.17646094 0.0094115585
0.60824674 -0.17537524 0.0089339847
0.60674739 -0.17405751 0.0079898126
0.60524929 -0.17273565 0.0070455866
0.60375243 -0.17140965 0.0061013084
0.61509448 -0.21602547 0.017880158
0.61624372 -0.21537375 0.018336462
0.61649877 -0.21453764 0.018325713
0.61675388 -0.21370153 0.018314963
0.61700892 -0.21286541 0.018304214
0.61726397 -0.21202929 0.018293465
0.61841124 -0.21138376 0.018749833
0.61866599 -0.21054868 0.018739097
0.61892074 -0.20971359 0.018728361
0.61917549 -0.20887852 0.018717624
0.62032121 -0.20823815 0.019174058
0.62057567 -0.20740409 0.019163337
0.62083006 -0.20657004 0.019152613
0.62108451 -0.205736 0.01914189
0.62133896 -0.20490195 0.019131169
0.62248278 -0.20426778 0.019587668
0.62273687 -0.20343478 0.019576959
0.62299103 -0.20260176 0.019566249
0.62324512 -0.20176874 0.019555539
0.62349921 -0.20093572 0.019544831
0.62375337 -0.20010272 0.01953412
0.62400746 -0.1992697 0.019523412
0.62426156 -0.19843668 0.019512702
0.62451571 -0.19760367 0.019501993
0.62476981 -0.19677065 0.019491283
0.62502396 -0.19593763 0.019480573
0.62527806 -0.19510461 0.019469865
0.62553215 -0.19427161 0.019459154
0.6257863 -0.19343859 0.019448446
0.62515539 -0.19239122 0.018970327
0.62452519 -0.19134179 0.01849217
0.62389559 -0.19029029 0.018013984
0.62326658 -0.18923669 0.017535757
0.62175453 -0.18796256 0.016590057
0.62024373 -0.1866843 0.015644303
0.61961722 -0.18562245 0.015165985
0.61810863 -0.18433695 0.014220124
0.61660123 -0.18304731 0.013274195
0.6150952 -0.18175353 0.012328257
0.61359036 -0.18045564 0.011382237
0.61208677 -0.17915359 0.010436162
0.6105845 -0.17784743 0.0094900504
0.60908341 -0.17653711 0.0085438564
0.60846424 -0.1754515 0.008065247
0.60696542 -0.17413397 0.0071189739
0.6054678 -0.17281228 0.0061726477
0.60397154 -0.17148647 0.0052262833
0.61505139 -0.21693705 0.017043114
0.61530674 -0.2160999 0.017032349
0.61645573 -0.2154481 0.017489703
0.61671078 -0.21461198 0.017478954
0.61696583 -0.21377586 0.017468205
0.61722094 -0.21293974 0.017457455
0.61747599 -0.21210364 0.017446706
0.61862302 -0.21145801 0.01790411
0.61887777 -0.21062292 0.017893374
0.61913252 -0.20978785 0.01788264
0.61938727 -0.20895277 0.017871903
0.62053269 -0.2083123 0.018329388
0.62078714 -0.20747826 0.018318664
0.62104154 -0.20664421 0.018307941
0.62129599 -0.20581016 0.01829722
0.62155044 -0.20497611 0.018286496
0.62269402 -0.20434186 0.018744033
0.62294811 -0.20350884 0.018733323
0.6232022 -0.20267582 0.018722612
0.62345636 -0.2018428 0.018711904
0.62371045 -0.2010098 0.018701194
0.62396455 -0.20017678 0.018690486
0.6242187 -0.19934376 0.018679775
0.6244728 -0.19851075 0.018669067
0.62472689 -0.19767773 0.018658357
0.62498105 -0.19684471 0.018647647
0.62523514 -0.19601169 0.018636938
0.62548929 -0.19517869 0.018626228
0.62574339 -0.19434567 0.01861552
0.62599748 -0.19351265 0.018604809
0.62536693 -0.19246536 0.018125657
0.62473691 -0.19141603 0.017646447
0.6241076 -0.19036461 0.017167225
0.62347883 -0.18931112 0.016687948
0.62196732 -0.18803717 0.015740149
0.62045705 -0.1867591 0.014792309
0.61983079 -0.18569733 0.014312926
0.61832273 -0.18441202 0.013364979
0.61681587 -0.18312256 0.012416964
0.61531031 -0.18182898 0.011468926
0.61380607 -0.18053126 0.010520821
0.61230296 -0.17922939 0.0095726456
0.61080122 -0.17792341 0.0086244484
0.60930067 -0.17661329 0.007676153
0.60868174 -0.17552777 0.0071964934
0.60718346 -0.17421041 0.0062481351
0.60568637 -0.17288892 0.0052997228
0.6132198 -0.21748437 0.01526786
0.61526364 -0.21701148 0.016195292
0.61551905 -0.21617433 0.016184527
0.61666775 -0.21552242 0.016642932
0.6169228 -0.21468632 0.016632183
0.61717784 -0.2138502 0.016621433
0.61743295 -0.21301408 0.016610684
0.61857998 -0.21236734 0.017069126
0.61883473 -0.21153225 0.017058389
0.61908948 -0.21069717 0.017047653
0.61934423 -0.20986208 0.017036917
0.61959898 -0.20902701 0.01702618
0.62074417 -0.20838645 0.0174847
0.62099862 -0.2075524 0.017473979
0.62125307 -0.20671836 0.017463256
0.62150747 -0.20588431 0.017452532
0.62176192 -0.20505026 0.017441811
0.62290519 -0.20441592 0.017900411
0.62315935 -0.2035829 0.017889701
0.62341344 -0.20274988 0.017878992
0.62366754 -0.20191686 0.017868282
0.62392169 -0.20108385 0.017857572
0.62417579 -0.20025083 0.017846864
0.62442988 -0.19941781 0.017836154
0.62468404 -0.19858481 0.017825445
0.62493813 -0.19775179 0.017814735
0.62519222 -0.19691877 0.017804027
0.62544638 -0.19608575 0.017793316
0.62570047 -0.19525275 0.017782606
0.62595463 -0.19441973 0.017771898
0.62620872 -0.19358671 0.017761188
0.6255784 -0.19253953 0.01728097
0.62494868 -0.19149028 0.016800726
0.62431961 -0.19043896 0.016320454
0.62369108 -0.18938555 0.015840126
0.6221801 -0.18811178 0.014890241
0.62155324 -0.18705323 0.014409862
0.62004435 -0.18577223 0.013459882
0.61853683 -0.18448709 0.012509835
0.6170305 -0.18319781 0.011559734
0.61552548 -0.18190442 0.010609596
0.61402172 -0.18060689 0.00965939
0.6125192 -0.17930521 0.0087091289
0.61101794 -0.17799941 0.0077588311
0.60951793 -0.17668946 0.0068084649
0.60801923 -0.17537539 0.005858046
0.61343259 -0.21755898 0.014417952
0.61458224 -0.21690284 0.014877323
0.6157313 -0.21624877 0.01533672
0.61687976 -0.21559677 0.01579616
0.61713481 -0.21476065 0.015785411
0.61738986 -0.21392454 0.015774662
0.61764491 -0.21308842 0.015763912
0.61879176 -0.21244158 0.016223403
0.61904651 -0.2116065 0.016212666
0.61930126 -0.21077141 0.016201932
0.61955601 -0.20993634 0.016191196
0.62070125 -0.20929466 0.016650753
0.62095565 -0.20846061 0.01664003
0.6212101 -0.20762655 0.016629307
0.62146455 -0.2067925 0.016618583
0.62171894 -0.20595846 0.016607862
0.6219734 -0.20512441 0.016597139
0.62311643 -0.20448998 0.017056774
0.62337053 -0.20365696 0.017046066
0.62362468 -0.20282395 0.017035356
0.62476641 -0.20219363 0.017495058
0.62502027 -0.20136166 0.017484363
0.62527406 -0.20052968 0.017473666
0.62552786 -0.19969769 0.017462971
0.62578166 -0.19886571 0.017452275
0.62603545 -0.19803374 0.017441578
0.62628925 -0.19720174 0.017430883
0.62654305 -0.19636977 0.017420186
0.62679684 -0.19553778 0.01740949
0.62705064 -0.1947058 0.017398793
0.62641996 -0.19366078 0.016917553
0.62578988 -0.19261368 0.016436299
0.6251604 -0.19156452 0.015955003
0.62453163 -0.19051328 0.015473682
0.62390339 -0.18945998 0.014992319
0.62239289 -0.18818641 0.014040332
0.62176627 -0.18712793 0.013558919
0.62025791 -0.18584712 0.012606838
0.61875093 -0.18456216 0.011654691
0.61724514 -0.18327308 0.01070249
0.61574066 -0.18197985 0.0097502656
0.61423743 -0.18068251 0.0087979734
0.61273539 -0.17938101 0.0078456132
0.61123466 -0.1780754 0.0068932287
0.60973519 -0.17676564 0.0059407619
0.61249536 -0.21829189 0.013107649
0.61364537 -0.21763359 0.013568044
0.61479479 -0.21697736 0.014028465
0.61594355 -0.2163232 0.014488898
0.61709177 -0.21567111 0.014949388
0.61734682 -0.21483499 0.014938639
0.61760187 -0.21399887 0.014927889
0.61785692 -0.21316275 0.01491714
0.61900347 -0.21251583 0.015377681
0.61925822 -0.21168074 0.015366945
0.61951298 -0.21084566 0.015356209
0.62065828 -0.21020286 0.015816804
0.62091273 -0.20936881 0.015806081
0.62116712 -0.20853476 0.015795358
0.62142158 -0.20770071 0.015784634
0.62167603 -0.20686667 0.015773913
0.62193042 -0.20603262 0.01576319
0.62218487 -0.20519857 0.015752466
0.62332767 -0.20456403 0.016213153
0.62358177 -0.20373102 0.016202444
0.62383586 -0.20289801 0.016191734
0.62497741 -0.2022676 0.016652487
0.62523121 -0.20143563 0.016641792
0.625485 -0.20060363 0.016631095
0.6257388 -0.19977166 0.016620399
0.6259926 -0.19893968 0.016609702
0.62624639 -0.1981077 0.016599007
0.62650019 -0.19727571 0.016588312
0.62675399 -0.19644374 0.016577614
0.62700778 -0.19561175 0.016566919
0.62726158 -0.19477977 0.016556222
0.62663114 -0.19373484 0.016073931
0.62600136 -0.19268782 0.015591627
0.62537217 -0.19163877 0.015109282
0.62474358 -0.19058762 0.01462691
0.62411565 -0.18953441 0.014144497
0.62260568 -0.18826102 0.013190425
0.62197936 -0.18720265 0.01270796
0.62047154 -0.185922 0.01175378
0.61896503 -0.18463723 0.010799561
0.61745977 -0.18334833 0.0098452596
0.61595577 -0.18205529 0.0088909352
0.61445308 -0.18075813 0.0079365568
0.61295158 -0.17945682 0.006982096
0.61145139 -0.17815138 0.0060276119
0.60995239 -0.17684181 0.0050730594
0.61360216 -0.21854742 0.012728925
0.61385822 -0.2177082 0.012718135
0.61500734 -0.21705188 0.013179593
0.61526304 -0.21621369 0.013168817
0.61641121 -0.21556047 0.013630329
0.61755884 -0.21490933 0.014091881
0.61781389 -0.21407321 0.014081132
0.61806893 -0.21323709 0.014070382
0.61921525 -0.21259007 0.01453196
0.61947 -0.21175499 0.014521223
0.61972475 -0.2109199 0.014510487
0.62086976 -0.21027701 0.014972132
0.62112421 -0.20944296 0.014961408
0.6213786 -0.20860891 0.014950686
0.62163305 -0.20777486 0.014939964
0.62188751 -0.20694081 0.014929241
0.6230306 -0.20630413 0.015390936
0.62328476 -0.20547111 0.015380226
0.62353885 -0.20463809 0.015369517
0.62379301 -0.20380509 0.015358808
0.62493455 -0.20317356 0.015820598
0.62518835 -0.20234157 0.015809901
0.62544215 -0.20150959 0.015799206
0.62569594 -0.2006776 0.01578851
0.62594974 -0.19984563 0.015777813
0.62620354 -0.19901365 0.015767118
0.62645733 -0.19818167 0.015756421
0.62671113 -0.19734968 0.015745725
0.62696493 -0.19651771 0.015735028
0.62721872 -0.19568571 0.015724333
0.62747258 -0.19485374 0.015713638
0.62684238 -0.1938089 0.015230295
0.62621284 -0.19276199 0.014746956
0.62558389 -0.19171301 0.01426356
0.62495559 -0.19066197 0.013780152
0.6243279 -0.18960883 0.013296689
0.62281847 -0.18833563 0.012340517
0.62219238 -0.18727735 0.011857002
0.6206851 -0.18599689 0.010900736
0.61917913 -0.18471231 0.0099444166
0.61767435 -0.18342358 0.0089880293
0.61617094 -0.18213074 0.0080316048
0.61466873 -0.18083376 0.0070751263
0.61316776 -0.17953263 0.0061185793
0.61166811 -0.17822738 0.005162009
0.61470848 -0.21880277 0.012352287
0.61496419 -0.21796459 0.012341511
0.61521983 -0.2171264 0.012330735
0.61547554 -0.21628821 0.012319959
0.61662346 -0.2156349 0.012782506
0.61777079 -0.21498366 0.013245109
0.6180259 -0.21414754 0.01323436
0.61828095 -0.21331143 0.013223611
0.61942697 -0.21266432 0.013686238
0.61968172 -0.21182923 0.013675502
0.61993647 -0.21099415 0.013664765
0.62108123 -0.21035117 0.01412746
0.62133569 -0.20951712 0.014116737
0.62159008 -0.20868307 0.014106015
0.62273359 -0.20804422 0.014568733
0.62298775 -0.2072112 0.014558024
0.62324184 -0.20637819 0.014547314
0.62349594 -0.20554517 0.014536605
0.62375009 -0.20471215 0.014525896
0.62400419 -0.20387915 0.014515186
0.62514549 -0.20324753 0.014978012
0.62539929 -0.20241554 0.014967316
0.62565309 -0.20158356 0.01495662
0.62590688 -0.20075157 0.014945923
0.62616068 -0.1999196 0.014935228
0.62641448 -0.19908762 0.014924532
0.62666833 -0.19825564 0.014913836
0.62692213 -0.19742365 0.014903139
0.62717593 -0.19659168 0.014892443
0.62742972 -0.19575968 0.014881747
0.62768352 -0.19492771 0.014871051
0.62705362 -0.19388296 0.014386673
0.62642431 -0.19283614 0.013902283
0.62579566 -0.19178726 0.013417838
0.62516761 -0.19073629 0.012933381
0.62454015 -0.18968326 0.012448867
0.62303126 -0.18841024 0.011490609
0.62240541 -0.18735205 0.011006044
0.62089866 -0.18607177 0.010047692
0.61939323 -0.18478738 0.0090892725
0.61788899 -0.18349884 0.0081307851
0.61638606 -0.18220617 0.0071722884
0.61488444 -0.18090938 0.0062137097
0.61338395 -0.17960843 0.0052550631
0.61492097 -0.21887729 0.011503429
0.61517668 -0.2180391 0.011492653
0.61543238 -0.21720092 0.011481877
0.61568809 -0.21636273 0.011471101
0.61683571 -0.21570933 0.011934699
0.6179828 -0.215058 0.012398337
0.61823791 -0.21422188 0.012387588
0.61849296 -0.21338576 0.012376839
0.61963874 -0.21273856 0.012840516
0.61989349 -0.21190348 0.01282978
0.62014818 -0.21106839 0.012819043
0.62129271 -0.21042532 0.013282774
0.62154716 -0.20959127 0.013272051
0.62180156 -0.20875722 0.013261328
0.62294483 -0.20811827 0.013725097
0.62319893 -0.20728527 0.013714388
0.62345308 -0.20645225 0.013703679
0.62370718 -0.20561923 0.013692969
0.62396133 -0.20478623 0.013682259
0.62421542 -0.20395321 0.01367155
0.62535644 -0.2033215 0.014135427
0.62561023 -0.20248951 0.014124731
0.62586409 -0.20165753 0.014114034
0.62611789 -0.20082556 0.014103338
0.62637168 -0.19999357 0.014092642
0.62662548 -0.19916159 0.014081946
0.62687927 -0.19832961 0.014071249
0.62713307 -0.19749762 0.014060553
0.62738687 -0.19666564 0.014049858
0.62764066 -0.19583365 0.014039162
0.62789446 -0.19500168 0.014028465
0.6272648 -0.19395702 0.013543038
0.62663579 -0.19291028 0.013057597
0.62600738 -0.1918615 0.012572116
0.62537962 -0.19081064 0.012086609
0.6247524 -0.18975769 0.01160106
0.62324405 -0.18848485 0.0106407
0.6226185 -0.18742676 0.0101551
0.62111223 -0.18614666 0.009194633
0.61960733 -0.18486245 0.0082341284
0.61810362 -0.1835741 0.0072735548
0.61660123 -0.18228161 0.006312958
0.61510009 -0.180985 0.0053522792
0.61513352 -0.21895181 0.010654571
0.61538923 -0.21811362 0.010643795
0.61564493 -0.21727544 0.01063302
0.61590058 -0.21643725 0.010622243
0.61704803 -0.21578376 0.011086877
0.61819482 -0.21513234 0.011551565
0.61844987 -0.21429622 0.011540816
0.61870497 -0.2134601 0.011530067
0.61985046 -0.21281281 0.011994794
0.62010521 -0.21197772 0.011984058
0.62035996 -0.21114264 0.011973322
0.62150419 -0.21049947 0.012438102
0.62175864 -0.20966542 0.012427379
0.62201309 -0.20883137 0.012416657
0.62315607 -0.20819233 0.012881476
0.62341017 -0.20735933 0.012870766
0.62366426 -0.20652631 0.012860057
0.62391841 -0.20569329 0.012849348
0.62417251 -0.20486028 0.012838638
0.62442666 -0.20402727 0.012827929
0.62556744 -0.20339547 0.013292855
0.62582123 -0.20256348 0.013282158
0.62607503 -0.2017315 0.013271463
0.62632883 -0.20089951 0.013260767
0.62658262 -0.20006754 0.013250071
0.62683642 -0.19923556 0.013239374
0.62709022 -0.19840357 0.013228678
0.62734401 -0.19757159 0.013217982
0.62759781 -0.19673961 0.013207286
0.62785161 -0.19590762 0.01319659
0.6281054 -0.19507565 0.013185894
0.62747604 -0.19403107 0.012699416
0.62684727 -0.19298445 0.012212926
0.62621915 -0.19193575 0.011726394
0.62559164 -0.19088498 0.011239837
0.62496471 -0.18983212 0.010753238
0.62345684 -0.18855946 0.0097907931
0.62283152 -0.18750146 0.0093041416
0.62132585 -0.18622155 0.008341589
0.61982143 -0.18493752 0.0073789838
0.61831826 -0.18364935 0.0064163245
0.6168164 -0.18235706 0.0054536276
0.61534607 -0.21902633 0.0098056989
0.61560172 -0.21818814 0.0097949225
0.61585742 -0.21734996 0.0097841471
0.61611313 -0.21651177 0.0097733708
0.61726028 -0.21585818 0.010239068
0.61840683 -0.21520667 0.010704808
0.61866188 -0.21437055 0.010694059
0.61891693 -0.21353444 0.010683309
0.62006223 -0.21288705 0.011149072
0.62031692 -0.21205197 0.011138336
