# .PCD v0.7 - Point Cloud Data file format
VERSION 0.7
FIELDS x y z
SIZE 4 4 4
TYPE F F F
COUNT 1 1 1
WIDTH 1367
HEIGHT 1
VIEWPOINT 0 0 0 1 0 0 0
POINTS 1367
DATA ascii
0.43208581 -0.13120417 0.0053048087
0.43165377 -0.13175194 0.0052828733
0.46096355 -0.096978322 0.0051642805
0.46053019 -0.09752778 0.0051422771
0.46009681 -0.098077238 0.0051202737
0.4591563 -0.097834125 0.0055662813
0.4587236 -0.098382741 0.0055443118
0.4582909 -0.09893135 0.0055223424
0.45785818 -0.099479966 0.005500373
0.4574255 -0.10002857 0.005478404
0.45699278 -0.10057718 0.0054564346
0.45656008 -0.10112578 0.0054344651
0.45612738 -0.1016744 0.0054124957
0.45569468 -0.10222301 0.0053905267
0.45526198 -0.10277162 0.0053685568
0.45482928 -0.10332023 0.0053465879
0.45439658 -0.10386884 0.0053246184
0.45346478 -0.10361477 0.0057710409
0.45303273 -0.10416253 0.0057491055
0.45260072 -0.1047103 0.00572717
0.45167157 -0.10445283 0.0061737266
0.45124021 -0.10499975 0.0061518247
0.45080885 -0.10554666 0.0061299233
0.45037749 -0.10609359 0.0061080218
0.44994611 -0.1066405 0.0060861204
0.44951475 -0.10718741 0.0060642189
0.44908339 -0.10773434 0.006042317
0.44865203 -0.10828124 0.0060204156
0.44822064 -0.10882816 0.0059985141
0.44778928 -0.10937508 0.0059766122
0.44735792 -0.10992199 0.0059547112
0.44643679 -0.10965437 0.0064016762
0.44600612 -0.11020044 0.0063798083
0.44557542 -0.11074651 0.0063579408
0.44514471 -0.11129259 0.0063360729
0.44471401 -0.11183866 0.0063142055
0.44428331 -0.11238473 0.006292338
0.4438526 -0.1129308 0.0062704701
0.44342193 -0.11347686 0.0062486026
0.4429912 -0.11402294 0.0062267347
0.44256052 -0.11456901 0.0062048673
0.44212982 -0.11511508 0.0061829998
0.44169912 -0.11566114 0.0061611319
0.44126841 -0.11620721 0.0061392644
0.44083774 -0.11675328 0.006117397
0.44040701 -0.11729936 0.0060955291
0.43997633 -0.11784542 0.0060736616
0.43954563 -0.11839149 0.0060517937
0.43911493 -0.11893756 0.0060299262
0.43868423 -0.11948363 0.0060080588
0.43825355 -0.1200297 0.0059861913
0.43782282 -0.12057578 0.0059643229
0.43739215 -0.12112185 0.0059424555
0.43696144 -0.12166791 0.005920588
0.43653074 -0.12221398 0.0058987206
0.43610004 -0.12276005 0.0058768531
0.43566933 -0.12330613 0.0058549847
0.43523863 -0.12385219 0.0058331173
0.43480796 -0.12439826 0.0058112498
0.43437725 -0.12494433 0.0057893824
0.43441692 -0.1263295 0.0052976646
0.43398556 -0.1268764 0.0052757636
0.4335542 -0.12742333 0.0052538617
0.43312284 -0.12797023 0.0052319607
0.45324203 -0.10341352 0.0051405006
0.45281002 -0.10396129 0.0051185652
0.45237797 -0.10450905 0.0050966297
0.45144919 -0.10425189 0.0055441596
0.45101783 -0.10479882 0.0055222581
0.45058647 -0.10534573 0.0055003567
0.45015511 -0.10589264 0.0054784552
0.44972375 -0.10643955 0.0054565538
0.44929236 -0.10698648 0.0054346523
0.448861 -0.1075334 0.0054127504
0.44842964 -0.10808031 0.005390849
0.44799826 -0.10862723 0.0053689475
0.4475669 -0.10917415 0.0053470456
0.44713554 -0.10972106 0.0053251446
0.44670418 -0.11026798 0.0053032427
0.44627282 -0.11081489 0.0052813413
0.44535336 -0.11054589 0.0057293493
0.44492266 -0.11109196 0.0057074814
0.44449198 -0.11163803 0.005685614
0.44406128 -0.1121841 0.0056637465
0.44363058 -0.11273017 0.005641879
0.44319987 -0.11327624 0.0056200111
0.44276917 -0.11382232 0.0055981432
0.44233847 -0.11436839 0.0055762758
0.44190779 -0.11491445 0.0055544083
0.44147709 -0.11546052 0.0055325408
0.44104639 -0.11600659 0.0055106729
0.44061568 -0.11655265 0.0054888055
0.44018498 -0.11709873 0.0054669376
0.43975428 -0.1176448 0.0054450701
0.4393236 -0.11819087 0.0054232022
0.4388929 -0.11873694 0.0054013347
0.4384622 -0.11928301 0.0053794673
0.43803149 -0.11982907 0.0053575998
0.43760079 -0.12037515 0.0053357319
0.43717009 -0.12092122 0.005313864
0.43673939 -0.12146728 0.0052919965
0.43630871 -0.12201335 0.0052701291
0.43587801 -0.12255942 0.0052482616
0.43544731 -0.1231055 0.0052263937
0.4350166 -0.12365157 0.0052045258
0.4345859 -0.12419764 0.0051826583
0.43825164 -0.11529769 0.045311131
0.43856534 -0.11426934 0.04529791
0.43887904 -0.11324099 0.045284692
0.43919277 -0.11221264 0.045271471
0.43950647 -0.11118429 0.04525825
0.43982017 -0.11015594 0.045245029
0.44103765 -0.10938514 0.045584537
0.44135103 -0.10835782 0.045571331
0.44001007 -0.1169179 0.044990238
0.44032314 -0.11589162 0.044977043
0.43973118 -0.11461306 0.044610165
0.44004458 -0.11358574 0.044596959
0.44035795 -0.11255842 0.044583753
0.44067135 -0.11153111 0.044570543
0.44098473 -0.11050379 0.044557337
0.44129813 -0.10947648 0.044544131
0.44251466 -0.10870764 0.044884685
0.44282773 -0.10768136 0.04487149
0.4431408 -0.10665507 0.044858295
0.44799814 -0.10360866 0.046220928
0.44830993 -0.10258652 0.046207786
0.44952238 -0.10183111 0.046548523
0.44983387 -0.10080999 0.046535395
0.45014536 -0.099788874 0.046522267
0.45045686 -0.098767765 0.046509139
0.4516677 -0.098017521 0.04684994
0.45197889 -0.09699744 0.046836827
0.44086292 -0.11828452 0.044318769
0.4411757 -0.11725926 0.044305585
0.44148844 -0.11623401 0.044292405
0.44089642 -0.11495658 0.043924492
0.4412095 -0.1139303 0.043911297
0.44152257 -0.11290401 0.043898106
0.44183564 -0.11187773 0.043884911
0.44214872 -0.11085144 0.043871716
0.44246179 -0.10982516 0.043858521
0.44277486 -0.10879888 0.043845326
0.4439905 -0.10803202 0.044186961
0.44430327 -0.10700677 0.044173777
0.44551796 -0.106243 0.044515457
0.44673201 -0.1054813 0.044857156
0.44704413 -0.10445812 0.044844002
0.4482573 -0.10369954 0.045185756
0.44856912 -0.10267739 0.045172617
0.44978127 -0.10192189 0.045514394
0.45009279 -0.10090078 0.045501266
0.45040429 -0.09987966 0.045488138
0.45071578 -0.09885855 0.04547501
0.45192635 -0.098108217 0.045816865
0.45223755 -0.097088136 0.045803748
0.45254871 -0.096068054 0.045790635
0.44262165 -0.11989683 0.044005103
0.4429338 -0.11887365 0.043991949
0.44234079 -0.11760044 0.043623038
0.44174841 -0.11632516 0.0432541
0.44206116 -0.11529992 0.04324092
0.44237393 -0.11427467 0.043227736
0.44268668 -0.11324941 0.043214556
0.44299942 -0.11222417 0.043201376
0.4433122 -0.11119892 0.043188196
0.44362494 -0.11017366 0.043175016
0.44393772 -0.10914841 0.043161832
0.44515276 -0.10838249 0.043504529
0.44546521 -0.10735828 0.04349136
0.44667932 -0.10659546 0.043834098
0.44699144 -0.10557227 0.043820944
0.44730356 -0.10454909 0.04380779
0.44851649 -0.10379042 0.044150583
0.44882828 -0.10276826 0.044137444
0.4491401 -0.10174612 0.044124302
0.45035169 -0.10099156 0.044467144
0.45066318 -0.099970445 0.044454016
0.45097467 -0.098949328 0.044440892
0.452185 -0.098198913 0.044783786
0.4524962 -0.097178824 0.044770669
0.45280737 -0.096158743 0.044757556
0.44347483 -0.12125783 0.043338802
0.44378665 -0.12023568 0.043325663
0.44409847 -0.11921353 0.04331252
0.44350535 -0.11794143 0.042942572
0.44291291 -0.11666729 0.042572606
0.44322535 -0.11564307 0.042559437
0.4435378 -0.11461885 0.042546269
0.44294664 -0.11334057 0.042176243
0.44325939 -0.11231532 0.042163063
0.44357216 -0.11129007 0.042149879
0.44388491 -0.11026482 0.042136699
0.44419768 -0.10923957 0.042123519
0.44541246 -0.10847355 0.042467266
0.4457249 -0.10744934 0.042454097
0.44693875 -0.10668642 0.042797875
0.44725087 -0.10566324 0.042784721
0.44756302 -0.10464006 0.042771567
0.44877565 -0.10388129 0.043115407
0.44908747 -0.10285915 0.043102264
0.44939929 -0.10183699 0.043089125
0.45061061 -0.10108235 0.043433018
0.4509221 -0.10006123 0.04341989
0.4512336 -0.099040113 0.043406762
0.45244366 -0.098289602 0.043750707
0.45275486 -0.09726952 0.043737594
0.45306602 -0.096249439 0.043724477
0.45337722 -0.095229357 0.043711364
0.44373402 -0.12134871 0.042303633
0.44404584 -0.12032656 0.04229049
0.44435763 -0.11930441 0.042277351
0.44376478 -0.1180324 0.041906357
0.44317263 -0.11675834 0.041535333
0.44348505 -0.11573413 0.041522164
0.4437975 -0.11470991 0.041508999
0.44410995 -0.1136857 0.04149583
0.44442239 -0.11266148 0.041482665
0.44473484 -0.11163726 0.041469496
0.44504729 -0.11061305 0.041456327
0.44535971 -0.10958883 0.041443162
0.44657394 -0.10882375 0.041787971
0.44688606 -0.10780057 0.041774817
0.4480994 -0.10703862 0.042119659
0.4484112 -0.10601646 0.042106517
0.44872302 -0.10499432 0.042093378
0.44993502 -0.10423648 0.042438272
0.45024651 -0.10321537 0.042425144
0.45055801 -0.10219425 0.042412017
0.45086953 -0.10117313 0.042398889
0.45118102 -0.10015202 0.042385761
0.45239112 -0.099400379 0.042730741
0.45270231 -0.098380297 0.042717628
0.45391148 -0.09763176 0.043062627
0.45422235 -0.096612707 0.043049529
0.45363587 -0.095320046 0.042678285
0.45394704 -0.094299965 0.042665172
0.4463982 -0.12319858 0.042358126
0.44670907 -0.12217953 0.042345028
0.44520998 -0.12066512 0.041614193
0.44461682 -0.11939529 0.041242179
0.44492862 -0.11837313 0.041229036
0.44433635 -0.11710019 0.040856984
0.44464847 -0.11607701 0.04084383
0.44496059 -0.11505382 0.040830676
0.44527274 -0.11403064 0.040817518
0.44558486 -0.11300746 0.040804364
0.44589698 -0.11198428 0.04079121
0.4462091 -0.11096109 0.040778056
0.44652125 -0.10993791 0.040764902
0.44773495 -0.10917379 0.041110769
0.44804674 -0.10815164 0.04109763
0.44925946 -0.10739061 0.041443534
0.44957095 -0.1063695 0.041430406
0.44988245 -0.10534838 0.041417278
0.45109388 -0.10459148 0.041763235
0.45140505 -0.1035714 0.041750122
0.45171624 -0.10255132 0.041737009
0.45202741 -0.10153124 0.041723892
0.45233861 -0.10051115 0.041710779
0.45264977 -0.099491067 0.041697666
0.45296097 -0.098470986 0.041684549
0.45416987 -0.097722359 0.042030599
0.45448074 -0.096703313 0.042017501
0.4538945 -0.095410742 0.041645207
0.45420569 -0.094390661 0.041632093
0.4481571 -0.12479722 0.042058971
0.44846734 -0.12378024 0.042045895
0.44696745 -0.12227013 0.041313
0.44637361 -0.12100349 0.040939987
0.4457804 -0.11973479 0.040566936
0.44609189 -0.11871367 0.040553808
0.44640338 -0.11769255 0.04054068
0.44671488 -0.11667144 0.040527552
0.44702637 -0.11565032 0.040514424
0.44733787 -0.11462921 0.0405013
0.44764939 -0.11360809 0.040488172
0.44796088 -0.11258698 0.040475044
0.44827238 -0.11156586 0.040461916
0.44858387 -0.11054474 0.040448789
0.44889536 -0.10952362 0.040435661
0.44920686 -0.10850251 0.040422533
0.45041898 -0.10774242 0.040769503
0.45073014 -0.10672234 0.040756386
0.45104134 -0.10570226 0.040743273
0.45225221 -0.1049463 0.04109028
0.45256305 -0.10392725 0.041077178
0.45287392 -0.1029082 0.04106408
0.45318478 -0.10188916 0.041050978
0.45349565 -0.1008701 0.041037876
0.45380652 -0.099851057 0.041024774
0.45411739 -0.098832011 0.041011672
0.45442826 -0.097812958 0.040998574
0.45473912 -0.096793912 0.040985473
0.45415315 -0.09550143 0.040612128
0.45446435 -0.094481349 0.040599015
0.44841498 -0.12488764 0.041029029
0.44872522 -0.12387066 0.041015953
0.44722584 -0.12236073 0.040280964
0.44753671 -0.12134168 0.040267862
0.44694343 -0.1200741 0.039893795
0.44725463 -0.11905402 0.039880682
0.44756579 -0.11803393 0.039867565
0.44787699 -0.11701385 0.039854452
0.44818819 -0.11599377 0.039841339
0.44849935 -0.11497369 0.039828222
0.44881055 -0.11395361 0.039815109
0.44912171 -0.11293352 0.039801996
0.44943291 -0.11191344 0.039788879
0.44974408 -0.11089336 0.039775766
0.45005527 -0.10987328 0.039762653
0.45126712 -0.1091131 0.040110648
0.45157799 -0.10809404 0.04009755
0.45188886 -0.107075 0.040084448
0.45219973 -0.10605595 0.040071346
0.4525106 -0.1050369 0.040058244
0.45282146 -0.10401785 0.040045142
0.45313233 -0.1029988 0.040032044
0.45344317 -0.10197975 0.040018942
0.45375404 -0.10096071 0.04000584
0.45406491 -0.099941656 0.039992739
0.45437577 -0.09892261 0.03997964
0.45468664 -0.097903557 0.039966539
0.45499751 -0.096884511 0.039953437
0.4544118 -0.095592126 0.039579052
0.454723 -0.094572045 0.039565936
0.44867283 -0.12497805 0.03999909
0.44898307 -0.12396108 0.039986018
0.44838876 -0.1226977 0.03961093
0.4486993 -0.12167969 0.039597843
0.44810596 -0.12041323 0.039222732
0.44841683 -0.11939418 0.03920963
0.4487277 -0.11837514 0.039196532
0.44903857 -0.11735608 0.03918343
0.44934943 -0.11633704 0.039170329
0.4496603 -0.11531799 0.039157227
0.44997117 -0.11429894 0.039144125
0.45028204 -0.11327989 0.039131027
0.45059291 -0.11226084 0.039117925
0.45090377 -0.1112418 0.039104823
0.45121464 -0.11022274 0.039091721
0.45242593 -0.10946351 0.039440792
0.45273647 -0.10844549 0.039427701
0.45304701 -0.10742748 0.039414614
0.45335758 -0.10640946 0.039401527
0.45366812 -0.10539144 0.039388441
0.45397866 -0.10437343 0.03937535
0.45428923 -0.10335542 0.039362263
0.45459977 -0.1023374 0.039349176
0.45491034 -0.10131938 0.039336089
0.45522088 -0.10030137 0.039322998
0.45553142 -0.099283352 0.039309911
0.45584199 -0.098265335 0.039296824
0.4552559 -0.09697511 0.038921408
0.45467046 -0.095682822 0.038545974
0.45498165 -0.094662733 0.038532857
0.44983557 -0.12531269 0.039332163
0.45014551 -0.12429674 0.039319102
0.44955117 -0.12303451 0.038943
0.44986141 -0.12201753 0.038929928
0.44926798 -0.12075218 0.038553771
0.44957852 -0.11973417 0.038540684
0.44988909 -0.11871615 0.038527597
0.45019963 -0.11769813 0.038514506
0.45051017 -0.11668012 0.038501419
0.45082074 -0.11566211 0.038488332
0.45113128 -0.11464409 0.038475245
0.45144182 -0.11362608 0.038462155
0.45175239 -0.11260806 0.038449068
0.45206293 -0.11159004 0.038435981
0.4523735 -0.11057203 0.038422894
0.45358425 -0.10981375 0.038773034
0.4538945 -0.10879677 0.038759958
0.45420471 -0.10777979 0.038746882
0.45451495 -0.1067628 0.03873381
0.45482519 -0.10574582 0.038720734
0.45513543 -0.10472884 0.038707659
0.45544565 -0.10371186 0.038694587
0.45575589 -0.10269488 0.038681511
0.45606613 -0.10167789 0.038668435
0.45637637 -0.10066091 0.038655363
0.45668662 -0.099643931 0.038642287
0.45610011 -0.098355845 0.038265839
0.45551428 -0.09706571 0.037889373
0.45492911 -0.095773511 0.037512895
0.45524028 -0.094753429 0.037499782
0.45555148 -0.093733348 0.037486665
0.45009318 -0.12540302 0.038303271
0.45040309 -0.12438706 0.03829021
0.45071304 -0.12337112 0.038277149
0.45102295 -0.12235516 0.038264088
0.4504295 -0.12109096 0.037886918
0.45073974 -0.12007398 0.037873842
0.45104998 -0.119057 0.037860766
0.45136023 -0.11804002 0.037847694
0.45167047 -0.11702304 0.037834618
0.45198068 -0.11600605 0.037821546
0.45229092 -0.11498907 0.03780847
0.45260116 -0.11397209 0.037795395
0.45291141 -0.11295511 0.037782323
0.45322165 -0.11193813 0.037769247
0.45353186 -0.11092114 0.037756171
0.45474198 -0.11016379 0.03810735
0.45505193 -0.10914784 0.03809429
0.45536184 -0.10813189 0.038081229
0.45567176 -0.10711595 0.038068168
0.45598167 -0.10609999 0.038055107
0.45629159 -0.10508405 0.038042046
0.45660153 -0.1040681 0.038028985
0.45691144 -0.10305215 0.038015924
0.45722136 -0.1020362 0.038002864
0.45753127 -0.10102025 0.037989803
0.45784122 -0.10000431 0.037976742
0.45725471 -0.098717369 0.037599277
0.45666879 -0.097428344 0.037221767
0.45518777 -0.095864207 0.036479816
0.45549893 -0.094844125 0.036466703
0.45581013 -0.093824036 0.036453586
0.45522645 -0.092527799 0.036075991
0.45035079 -0.12549333 0.037274379
0.45066071 -0.12447739 0.037261318
0.45097062 -0.12346144 0.037248258
0.45128056 -0.12244549 0.037235197
0.45159048 -0.12142955 0.037222132
0.45190039 -0.12041359 0.037209071
0.45221031 -0.11939765 0.03719601
0.45252022 -0.1183817 0.037182949
0.45283017 -0.11736575 0.037169889
0.45314008 -0.1163498 0.037156828
0.45344999 -0.11533386 0.037143767
0.45375991 -0.11431791 0.037130706
0.45406982 -0.11330196 0.037117645
0.45437977 -0.11228601 0.037104584
0.45468968 -0.11127006 0.03709152
0.45589921 -0.11051365 0.037443772
0.45620883 -0.10949873 0.037430726
0.45651844 -0.10848382 0.037417676
0.45682803 -0.1074689 0.03740463
0.45713764 -0.10645398 0.037391581
0.45744726 -0.10543907 0.037378535
0.45775685 -0.10442416 0.037365485
0.45806646 -0.10340925 0.037352435
0.45837605 -0.10239433 0.037339389
0.45868567 -0.10137942 0.03732634
0.4580988 -0.10009463 0.036947846
0.45751256 -0.098807782 0.036569335
0.45692691 -0.097518846 0.036190782
0.45544642 -0.095954895 0.035446737
0.45575759 -0.094934814 0.035433624
0.45517388 -0.093639694 0.035054997
0.45548537 -0.092618585 0.035041869
0.45490262 -0.091320366 0.034663204
0.4506084 -0.12558366 0.036245488
0.45091832 -0.12456772 0.036232427
0.45122823 -0.12355176 0.036219366
0.45153815 -0.12253582 0.036206301
0.45184806 -0.12151987 0.03619324
0.452158 -0.12050392 0.03618018
0.45246792 -0.11948797 0.036167119
0.45277783 -0.11847202 0.036154058
0.45308775 -0.11745608 0.036140997
0.45339769 -0.11644012 0.036127936
0.45370761 -0.11542418 0.036114875
0.45401752 -0.11440823 0.036101814
0.45522773 -0.11364862 0.036455069
0.45553735 -0.11263371 0.036442019
0.45584697 -0.11161879 0.036428973
0.45705593 -0.11086332 0.036782287
0.45736521 -0.10984944 0.036769252
0.4576745 -0.10883556 0.036756217
0.45798379 -0.10782168 0.036743183
0.45829308 -0.1068078 0.036730148
0.45860237 -0.10579392 0.036717113
0.45891166 -0.10478003 0.036704078
0.45922095 -0.10376615 0.036691044
0.45953023 -0.10275227 0.036678009
0.45894301 -0.10146965 0.036298491
0.45835641 -0.10018495 0.035918955
0.45777044 -0.098898202 0.0355394
0.45718503 -0.097609356 0.035159796
0.45570505 -0.096045591 0.034413662
0.45601624 -0.09502551 0.034400545
0.4554328 -0.093730479 0.034020871
0.45484999 -0.092433386 0.033641174
0.45516178 -0.09141124 0.033628032
0.44965193 -0.12644713 0.034862477
0.45086598 -0.12567398 0.035216596
0.4511759 -0.12465804 0.035203535
0.45148584 -0.12364209 0.035190471
0.45179576 -0.12262614 0.03517741
0.45300823 -0.12185817 0.03553161
0.45331785 -0.12084326 0.035518561
0.45362747 -0.11982834 0.035505515
0.45393705 -0.11881343 0.035492465
0.45424667 -0.11779851 0.035479419
0.45455626 -0.1167836 0.035466369
0.45486587 -0.11576869 0.03545332
0.45517549 -0.11475377 0.035440274
0.45638514 -0.11399511 0.03579459
0.45669442 -0.11298122 0.035781555
0.45700371 -0.11196734 0.03576852
0.45821217 -0.11121283 0.036122892
0.45852113 -0.11019998 0.036109872
0.45883012 -0.10918713 0.036096852
0.45913908 -0.10817429 0.036083829
0.45944807 -0.10716144 0.036070809
0.45975703 -0.10614859 0.036057785
0.46006602 -0.10513575 0.036044765
0.46037498 -0.10412289 0.036031745
0.45978731 -0.10284241 0.035651211
0.45920035 -0.10155988 0.03527065
0.45861402 -0.10027529 0.034890063
0.45802829 -0.098988615 0.034509465
0.45744318 -0.097699866 0.034128811
0.4559637 -0.096136279 0.033380583
0.4553802 -0.094842382 0.032999877
0.45479733 -0.093546413 0.032619145
0.45421505 -0.092248365 0.032238375
0.45452717 -0.091225177 0.032225221
0.44990978 -0.12653755 0.033832535
0.4511236 -0.12576431 0.034187704
0.45143351 -0.12474836 0.03417464
0.45174342 -0.12373242 0.034161579
0.45205337 -0.12271646 0.034148518
0.45326558 -0.12194841 0.034503765
0.45357519 -0.1209335 0.034490719
0.45388478 -0.11991858 0.03447767
0.4541944 -0.11890366 0.034464624
0.45450401 -0.11788875 0.034451574
0.4548136 -0.11687383 0.034438528
0.45512322 -0.11585892 0.034425478
0.45633292 -0.11509912 0.034780826
0.45664221 -0.11408525 0.034767792
0.45785102 -0.11332857 0.035123188
0.45815998 -0.11231572 0.035110164
0.45846897 -0.11130287 0.035097145
0.45877793 -0.11029003 0.035084125
0.45908692 -0.10927718 0.035071101
0.45939589 -0.10826433 0.035058081
0.45970488 -0.10725149 0.035045058
0.46001384 -0.10623864 0.035032038
0.46032283 -0.10522579 0.035019018
0.46063179 -0.10421295 0.035005994
0.46004441 -0.10293256 0.034624413
0.4594577 -0.10165011 0.034242809
0.4588716 -0.10036561 0.033861171
0.45828617 -0.099079035 0.033479523
0.4577013 -0.097790375 0.033097826
0.45622236 -0.096226975 0.032347504
0.45563912 -0.094933167 0.031965747
0.45505652 -0.093637288 0.031583972
0.45447448 -0.092339329 0.031202164
0.45389313 -0.091039322 0.030820334
0.4434973 -0.12926488 0.030639494
0.44471407 -0.12848124 0.030995592
0.44593012 -0.12769966 0.031351712
0.44714555 -0.12692013 0.031707857
0.44926399 -0.12638532 0.032433297
0.4504779 -0.12561098 0.032789525
0.45169112 -0.12483869 0.033145748
0.45200104 -0.12382274 0.033132687
0.45231095 -0.12280679 0.033119626
0.45352292 -0.12203864 0.033475917
0.45383254 -0.12102372 0.033462871
0.45414212 -0.12000881 0.033449821
0.45445174 -0.11899389 0.033436775
0.45566213 -0.11823092 0.033793133
0.45597142 -0.11721703 0.033780098
0.45628071 -0.11620315 0.033767063
0.45659 -0.11518927 0.033754028
0.45689929 -0.11417539 0.033740994
0.45810783 -0.11341862 0.034097437
0.45841682 -0.11240578 0.034084417
0.45872578 -0.11139292 0.034071397
0.45903477 -0.11038008 0.034058373
0.45934373 -0.10936723 0.034045354
0.45965272 -0.10835438 0.03403233
0.45996168 -0.10734154 0.03401931
0.46027067 -0.10632869 0.03400629
0.46057963 -0.10531584 0.033993267
0.46088862 -0.10430299 0.033980247
0.46030149 -0.10302269 0.033597611
0.45971504 -0.10174035 0.03321496
0.45912921 -0.10045593 0.03283228
0.45854402 -0.099169448 0.032449588
0.45795941 -0.097880885 0.032066841
0.45648101 -0.096317664 0.031314425
0.45589805 -0.095023952 0.030931627
0.45531568 -0.09372817 0.030548802
0.45473391 -0.092430301 0.030165941
0.45415282 -0.091130383 0.02978307
0.45357236 -0.089828394 0.029400164
0.45388514 -0.08880315 0.029386984
0.441322 -0.13092954 0.028889082
0.44253969 -0.13014166 0.029246164
0.44375676 -0.12935585 0.029603278
0.44497323 -0.12857212 0.029960422
0.44618905 -0.12779044 0.030317582
0.44740421 -0.12701082 0.030674778
0.44861874 -0.12623328 0.031031985
0.44983265 -0.12545781 0.031389225
0.45104599 -0.12468441 0.03174651
0.45135623 -0.12366743 0.031733435
0.45256856 -0.12289712 0.032090735
0.45378026 -0.12212887 0.032448076
0.45408988 -0.12111396 0.03243503
0.45439947 -0.12009905 0.03242198
0.45470908 -0.11908413 0.032408934
0.45591921 -0.11832105 0.032766331
0.45622849 -0.11730717 0.0327533
0.45653778 -0.11629329 0.032740265
0.45684707 -0.11527941 0.03272723
0.45715636 -0.11426553 0.032714196
0.45836467 -0.11350867 0.033071682
0.45867363 -0.11249582 0.033058662
0.45898262 -0.11148298 0.033045638
0.45929158 -0.11047013 0.033032618
0.45960057 -0.10945728 0.033019599
0.45990953 -0.10844443 0.033006575
0.46021852 -0.10743158 0.032993555
0.46052748 -0.10641874 0.032980531
0.46083644 -0.10540589 0.032967512
0.46114543 -0.10439304 0.032954492
0.46055856 -0.10311284 0.032570813
0.45997238 -0.10183058 0.032187119
0.45938683 -0.10054626 0.031803388
0.4588019 -0.099259868 0.031419646
0.45821753 -0.097971395 0.031035855
0.45673966 -0.09640836 0.030281348
0.45615694 -0.095114738 0.029897498
0.45557487 -0.093819045 0.029513629
0.45499334 -0.092521265 0.029129727
0.45441252 -0.091221444 0.028745798
0.45383233 -0.089919552 0.028361851
0.45414507 -0.0888943 0.028348669
0.45445785 -0.087869048 0.028335489
0.45477059 -0.086843804 0.028322307
0.45539612 -0.084793299 0.028295947
0.45570889 -0.083768055 0.028282765
0.45602164 -0.082742803 0.028269585
0.45544428 -0.081431605 0.027885517
0.44158196 -0.13102069 0.027850775
0.44279939 -0.13023272 0.0282089
0.44401619 -0.12944682 0.028567057
0.44523242 -0.12866299 0.028925251
0.44644794 -0.12788123 0.029283462
0.44766286 -0.12710151 0.029641699
0.44887713 -0.12632388 0.029999951
0.4500908 -0.12554832 0.030358242
0.45130387 -0.12477483 0.030716574
0.45161408 -0.12375785 0.0307035
0.45282617 -0.12298744 0.031061843
0.45403761 -0.12221911 0.031420227
0.45434722 -0.12120419 0.031407177
0.4555577 -0.12043896 0.031765603
0.45586699 -0.11942507 0.031752568
0.45617628 -0.1184112 0.031739533
0.45648557 -0.11739732 0.031726498
0.45679486 -0.11638343 0.031713463
0.45710415 -0.11536955 0.031700429
0.45741343 -0.11435567 0.031687394
0.45862147 -0.11359872 0.032045934
0.45893043 -0.11258587 0.032032911
0.45923942 -0.11157303 0.032019891
0.45954838 -0.11056018 0.032006871
0.45985737 -0.10954733 0.031993847
0.46016634 -0.10853449 0.031980827
0.46047533 -0.10752164 0.031967804
0.46078429 -0.10650878 0.031954784
0.46109328 -0.10549594 0.031941764
0.46140224 -0.10448309 0.03192874
0.46081564 -0.10320298 0.031544015
0.46022972 -0.10192081 0.031159269
0.45964441 -0.10063659 0.030774496
0.45905975 -0.099350281 0.030389711
0.45847568 -0.098061904 0.03000487
0.45699832 -0.096499056 0.029248269
0.45641586 -0.095205523 0.028863378
0.45583403 -0.093909919 0.028478459
0.4552528 -0.092612237 0.028093506
0.45467222 -0.091312505 0.027708534
0.45409229 -0.090010703 0.027323544
0.45440504 -0.088985451 0.027310362
0.45471781 -0.087960199 0.027297182
0.45503056 -0.086934954 0.027284
0.45534331 -0.085909702 0.02727082
0.45565608 -0.08488445 0.02725764
0.45596883 -0.083859205 0.027244458
0.4562816 -0.082833953 0.027231278
0.45659435 -0.081808701 0.027218096
0.45690712 -0.080783457 0.027204916
0.44062412 -0.13190198 0.026453312
0.44184193 -0.13111185 0.02681246
0.44305909 -0.13032378 0.027171636
0.44427562 -0.12953778 0.027530843
0.44549158 -0.12875387 0.027890079
0.44670686 -0.12797201 0.028249335
0.44792151 -0.12719221 0.028608622
0.44913551 -0.12641448 0.028967923
0.45034891 -0.12563883 0.029327257
0.45156172 -0.12486524 0.029686632
0.45187196 -0.12384826 0.029673558
0.45308375 -0.12307777 0.030032959
0.45429495 -0.12230934 0.030392386
0.45460454 -0.12129442 0.030379336
0.45581478 -0.1205291 0.030738804
0.45612407 -0.11951522 0.03072577
0.45643336 -0.11850134 0.030712735
0.45674264 -0.11748745 0.0306997
0.45705193 -0.11647357 0.030686665
0.45736122 -0.1154597 0.030673631
0.45767051 -0.11444581 0.030660596
0.45887828 -0.11368877 0.031020178
0.45918727 -0.11267592 0.031007156
0.45949623 -0.11166307 0.030994134
0.45980522 -0.11065023 0.030981114
0.46011418 -0.10963738 0.030968092
0.46042317 -0.10862453 0.030955071
0.46073213 -0.10761169 0.030942049
0.46104112 -0.10659884 0.030929029
0.46135008 -0.10558599 0.030916007
0.46165907 -0.10457315 0.030902985
0.46107271 -0.10329312 0.030517215
0.46048704 -0.10201105 0.030131426
0.45990202 -0.10072691 0.02974561
0.45931762 -0.099440701 0.029359769
0.4587338 -0.098152414 0.028973887
0.45725697 -0.096589744 0.02821519
0.45667478 -0.095296308 0.027829248
0.45609322 -0.094000794 0.027443288
0.45551223 -0.092703208 0.027057292
0.45493191 -0.091403559 0.02667127
0.45524436 -0.090379342 0.026658103
0.45555681 -0.089355133 0.026644934
0.45586926 -0.08833091 0.026631767
0.4561817 -0.087306701 0.0266186
0.45649412 -0.086282484 0.026605433
0.45680657 -0.085258268 0.026592264
0.45711902 -0.084234051 0.026579097
0.45743147 -0.083209835 0.02656593
0.45774391 -0.082185619 0.026552763
0.45805636 -0.081161402 0.026539594
0.45836878 -0.080137186 0.026526427
0.43966618 -0.13278551 0.02505379
0.44088435 -0.13199322 0.025413955
0.44210187 -0.131203 0.025774145
0.44331878 -0.13041484 0.02613437
0.44453505 -0.12962875 0.026494622
0.44575077 -0.12884475 0.026854908
0.44696578 -0.12806278 0.027215213
0.44818017 -0.1272829 0.027575543
0.44939393 -0.12650508 0.027935887
0.45060703 -0.12572934 0.028296271
0.45181957 -0.12495566 0.028656697
0.45212981 -0.12393868 0.028643623
0.45334136 -0.12316809 0.029004065
0.45455229 -0.12239958 0.029364536
0.45486188 -0.12138466 0.029351488
0.45607185 -0.12061924 0.029712005
0.45638114 -0.11960536 0.02969897
0.45669043 -0.11859148 0.029685937
0.45699972 -0.1175776 0.029672902
0.45730901 -0.11656372 0.029659867
0.4576183 -0.11554983 0.029646832
0.45792761 -0.11453595 0.029633798
0.45913512 -0.11377882 0.029994428
0.45944408 -0.11276597 0.029981408
0.45975307 -0.11175312 0.029968387
0.46006203 -0.11074027 0.029955365
0.46037102 -0.10972743 0.029942343
0.46067998 -0.10871458 0.029929321
0.46098894 -0.10770173 0.029916301
0.46129793 -0.10668889 0.02990328
0.46160689 -0.10567604 0.029890258
0.46191588 -0.10466319 0.029877236
0.46132979 -0.10338326 0.029490417
0.46074438 -0.10210128 0.029103577
0.46015963 -0.10081723 0.028716719
0.45957547 -0.099531122 0.028329834
0.45899191 -0.098242924 0.027942901
0.45840904 -0.096952669 0.027555956
0.45782679 -0.095660359 0.027168998
0.45724517 -0.094365977 0.026782
0.4566642 -0.093069524 0.026394974
0.45608377 -0.091770992 0.026007917
0.45639592 -0.090747811 0.025994761
0.45581651 -0.089446187 0.02560767
0.45612895 -0.088421971 0.025594503
0.4564414 -0.087397754 0.025581336
0.45675382 -0.086373538 0.025568169
0.45706627 -0.085349321 0.025555
0.45737872 -0.084325105 0.025541833
0.45858079 -0.083585531 0.025902683
0.45889294 -0.082562342 0.025889527
0.45831606 -0.081252456 0.02550233
0.45862851 -0.080228247 0.025489163
0.43929988 -0.13493147 0.024039797
0.43961328 -0.13390416 0.024026589
0.43992665 -0.13287684 0.024013383
0.44114456 -0.13208446 0.024374591
0.44236183 -0.13129415 0.024735838
0.44357848 -0.1305059 0.025097106
0.44479451 -0.12971972 0.025458409
0.44600993 -0.12893562 0.025819737
0.44722468 -0.12815358 0.026181085
0.44843882 -0.12737359 0.026542459
0.44965231 -0.12659568 0.026903858
0.45086515 -0.12581985 0.027265286
0.45207745 -0.12504607 0.027626755
0.45238769 -0.12402909 0.027613681
0.45359898 -0.12325842 0.027975174
0.45480964 -0.12248981 0.028336694
0.45511922 -0.12147489 0.028323647
0.45632893 -0.12070938 0.028685207
0.45663822 -0.1196955 0.028672172
0.45694751 -0.11868162 0.028659137
0.45725679 -0.11766773 0.028646102
0.45756611 -0.11665386 0.028633067
0.4578754 -0.11563998 0.028620033
0.45818469 -0.11462609 0.028606998
0.45939192 -0.11386887 0.028968681
0.45970088 -0.11285602 0.028955659
0.46000987 -0.11184318 0.028942637
0.46031883 -0.11083033 0.028929615
0.46062782 -0.10981748 0.028916596
0.46093678 -0.10880463 0.028903574
0.46124578 -0.10779178 0.028890552
0.46155474 -0.10677893 0.02887753
0.46186373 -0.10576609 0.028864508
0.46217269 -0.10475324 0.028851489
0.46248168 -0.10374039 0.028838467
0.46189615 -0.10245952 0.028450582
0.46131134 -0.1011766 0.028062688
0.46072716 -0.09989161 0.027674766
0.4601436 -0.098604552 0.027286818
0.4595606 -0.097315416 0.026898827
0.4589783 -0.096024223 0.026510827
0.45839664 -0.094730966 0.026122799
0.45781559 -0.093435645 0.025734745
0.45723519 -0.092138253 0.025346663
0.45754701 -0.091116101 0.025333522
0.45696747 -0.089815594 0.024945393
0.45727959 -0.088792406 0.024932239
0.45759174 -0.087769225 0.024919085
0.45790386 -0.086746044 0.024905931
0.45821598 -0.085722864 0.024892777
0.4585281 -0.084699675 0.024879621
0.45884025 -0.083676495 0.024866467
0.45915237 -0.082653314 0.024853313
0.46035331 -0.081916757 0.025215253
0.46066511 -0.080894612 0.025202112
0.43802771 -0.13684776 0.022650391
0.43834141 -0.13581941 0.02263717
0.43956035 -0.13502282 0.022999397
0.43987375 -0.1339955 0.02298619
0.44018716 -0.13296819 0.022972982
0.44140479 -0.13217571 0.023335233
0.4426218 -0.1313853 0.023697523
0.44383818 -0.13059697 0.024059841
0.44505394 -0.12981069 0.024422187
0.44626912 -0.1290265 0.024784565
0.4474836 -0.12824436 0.025146963
0.44869745 -0.12746429 0.02550938
0.4499107 -0.12668629 0.025871824
0.4511233 -0.12591034 0.026234301
0.4523353 -0.12513649 0.02659682
0.45264554 -0.12411951 0.026583746
0.45385656 -0.12334874 0.026946282
0.45506695 -0.12258004 0.027308851
0.45537657 -0.12156513 0.027295804
0.456586 -0.12079952 0.027658414
0.45689529 -0.11978564 0.027645379
0.45720458 -0.11877176 0.027632345
0.4575139 -0.11775788 0.027619312
0.45782319 -0.116744 0.027606277
0.45813248 -0.11573011 0.027593242
0.45844176 -0.11471624 0.027580207
0.45964873 -0.11395892 0.027942924
0.45995772 -0.11294607 0.027929902
0.46026668 -0.11193322 0.027916882
0.46057567 -0.11092038 0.02790386
0.46088463 -0.10990753 0.027890839
0.46119362 -0.10889468 0.027877817
0.46150258 -0.10788183 0.027864795
0.46181157 -0.10686898 0.027851775
0.46212053 -0.10585614 0.027838754
0.46242952 -0.10484329 0.027825732
0.46273848 -0.10383044 0.02781271
0.46304747 -0.1028176 0.027799688
0.46246251 -0.10153578 0.027410757
0.46187827 -0.10025192 0.027021797
0.46129468 -0.098965988 0.026632814
0.46071169 -0.097677991 0.026243808
0.46012929 -0.096387908 0.025854755
0.45954755 -0.095095776 0.02546569
0.45896646 -0.093801573 0.025076605
0.458386 -0.092505313 0.024687495
0.4586975 -0.091484196 0.024674367
0.45811799 -0.09018483 0.02428521
0.45842978 -0.089162678 0.024272069
0.45874161 -0.088140532 0.024258928
0.45905343 -0.08711838 0.024245787
0.45936522 -0.086096227 0.024232646
0.45967704 -0.085074082 0.024219505
0.45998886 -0.084051937 0.024206365
0.46030065 -0.083029784 0.024193224
0.46061248 -0.082007639 0.024180083
0.4609243 -0.080985487 0.024166942
0.43828845 -0.13693918 0.021608934
0.43860215 -0.13591084 0.021595713
0.43891585 -0.13488248 0.021582492
0.44013423 -0.13408683 0.021945782
0.44044763 -0.13305952 0.021932576
0.44166502 -0.13226695 0.022295875
0.44288176 -0.13147645 0.022659216
0.44409788 -0.13068803 0.02302257
0.44531336 -0.12990166 0.023385964
0.44652829 -0.12911738 0.023749394
0.44774252 -0.12833515 0.024112836
0.4489561 -0.12755498 0.024476303
0.45016909 -0.12677689 0.024839796
0.45138142 -0.12600085 0.025203316
0.45259318 -0.12522691 0.025566885
0.45290342 -0.12420993 0.025553811
0.45411417 -0.12343907 0.02591739
0.45532429 -0.12267027 0.026281003
0.45653379 -0.12190355 0.026644651
0.45684308 -0.12088966 0.026631616
0.4571524 -0.11987578 0.026618581
0.45836067 -0.11911321 0.026982281
0.45866966 -0.11810036 0.026969261
0.45897862 -0.11708751 0.02695624
0.45928761 -0.11607467 0.026943218
0.45959657 -0.11506181 0.026930196
0.45990556 -0.11404897 0.026917174
0.46021453 -0.11303612 0.026904155
0.46052352 -0.11202327 0.026891133
0.46083248 -0.11101042 0.026878111
0.46114144 -0.10999758 0.026865089
0.46145043 -0.10898473 0.026852068
0.46175939 -0.10797188 0.026839048
0.46206838 -0.10695904 0.026826026
0.46237734 -0.10594619 0.026813004
0.46268633 -0.10493334 0.026799982
0.46299529 -0.10392049 0.026786963
0.46330428 -0.10290764 0.026773941
0.46361324 -0.1018948 0.026760919
0.46302891 -0.10061204 0.026370922
0.46244523 -0.099327236 0.025980901
0.46186221 -0.098040365 0.025590859
0.46127978 -0.096751422 0.025200799
0.46069795 -0.0954604 0.024810683
0.4601168 -0.094167329 0.024420561
0.45953628 -0.092872187 0.024030413
0.45984748 -0.091852106 0.024017299
0.45926791 -0.090553865 0.023627112
0.45957941 -0.089532748 0.023613984
0.4598909 -0.088511631 0.023600856
0.4602024 -0.087490514 0.02358773
0.46051389 -0.086469404 0.023574602
0.46082538 -0.085448287 0.023561474
0.46113688 -0.08442717 0.023548346
0.4614484 -0.083406053 0.023535218
0.4617599 -0.082384937 0.02352209
0.46207139 -0.081363827 0.023508962
0.43823549 -0.13805896 0.020580703
0.43854919 -0.13703062 0.020567482
0.43886289 -0.13600226 0.020554263
0.43917662 -0.13497391 0.020541042
0.44039473 -0.13417816 0.020905383
0.4407081 -0.13315086 0.020892175
0.44192523 -0.13235819 0.021256525
0.44314173 -0.1315676 0.021620903
0.44435757 -0.13077909 0.021985305
0.44557279 -0.12999262 0.022349751
0.44678745 -0.12920825 0.022714224
0.44800141 -0.12842593 0.023078706
0.44921476 -0.12764567 0.023443231
0.45042747 -0.12686749 0.023807768
0.45163953 -0.12609136 0.02417233
0.45285103 -0.12531732 0.024536951
0.45316127 -0.12430035 0.024523875
0.45437178 -0.1235294 0.024888491
0.45558164 -0.1227605 0.025253162
0.45679089 -0.12199368 0.025617851
0.45710018 -0.1209798 0.025604816
0.45740947 -0.11996593 0.025591781
0.45861748 -0.11920325 0.025956534
0.45892647 -0.11819041 0.025943512
0.45923543 -0.11717756 0.02593049
0.45954442 -0.11616471 0.025917469
0.45985338 -0.11515187 0.025904449
0.46105948 -0.11439538 0.02626927
0.46136814 -0.11338357 0.026256263
0.46167681 -0.11237175 0.026243255
0.46198547 -0.11135994 0.026230246
0.4622941 -0.11034812 0.026217239
0.46260276 -0.10933631 0.02620423
0.46291143 -0.1083245 0.026191222
0.46322009 -0.10731268 0.026178215
0.46352875 -0.10630087 0.026165206
0.46383741 -0.10528906 0.026152197
0.46325213 -0.10401054 0.025761213
0.46356109 -0.10299769 0.025748191
0.46387008 -0.10198484 0.02573517
0.46328598 -0.10070218 0.025344124
0.46359527 -0.099688299 0.025331089
0.46301219 -0.098402552 0.024940012
0.46242973 -0.097114742 0.024548899
0.46184787 -0.09582486 0.02415779
0.46126664 -0.094532892 0.023766609
0.46068606 -0.093238883 0.023375433
0.46010613 -0.091942795 0.022984229
0.4604173 -0.090922713 0.022971114
0.4607285 -0.089902632 0.022957999
0.46103966 -0.088882551 0.022944884
0.46135086 -0.087862469 0.022931771
0.46166202 -0.086842388 0.022918656
0.46197322 -0.085822307 0.022905542
0.46228439 -0.084802218 0.022892429
0.46259558 -0.083782136 0.022879314
0.46201879 -0.082475722 0.022487963
0.46233028 -0.081454605 0.022474835
0.43849623 -0.13815039 0.019539254
0.43880993 -0.13712204 0.019526033
0.43912366 -0.13609369 0.019512812
0.43943736 -0.13506535 0.019499591
0.4406552 -0.13426951 0.019864967
0.44187239 -0.13347572 0.020230355
0.44218546 -0.13244943 0.02021716
0.44340169 -0.13165876 0.020582588
0.44461727 -0.13087015 0.020948041
0.44583225 -0.13008359 0.021313537
0.44704664 -0.12929913 0.021679044
0.44826034 -0.12851672 0.022044592
0.44947341 -0.12773636 0.022410152
0.45068586 -0.12695809 0.022775725
0.45189768 -0.12618187 0.023141352
0.45310891 -0.12540774 0.023507008
0.45341915 -0.12439076 0.023493933
0.45462939 -0.12361972 0.023859613
0.45583898 -0.12285074 0.024225319
0.45704797 -0.12208383 0.024591053
0.45735726 -0.12106995 0.024578018
0.45856532 -0.12030615 0.024943806
0.45887432 -0.1192933 0.024930784
0.45918328 -0.11828046 0.024917763
0.45949227 -0.11726761 0.024904741
0.45980123 -0.11625476 0.024891721
0.46011022 -0.11524191 0.024878699
0.46131602 -0.11448534 0.025244566
0.46162468 -0.11347353 0.025231557
0.46193334 -0.11246171 0.025218548
0.46224201 -0.1114499 0.025205541
0.46255067 -0.11043808 0.025192533
0.46285933 -0.10942627 0.025179524
0.463168 -0.10841446 0.025166517
0.46347666 -0.10740264 0.025153508
0.46378532 -0.10639083 0.0251405
0.46409395 -0.10537901 0.025127493
0.46440262 -0.1043672 0.025114484
0.46381789 -0.10308775 0.024722442
0.46412688 -0.1020749 0.024709422
0.46443585 -0.10106204 0.0246964
0.46385235 -0.099778444 0.024304291
0.46416163 -0.098764561 0.024291256
0.46357912 -0.097477876 0.023899121
0.46299723 -0.096189119 0.02350696
0.46241599 -0.094898291 0.023114773
0.46183529 -0.093605392 0.022722544
0.46214586 -0.092587374 0.022709455
0.46156618 -0.091291383 0.022317188
0.46187705 -0.090272337 0.022304086
0.46218792 -0.089253284 0.022290986
0.46249878 -0.088234238 0.022277884
0.46280965 -0.087215193 0.022264782
0.46312052 -0.086196139 0.022251682
0.46254304 -0.084892914 0.02185935
0.46285424 -0.083872832 0.021846235
0.46227771 -0.082566507 0.021453848
0.4625892 -0.08154539 0.02144072
0.43875697 -0.13824183 0.018497802
0.4390707 -0.13721347 0.018484581
0.4393844 -0.13618512 0.018471362
0.4396981 -0.13515677 0.018458141
0.4409157 -0.13436083 0.018824566
0.44213262 -0.13356698 0.019190989
0.44334888 -0.13277516 0.019557454
0.44366166 -0.13174991 0.019544274
0.44487697 -0.13096121 0.019910777
0.44609168 -0.13017456 0.020277308
0.4473058 -0.12939 0.020643881
0.44851926 -0.1286075 0.021010464
0.44973207 -0.12782706 0.021377075
0.45094424 -0.12704869 0.021743696
0.4521558 -0.12627238 0.02211036
0.45336676 -0.12549816 0.022477066
0.453677 -0.12448118 0.02246399
0.45488697 -0.12371004 0.022830721
0.45609632 -0.12294097 0.023197478
0.45730504 -0.12217396 0.02356426
0.45761433 -0.12116008 0.023551226
0.45882216 -0.1203962 0.023918049
0.45913112 -0.11938335 0.023905028
0.45944011 -0.1183705 0.023892008
0.45974907 -0.11735766 0.023878986
0.46005806 -0.11634481 0.023865964
0.46036702 -0.11533196 0.023852943
0.46157259 -0.1145753 0.024219859
0.46188125 -0.11356348 0.024206851
0.46218991 -0.11255167 0.024193842
0.46249858 -0.11153986 0.024180835
0.46280724 -0.11052804 0.024167826
0.46311587 -0.10951623 0.02415482
0.46342453 -0.10850441 0.024141811
0.4637332 -0.1074926 0.024128802
0.46404186 -0.10648078 0.024115795
0.46435052 -0.10546897 0.024102787
0.46465918 -0.10445715 0.024089778
0.46407473 -0.10317779 0.023696687
0.46438369 -0.10216495 0.023683665
0.46469268 -0.1011521 0.023670644
0.46500164 -0.10013925 0.023657624
0.46441871 -0.098854706 0.023264464
0.464728 -0.097840823 0.023251429
0.46414608 -0.096553192 0.022858232
0.46356475 -0.095263496 0.022465007
0.46298409 -0.093971729 0.022071756
0.46329433 -0.092954747 0.022058683
0.46271455 -0.091659866 0.021665376
0.46302509 -0.090641849 0.021652289
0.46333563 -0.089623839 0.0216392
0.4636462 -0.088605821 0.021626113
0.46306804 -0.087305792 0.021232756
0.46337891 -0.086286739 0.021219654
0.46280169 -0.08498361 0.020826271
0.46311289 -0.083963521 0.020813158
0.46342406 -0.082943439 0.020800043
0.46373525 -0.081923358 0.020786928
0.43901774 -0.13833325 0.017456353
0.43933144 -0.1373049 0.017443132
0.43964514 -0.13627654 0.017429911
0.43995884 -0.1352482 0.01741669
0.44117618 -0.13445218 0.017784167
0.44239283 -0.13365822 0.018151639
0.44360885 -0.13286631 0.018519154
0.44482425 -0.13207647 0.01888668
0.44603899 -0.13128871 0.019254249
0.44635111 -0.13026553 0.019241095
0.44756499 -0.12948088 0.019608703
0.44877815 -0.12869829 0.019976337
0.44999072 -0.12791775 0.020343997
0.45120263 -0.12713929 0.02071167
0.45241392 -0.12636289 0.021079382
0.45362464 -0.12558858 0.021447124
0.45393488 -0.1245716 0.02143405
0.45514458 -0.12380037 0.021801829
0.45635366 -0.12303121 0.022169622
0.45756212 -0.12226411 0.022537455
0.45787141 -0.12125023 0.02252442
0.45907897 -0.12048625 0.022892294
0.45938793 -0.11947341 0.022879273
0.45969692 -0.11846056 0.022866251
0.46000588 -0.11744771 0.022853229
0.46031487 -0.11643486 0.022840209
0.46062383 -0.11542201 0.022827188
0.46182913 -0.11466525 0.023195153
0.46213779 -0.11365344 0.023182144
0.46244645 -0.11264163 0.023169138
0.46275511 -0.11162981 0.023156129
0.46306378 -0.110618 0.02314312
0.46337244 -0.10960618 0.023130113
0.4636811 -0.10859437 0.023117105
0.46398976 -0.10758255 0.023104096
0.46429843 -0.10657074 0.023091089
0.46460709 -0.10555892 0.02307808
0.46491572 -0.10454711 0.023065073
0.46433154 -0.10326784 0.02267093
0.46464053 -0.10225499 0.02265791
0.46494949 -0.10124215 0.022644889
0.46525848 -0.1002293 0.022631867
0.46556744 -0.099216454 0.022618845
0.46498507 -0.09793096 0.022224624
0.46529436 -0.096917085 0.022211589
0.46471301 -0.095628507 0.021817327
0.46413228 -0.094337873 0.021423055
0.46444219 -0.093321919 0.021409992
0.46386242 -0.092028186 0.021015665
0.46417266 -0.091011204 0.021002591
0.4644829 -0.089994222 0.020989517
0.46479315 -0.08897724 0.020976441
0.46421486 -0.087678313 0.020582046
0.46363729 -0.086377345 0.020187626
0.46306035 -0.085074298 0.019793194
0.46337155 -0.084054217 0.019780079
0.46368271 -0.083034135 0.019766964
0.46399391 -0.082014054 0.019753851
0.4201732 -0.1403788 0.0092439689
0.42049289 -0.13933082 0.0092304964
0.42081258 -0.13828284 0.0092170229
0.42837656 -0.13903479 0.012256606
0.43140939 -0.13867317 0.013388196
0.43625012 -0.13877185 0.015283154
0.43837392 -0.13819659 0.016033223
0.43868792 -0.1371672 0.016019989
0.43990588 -0.13636798 0.016388461
0.44021958 -0.13533962 0.01637524
0.44143668 -0.13454351 0.016743751
0.44265306 -0.13374946 0.017112276
0.44386882 -0.13295746 0.017480839
0.44508395 -0.13216753 0.017849416
0.44629842 -0.13137968 0.018218033
0.44661054 -0.13035649 0.018204879
0.44782415 -0.12957177 0.018573537
0.44903708 -0.12878907 0.018942207
0.45024937 -0.12800844 0.019310918
0.45146102 -0.12722988 0.019679641
0.45267203 -0.1264534 0.020048391
0.45388249 -0.125679 0.020417197
0.45419273 -0.12466201 0.020404121
0.4554022 -0.12389069 0.020772938
0.45661101 -0.12312144 0.021141779
0.45781919 -0.12235425 0.021510663
0.45812848 -0.12134037 0.021497628
0.45933577 -0.1205763 0.021866553
0.45964476 -0.11956345 0.021853531
0.45995373 -0.11855061 0.021840509
0.46026272 -0.11753776 0.021827487
0.46057168 -0.11652491 0.021814467
0.46088067 -0.11551207 0.021801446
0.46208569 -0.11475521 0.022170447
0.46239436 -0.11374339 0.02215744
0.46270302 -0.11273158 0.022144431
0.46301168 -0.11171976 0.022131423
0.46332034 -0.11070795 0.022118416
0.46362898 -0.10969614 0.022105407
0.46393764 -0.10868432 0.022092398
0.4642463 -0.10767251 0.022079391
0.46455497 -0.1066607 0.022066383
0.46486363 -0.10564888 0.022053374
0.46517229 -0.10463707 0.022040367
0.46458834 -0.10335789 0.02164519
0.46489733 -0.10234504 0.021632168
0.4652063 -0.1013322 0.021619147
0.46551529 -0.10031935 0.021606125
0.46582425 -0.099306501 0.021593103
0.46613324 -0.098293655 0.021580083
0.4664422 -0.097280808 0.021567062
0.46586072 -0.09599334 0.021171762
0.46527997 -0.094703831 0.020776438
0.46558955 -0.093688913 0.02076339
0.46500972 -0.092396297 0.02036804
0.46531963 -0.09138035 0.020354979
0.46562958 -0.090364404 0.020341918
0.465051 -0.089067653 0.019946514
0.46447301 -0.087768823 0.019551054
0.46389568 -0.086467944 0.019155597
0.463319 -0.085164994 0.018760115
0.46363017 -0.084144913 0.018747
0.46305445 -0.082838863 0.018351464
0.46336594 -0.081817746 0.018338336
0.42043892 -0.14047198 0.0081826234
0.42075861 -0.139424 0.0081691509
0.42470071 -0.1392715 0.0096863676
0.42864016 -0.13912724 0.011203647
0.43167222 -0.13876534 0.012338359
0.43651164 -0.13886356 0.014238568
0.43773061 -0.13806011 0.014608022
0.43894893 -0.13725872 0.014977488
0.44016662 -0.1364594 0.01534701
0.44048035 -0.13543105 0.015333789
0.44169715 -0.13463485 0.015703352
0.44291326 -0.1338407 0.016072925
0.44412878 -0.13304861 0.016442524
0.44534364 -0.13225859 0.016812151
0.44655785 -0.13147065 0.017181819
0.44687 -0.13044746 0.017168665
0.44808334 -0.12966263 0.017538359
0.449296 -0.12887986 0.01790808
0.450508 -0.12809914 0.018277841
0.4517194 -0.12732048 0.018647598
0.45293018 -0.12654391 0.019017413
0.45414037 -0.12576941 0.019387254
0.45445061 -0.12475243 0.019374179
0.45565978 -0.12398101 0.019744046
0.45686835 -0.12321167 0.020113938
0.45807627 -0.12244439 0.020483857
0.45838556 -0.12143051 0.020470822
0.45959261 -0.12066635 0.020840796
0.45990157 -0.1196535 0.020827776
0.46021056 -0.11864065 0.020814754
0.46051952 -0.11762781 0.020801732
0.46082851 -0.11661496 0.020788711
0.46113747 -0.11560211 0.020775689
0.46234226 -0.11484517 0.021145742
0.4626509 -0.11383335 0.021132734
0.46295956 -0.11282154 0.021119725
0.46326822 -0.11180972 0.021106718
0.46357688 -0.11079791 0.021093709
0.46388555 -0.1097861 0.021080701
0.46419421 -0.10877428 0.021067694
0.46450287 -0.10776247 0.021054685
0.46481153 -0.10675065 0.021041676
0.4651202 -0.10573884 0.02102867
0.46542883 -0.10472703 0.021015661
0.46484518 -0.10344794 0.020619433
0.46515414 -0.10243509 0.020606412
0.46546313 -0.10142224 0.02059339
0.46577209 -0.1004094 0.02058037
0.46608108 -0.099396549 0.020567348
0.46639004 -0.098383702 0.020554326
0.46669903 -0.097370856 0.020541305
0.46700799 -0.096358009 0.020528283
0.46642712 -0.095069602 0.020131921
0.46673641 -0.09405572 0.020118887
0.46615651 -0.092764236 0.019722501
0.4664661 -0.091749318 0.019709451
0.46588716 -0.090454727 0.019313024
0.46530885 -0.089158073 0.018916572
0.46473113 -0.087859333 0.018520076
0.46415406 -0.086558543 0.018123556
0.46357766 -0.085255682 0.017727036
0.46388882 -0.084235601 0.017713923
0.46331337 -0.082929648 0.017317334
0.46362486 -0.081908531 0.017304208
0.45950618 -0.079447687 0.015373639
0.45981926 -0.078421399 0.015360445
0.41740182 -0.13862622 0.0055730264
0.42496538 -0.1393643 0.0086292084
0.42799875 -0.13899486 0.0097669475
0.43103033 -0.13863164 0.010904782
0.43677318 -0.13895527 0.013193967
0.43708783 -0.13792381 0.013180707
0.43920994 -0.13735023 0.013935002
0.44042739 -0.13655083 0.014305559
0.44074109 -0.13552248 0.014292339
0.44195762 -0.13472618 0.014662951
0.4431735 -0.13393195 0.015033561
0.44438872 -0.13313977 0.01540421
0.44560334 -0.13234966 0.015774887
0.44681731 -0.13156162 0.016145591
0.44712943 -0.13053843 0.016132437
0.4483425 -0.12975352 0.016503196
0.44955489 -0.12897064 0.016873965
0.45076665 -0.12818983 0.017244762
0.45197779 -0.1274111 0.01761557
0.4531883 -0.12663442 0.017986421
0.45439821 -0.12585983 0.018357312
0.45470846 -0.12484284 0.018344237
0.45591739 -0.12407134 0.018715153
0.45712569 -0.1233019 0.019086096
0.45833334 -0.12253453 0.019457065
0.45864263 -0.12152065 0.01944403
0.45984942 -0.1207564 0.019815041
0.46015838 -0.11974355 0.019802019
0.46046737 -0.1187307 0.019788997
0.46077633 -0.11771785 0.019775975
0.46108532 -0.11670501 0.019762956
0.46139428 -0.11569216 0.019749934
0.4625988 -0.11493512 0.020121036
0.46290746 -0.11392331 0.020108027
0.46321613 -0.1129115 0.020095019
0.46352479 -0.11189968 0.020082012
0.46383345 -0.11088787 0.020069003
0.46414211 -0.10987605 0.020055996
0.46445075 -0.10886424 0.020042988
0.46475941 -0.10785243 0.020029979
