# .PCD v0.7 - Point Cloud Data file format
VERSION 0.7
FIELDS x y z
SIZE 4 4 4
TYPE F F F
COUNT 1 1 1
WIDTH 1415
HEIGHT 1
VIEWPOINT 0 0 0 1 0 0 0
POINTS 1415
DATA ascii
0.55944771 0.10113148 0.023642579
0.55904502 0.10062097 0.023622135
0.55864239 0.10011046 0.023601692
0.55753046 0.1001242 0.02405428
0.55712849 0.099614523 0.024033871
0.55672646 0.099104859 0.024013462
0.55632448 0.098595195 0.023993051
0.55592251 0.09808553 0.023972642
0.55552053 0.097575866 0.023952231
0.55511856 0.097066201 0.023931822
0.55401188 0.097086743 0.024384707
0.55361056 0.096577927 0.024364332
0.59213734 0.1288006 0.019625114
0.59172797 0.12828162 0.019604333
0.59131867 0.12776265 0.019583549
0.5909093 0.12724367 0.019562768
0.58974969 0.12719615 0.020013893
0.58859128 0.12715034 0.020465109
0.58818328 0.12663305 0.020444395
0.58702701 0.12658976 0.020895684
0.58587199 0.12654816 0.021347044
0.58471835 0.12650824 0.021798475
0.58356601 0.12647003 0.022249972
0.58241504 0.12643354 0.022701561
0.58126539 0.1263987 0.023153191
0.58011705 0.12636557 0.023604892
0.57897007 0.12633412 0.02405666
0.57856745 0.12582362 0.024036217
0.5774225 0.12579471 0.024488086
0.57702047 0.12528503 0.024467675
0.57587749 0.1252587 0.02491967
0.57547617 0.12474989 0.024899295
0.57433522 0.12472606 0.025351368
0.57393456 0.12421809 0.025331026
0.57353389 0.12371012 0.025310684
0.57313323 0.12320215 0.025290342
0.57199562 0.12318256 0.025742585
0.57085931 0.12316466 0.026194895
0.57046002 0.12265838 0.02617462
0.57006073 0.1221521 0.026154345
0.56966138 0.12164582 0.026134072
0.56926209 0.12113954 0.026113797
0.56886274 0.12063327 0.026093524
0.56846344 0.12012699 0.026073249
0.56806415 0.1196207 0.026052974
0.5676648 0.11911443 0.026032701
0.56726551 0.11860815 0.026012426
0.56686622 0.11810187 0.025992153
0.56646687 0.11759559 0.025971878
0.56606758 0.11708931 0.025951603
0.56566823 0.11658303 0.02593133
0.56526893 0.11607675 0.025911056
0.5641433 0.11607243 0.026363933
0.56374466 0.115567 0.026343694
0.56334597 0.11506157 0.026323453
0.56294733 0.11455614 0.026303213
0.5625487 0.11405071 0.026282972
0.56215006 0.11354528 0.026262732
0.56175143 0.11303984 0.026242491
0.56207442 0.11202653 0.025748862
0.56167513 0.11152025 0.025728587
0.5619961 0.11050442 0.025234882
0.5623157 0.1094869 0.024741109
0.56191504 0.10897893 0.024720768
0.56223267 0.10795888 0.024226891
0.562549 0.10693709 0.023732923
0.56214702 0.10642742 0.023712514
0.56174505 0.10591776 0.023692103
0.56134307 0.10540809 0.023671694
0.5609411 0.10489843 0.023651283
0.56053907 0.10438877 0.023630874
0.56013709 0.1038791 0.023610465
0.55973512 0.10336944 0.023590054
0.55933315 0.10285977 0.023569645
0.55893117 0.1023501 0.023549234
0.55852914 0.10184044 0.023528825
0.55812716 0.10133077 0.023508415
0.55772519 0.10082111 0.023488006
0.55732322 0.10031144 0.023467597
0.55692124 0.099801779 0.023447186
0.55651927 0.099292114 0.023426777
0.55611724 0.098782443 0.023406366
0.55571526 0.098272778 0.023385957
0.55531329 0.097763114 0.023365546
0.55491132 0.097253449 0.023345137
0.55380499 0.097273685 0.023798997
0.55340368 0.096764863 0.023778621
0.55300236 0.096256047 0.023758244
0.59192628 0.12899128 0.01902771
0.59151697 0.1284723 0.019006927
0.59110767 0.12795332 0.018986145
0.5906983 0.12743434 0.018965362
0.590289 0.12691537 0.01894458
0.58913034 0.12686837 0.019396711
0.587973 0.1268231 0.019848937
0.58681703 0.1267795 0.020301204
0.58566236 0.12673758 0.02075354
0.58450907 0.12669736 0.021205945
0.5833571 0.12665883 0.021658415
0.58220643 0.12662202 0.02211098
0.58105713 0.12658688 0.022563584
0.58065313 0.12607469 0.022543073
0.5795058 0.12604208 0.022995781
0.57835984 0.12601118 0.023448557
0.57721525 0.12598196 0.023901401
0.57681322 0.12547229 0.023880992
0.5756706 0.12544565 0.024333959
0.57526928 0.12493683 0.024313584
0.57412863 0.12491269 0.024766631
0.57372802 0.12440471 0.024746289
0.57332736 0.12389675 0.024725948
0.5729267 0.12338877 0.024705606
0.57178944 0.12336887 0.025158823
0.5706535 0.12335066 0.025612107
0.57025415 0.12284438 0.025591834
0.56985486 0.1223381 0.025571559
0.5694555 0.12183183 0.025551284
0.56905621 0.12132555 0.025531011
0.56865692 0.12081927 0.025510736
0.56825757 0.12031299 0.025490463
0.56785828 0.11980671 0.025470188
0.56745899 0.11930043 0.025449913
0.56705964 0.11879415 0.02542964
0.56666034 0.11828788 0.025409365
0.56626099 0.11778159 0.025389092
0.5658617 0.11727532 0.025368817
0.56546241 0.11676904 0.025348542
0.56506306 0.11626276 0.025328269
0.56393778 0.11625813 0.025782121
0.56353915 0.1157527 0.025761882
0.56314051 0.11524726 0.02574164
0.56274182 0.11474183 0.025721401
0.56234318 0.1142364 0.02570116
0.56194454 0.11373097 0.02568092
0.56154591 0.11322553 0.025660681
0.56186855 0.11221253 0.025166076
0.56146926 0.11170625 0.025145801
0.56178987 0.11069074 0.024651119
0.56210917 0.10967353 0.024156371
0.56170851 0.10916556 0.024136029
0.56202579 0.10814581 0.023641178
0.56162447 0.107637 0.023620803
0.56122315 0.10712817 0.023600427
0.56082183 0.10661936 0.023580052
0.56042051 0.10611054 0.023559675
0.5600192 0.10560172 0.023539299
0.55961788 0.1050929 0.023518924
0.55921656 0.10458408 0.023498548
0.55881524 0.10407526 0.023478173
0.55841392 0.10356645 0.023457795
0.5580126 0.10305762 0.02343742
0.55761129 0.10254881 0.023417044
0.55720997 0.10203999 0.023396669
0.55680865 0.10153117 0.023376292
0.55640733 0.10102236 0.023355916
0.55600601 0.10051353 0.023335541
0.5556047 0.10000472 0.023315165
0.55590999 0.098969698 0.022819681
0.55550802 0.098460034 0.022799272
0.55510604 0.097950369 0.022778863
0.55470407 0.097440697 0.022758452
0.55359811 0.09746062 0.023213286
0.55319679 0.096951805 0.023192909
0.55209291 0.096974231 0.023647822
0.59246761 0.12871452 0.017956588
0.59130597 0.12866297 0.018409522
0.59089661 0.128144 0.018388739
0.5904873 0.12762502 0.018367957
0.59007794 0.12710604 0.018347174
0.58891964 0.12705873 0.018800281
0.58776265 0.12701315 0.019253483
0.58660704 0.12696923 0.019706722
0.58545274 0.126927 0.020160032
0.58504605 0.12641141 0.020139385
0.58389378 0.12637173 0.020592799
0.58274281 0.12633374 0.021046275
0.58159316 0.12629747 0.02149985
0.58044487 0.12626286 0.021953462
0.5792979 0.12622996 0.022407146
0.5781523 0.12619874 0.022860898
0.57700801 0.1261692 0.023314716
0.57660604 0.12565954 0.023294307
0.576204 0.12514988 0.023273896
0.57506239 0.12512377 0.023727873
0.57466108 0.12461495 0.023707498
0.57352144 0.12459134 0.024161555
0.57312083 0.12408337 0.024141213
0.57272017 0.1235754 0.024120871
0.57158321 0.12355519 0.024575064
0.57044762 0.12353667 0.02502932
0.57004833 0.12303039 0.025009045
0.56964898 0.12252411 0.024988772
0.56924969 0.12201783 0.024968497
0.56885034 0.12151156 0.024948224
0.56845105 0.12100527 0.02492795
0.56805176 0.12049899 0.024907675
0.5676524 0.11999272 0.024887402
0.56725311 0.11948644 0.024867127
0.56685376 0.11898016 0.024846852
0.56645447 0.11847388 0.024826579
0.56605518 0.11796761 0.024806304
0.56565583 0.11746132 0.024786031
0.56525654 0.11695504 0.024765756
0.56485724 0.11644877 0.024745481
0.56373227 0.11644382 0.025200309
0.56333363 0.11593839 0.02518007
0.56293499 0.11543296 0.025159828
0.5625363 0.11492753 0.025139589
0.56213766 0.1144221 0.025119349
0.56173903 0.11391667 0.025099108
0.56134039 0.11341123 0.025078868
0.56166273 0.11239854 0.024583288
0.56126338 0.11189225 0.024563015
0.5615837 0.11087705 0.024067361
0.56118369 0.11036993 0.024047052
0.56150198 0.10935219 0.023551295
0.56110132 0.10884421 0.023530953
0.56141758 0.10782393 0.023035094
0.56101626 0.10731512 0.023014719
0.56061494 0.10680629 0.022994341
0.56021363 0.10629748 0.022973966
0.55981231 0.10578866 0.02295359
0.55941099 0.10527984 0.022933215
0.55900967 0.10477102 0.022912839
0.55860835 0.1042622 0.022892462
0.55820704 0.10375338 0.022872087
0.55780572 0.10324457 0.022851711
0.5574044 0.10273574 0.022831336
0.55700308 0.10222693 0.022810958
0.55660176 0.10171811 0.022790583
0.55620044 0.10120929 0.022770207
0.55579913 0.10070048 0.022749832
0.55539781 0.10019165 0.022729456
0.55570281 0.099156946 0.022232998
0.55530077 0.098647282 0.022212587
0.5548988 0.098137617 0.022192178
0.55449682 0.097627953 0.022171767
0.55339122 0.097647563 0.022627575
0.5529899 0.09713874 0.0226072
0.55188638 0.097160861 0.023063088
0.59382951 0.12947971 0.016925216
0.59341884 0.12895903 0.016904365
0.59225625 0.12890549 0.017358208
0.59184623 0.12838566 0.017337391
0.59143621 0.12786585 0.017316574
0.59102625 0.12734602 0.017295757
0.58986694 0.1272967 0.01774977
0.588709 0.12724909 0.018203853
0.58755231 0.1272032 0.018658027
0.58714432 0.12668592 0.018637313
0.58598971 0.12664253 0.019091561
0.58483642 0.12660085 0.019545879
0.58368444 0.12656085 0.020000266
0.58253384 0.12652254 0.020454718
0.58212852 0.12600864 0.020434139
0.58097988 0.12597291 0.020888722
0.57983261 0.12593885 0.021343343
0.57868665 0.12590647 0.021798033
0.57754207 0.12587579 0.022252794
0.57639879 0.12584679 0.022707622
0.57599682 0.12533712 0.022687212
0.57559478 0.12482746 0.022666803
0.57445419 0.12480188 0.023121789
0.57405287 0.12429307 0.023101414
0.57291424 0.12427 0.023556476
0.57251358 0.12376203 0.023536135
0.57137704 0.12374151 0.023991302
0.57024175 0.12372267 0.024446534
0.56984246 0.1232164 0.024426259
0.56944311 0.12271012 0.024405984
0.56904382 0.12220383 0.024385711
0.56864452 0.12169756 0.024365436
0.56824517 0.12119128 0.024345161
0.56784588 0.120685 0.024324888
0.56744659 0.12017872 0.024304613
0.56704724 0.11967245 0.02428434
0.56664795 0.11916617 0.024264066
0.5662486 0.11865988 0.024243791
0.5658493 0.11815361 0.024223518
0.56545001 0.11764733 0.024203243
0.56505066 0.11714105 0.02418297
0.56465137 0.11663477 0.024162695
0.56352675 0.11662952 0.024618497
0.56312811 0.11612409 0.024598258
0.56272948 0.11561865 0.024578018
0.56233078 0.11511322 0.024557777
0.56193215 0.11460779 0.024537537
0.56153351 0.11410236 0.024517296
0.56113487 0.11359692 0.024497056
0.56145686 0.11258454 0.024000501
0.56105751 0.11207826 0.023980226
0.56137747 0.11106337 0.023483599
0.56097746 0.11055624 0.02346329
0.56129539 0.10953882 0.022966558
0.56089479 0.10903084 0.022946216
0.56121069 0.10801087 0.022449385
0.56080937 0.10750205 0.022429008
0.56040806 0.10699324 0.022408633
0.56000674 0.10648441 0.022388257
0.55960542 0.1059756 0.022367882
0.5592041 0.10546678 0.022347506
0.55880278 0.10495796 0.022327129
0.55840147 0.10444914 0.022306753
0.55800015 0.10394032 0.022286378
0.55759883 0.1034315 0.022266002
0.55719751 0.10292269 0.022245625
0.55679619 0.10241386 0.02222525
0.55639488 0.10190505 0.022204874
0.55599356 0.10139623 0.022184499
0.55559224 0.10088741 0.022164123
0.55519092 0.1003786 0.022143746
0.55549556 0.099344194 0.021646313
0.55509359 0.09883453 0.021625903
0.55469155 0.098324865 0.021605494
0.55428958 0.097815201 0.021585084
0.55318433 0.097834498 0.022041867
0.55278301 0.097325683 0.022021491
0.5959478 0.12978545 0.015416469
0.59437084 0.12920584 0.015850235
0.59395951 0.12868433 0.015829351
0.5927965 0.12862965 0.01628416
0.59238583 0.12810899 0.01626331
0.59122485 0.12805682 0.016718194
0.59081489 0.127537 0.016697377
0.58965594 0.12748738 0.017152363
0.58849829 0.12743945 0.017607423
0.58808964 0.12692133 0.017586673
0.58693397 0.12687597 0.018041855
0.58577973 0.12683228 0.01849708
0.58462673 0.12679027 0.018952372
0.58422011 0.12627468 0.018931724
0.58306915 0.12623522 0.01938712
0.58191955 0.12619744 0.019842582
0.58077127 0.12616141 0.020298136
0.5796243 0.12612702 0.020753734
0.57847875 0.12609434 0.021209402
0.57733446 0.12606335 0.021665134
0.57619154 0.12603404 0.022120934
0.57578957 0.12552437 0.022100525
0.5753876 0.12501471 0.022080114
0.5742473 0.12498882 0.022536077
0.57384598 0.12448001 0.022515701
0.57344466 0.12397119 0.022495324
0.57230705 0.12394866 0.0229514
0.57117081 0.12392782 0.023407539
0.57077086 0.12342069 0.023387231
0.56963658 0.1234024 0.023843473
0.56923729 0.12289612 0.023823198
0.56883794 0.12238985 0.023802923
0.56843865 0.12188356 0.02378265
0.56803936 0.12137729 0.023762375
0.56764001 0.12087101 0.0237421
0.56724072 0.12036473 0.023721827
0.56684136 0.11985845 0.023701552
0.56644207 0.11935217 0.023681279
0.56604278 0.11884589 0.023661004
0.56564343 0.11833961 0.023640729
0.56524414 0.11783333 0.023620456
0.56484479 0.11732706 0.023600182
0.5644455 0.11682077 0.023579909
0.56332123 0.11681521 0.024036687
0.5629226 0.11630978 0.024016446
0.56252396 0.11580435 0.023996206
0.56212527 0.11529892 0.023975965
0.56172663 0.11479349 0.023955725
0.56132799 0.11428805 0.023935486
0.56092936 0.11378262 0.023915244
0.56125098 0.11277055 0.023417715
0.56085169 0.11226427 0.02339744
0.56045234 0.11175799 0.023377165
0.56077129 0.11074256 0.02287953
0.56108886 0.10972545 0.022381824
0.5606882 0.10921747 0.022361482
0.56028759 0.1087095 0.02234114
0.56060249 0.10768899 0.021843296
0.56020117 0.10718017 0.02182292
0.55979985 0.10667136 0.021802545
0.55939853 0.10616253 0.021782169
0.55899721 0.10565372 0.021761792
0.5585959 0.1051449 0.021741416
0.55819458 0.10463608 0.021721041
0.55779326 0.10412727 0.021700665
0.55739194 0.10361844 0.02168029
0.55699062 0.10310963 0.021659913
0.55658931 0.10260081 0.021639537
0.55618799 0.10209199 0.021619162
0.55578667 0.10158317 0.021598786
0.55538535 0.10107435 0.021578409
0.55498403 0.10056553 0.021558033
0.55458272 0.10005672 0.021537658
0.5541814 0.099547893 0.021517282
0.55448437 0.098512113 0.021018805
0.55408233 0.098002449 0.020998396
0.55297744 0.09802144 0.021456154
0.55257612 0.097512618 0.021435779
0.59806997 0.13009924 0.013904124
0.59765661 0.12957518 0.013883138
0.59724331 0.12905113 0.013862152
0.59607667 0.12899104 0.014317707
0.5949114 0.12893264 0.01477333
0.59374744 0.12887593 0.01522902
0.59333611 0.12835442 0.015208136
0.59292477 0.1278329 0.015187251
0.59176344 0.12777962 0.015643103
0.59060347 0.12772799 0.016098997
0.58944488 0.12767805 0.016554959
0.58828765 0.12762982 0.017010992
0.58787894 0.12711167 0.016990244
0.58672363 0.12706602 0.017446401
0.58631563 0.12654872 0.017425686
0.5851624 0.12650557 0.017881915
0.58401048 0.1264641 0.01833822
0.58285987 0.12642433 0.018794589
0.58171064 0.12638626 0.019251024
0.58130527 0.12587236 0.019230446
0.580158 0.12583685 0.01968701
0.5790121 0.12580301 0.020143615
0.57786751 0.12577085 0.020600289
0.57672423 0.12574039 0.02105703
0.57558233 0.12571162 0.02151384
0.57518035 0.12520196 0.021493431
0.57477838 0.12469229 0.02147302
0.57363909 0.12466694 0.021929991
0.57323778 0.12415813 0.021909615
0.57210052 0.12413529 0.022366662
0.57096463 0.12411414 0.022823777
0.57056463 0.12360702 0.022803469
0.56943071 0.12358841 0.023260688
0.56903142 0.12308212 0.023240414
0.56863213 0.12257585 0.02322014
0.56823277 0.12206957 0.023199866
0.56783348 0.12156329 0.023179593
0.56743413 0.12105701 0.023159318
0.56703484 0.12055074 0.023139043
0.56663555 0.12004445 0.02311877
0.5662362 0.11953817 0.023098495
0.56583691 0.1190319 0.02307822
0.56543761 0.11852562 0.023057947
0.56503826 0.11801934 0.023037672
0.56463897 0.11751306 0.023017399
0.56423962 0.11700678 0.022997124
0.56311572 0.11700091 0.023454875
0.56271708 0.11649548 0.023434633
0.56231844 0.11599004 0.023414394
0.56191981 0.11548461 0.023394154
0.56152111 0.11497918 0.023373913
0.56112248 0.11447375 0.023353674
0.56072384 0.11396831 0.023333432
0.56104511 0.11295655 0.022834931
0.56064582 0.11245027 0.022814656
0.56024653 0.111944 0.022794383
0.56056505 0.11092888 0.022295767
0.56016511 0.11042175 0.022275459
0.56048167 0.1094041 0.021776745
0.56008101 0.10889613 0.021756403
0.55968034 0.10838816 0.021736061
0.55927974 0.10788018 0.021715719
0.55887908 0.10737221 0.021695377
0.55847842 0.10686424 0.021675035
0.55807775 0.10635626 0.021654693
0.55767715 0.1058483 0.021634351
0.55727649 0.10534032 0.02161401
0.55687582 0.10483235 0.021593668
0.55647516 0.10432438 0.021573326
0.5560745 0.1038164 0.021552982
0.55638242 0.10278775 0.021053828
0.5559811 0.10227893 0.021033453
0.55557978 0.10177011 0.021013075
0.55517846 0.10126129 0.0209927
0.55477715 0.10075247 0.020972325
0.55437583 0.10024365 0.020951949
0.55397451 0.099734835 0.020931574
0.55427712 0.098699369 0.020432122
0.55387515 0.098189697 0.020411711
0.55277056 0.098208375 0.020870445
0.55236924 0.09769956 0.02085007
0.5994398 0.13088048 0.012865497
0.59902579 0.13035557 0.012844477
0.59861183 0.12983066 0.012823457
0.59819782 0.12930577 0.012802437
0.59703022 0.12924367 0.013258899
0.59661686 0.12871961 0.013237913
0.59545124 0.12866005 0.013694477
0.59428698 0.12860219 0.014151106
0.59312403 0.12854601 0.014607806
0.5927127 0.1280245 0.014586921
0.59155172 0.1279709 0.015043748
0.59039211 0.12791897 0.015500617
0.58923388 0.12786873 0.015957555
0.58882451 0.12734975 0.015936771
0.5876683 0.12730204 0.016393811
0.58725959 0.12678391 0.016373061
0.58610535 0.12673877 0.016830228
0.58495241 0.12669531 0.017287435
0.58380079 0.12665354 0.017744713
0.58339417 0.12613794 0.017724065
0.58224458 0.12609871 0.018181443
0.58109635 0.12606116 0.018638888
0.57994938 0.12602535 0.019096427
0.57880378 0.12599118 0.019554006
0.57765955 0.12595873 0.020011654
0.57651669 0.12592795 0.020469371
0.576114 0.12541744 0.020448927
0.57497311 0.1253892 0.020906746
0.57457113 0.12487954 0.020886336
0.57343221 0.12485389 0.021344282
0.57303089 0.12434506 0.021323906
0.57189399 0.12432192 0.021781929
0.5707584 0.12430046 0.022240018
0.57035846 0.12379333 0.02221971
0.56995845 0.1232862 0.022199402
0.56882554 0.12326813 0.022657627
0.56842625 0.12276185 0.022637352
0.5680269 0.12225558 0.022617079
0.56762761 0.1217493 0.022596804
0.56722832 0.12124301 0.022576531
0.56682897 0.12073674 0.022556257
0.56642967 0.12023046 0.022535982
0.56603038 0.11972418 0.022515709
0.56563103 0.1192179 0.022495434
0.56523174 0.11871163 0.022475159
0.56483239 0.11820535 0.022454886
0.5644331 0.11769906 0.022434611
0.56403381 0.11719279 0.022414338
0.5629102 0.1171866 0.022873063
0.56251156 0.11668117 0.022852823
0.56211293 0.11617574 0.022832582
0.56171429 0.11567031 0.022812342
0.5613156 0.11516488 0.022792101
0.56091696 0.11465944 0.022771861
0.56051832 0.11415401 0.022751622
0.5608393 0.11314256 0.022252144
0.56043994 0.11263628 0.022231869
0.56004065 0.11213 0.022211595
0.56035888 0.11111519 0.021712007
0.55995888 0.11060807 0.0216917
0.56027514 0.10959072 0.02119201
0.55987448 0.10908275 0.021171669
0.55947381 0.10857479 0.021151327
0.55907315 0.10806681 0.021130985
0.55867255 0.10755884 0.021110643
0.55827188 0.10705087 0.021090301
0.55787122 0.10654289 0.021069959
0.55747056 0.10603492 0.021049617
0.55706996 0.10552695 0.021029275
0.55666929 0.10501898 0.021008933
0.55626863 0.10451101 0.020988591
0.55586797 0.10400303 0.020968249
0.55546731 0.10349506 0.020947907
0.55577421 0.10246587 0.020447742
0.55537289 0.10195705 0.020427367
0.55497158 0.10144823 0.020406991
0.55457026 0.10093941 0.020386616
0.55416894 0.10043059 0.020366238
0.55376762 0.09992177 0.020345863
0.55406988 0.098886617 0.019845437
0.5536679 0.098376952 0.019825026
0.55326593 0.097867288 0.019804617
0.55216235 0.097886495 0.020264359
0.60039705 0.13113993 0.011803978
0.59998238 0.13061418 0.011782925
0.59956771 0.13008842 0.01176187
0.59915304 0.12956268 0.011740817
0.59873837 0.12903692 0.011719762
0.59757036 0.12897371 0.012177192
0.59640378 0.12891214 0.012634663
0.59523851 0.12885228 0.013092199
0.59407461 0.1287941 0.013549803
0.59366256 0.12827174 0.013528884
0.59250063 0.1282161 0.013986594
0.5920893 0.12769459 0.013965709
0.59092933 0.12764153 0.014423545
0.58902287 0.12805939 0.01536015
0.58861351 0.12754041 0.015339366
0.5874576 0.1274924 0.01579738
0.58704895 0.12697427 0.015776632
0.585895 0.12692882 0.016234772
0.58474243 0.12688504 0.016692957
0.58433509 0.12636861 0.016672276
0.58318454 0.12632737 0.017130561
0.58203524 0.12628782 0.017588908
0.58162928 0.12577307 0.017568294
0.58048207 0.12573607 0.018026749
0.57933611 0.12570079 0.018485297
0.57819152 0.12566717 0.018943887
0.5770483 0.12563524 0.019402541
0.57590646 0.125605 0.019861268
0.57476586 0.12557645 0.020320062
0.57436389 0.12506679 0.020299653
0.57322526 0.12504081 0.020758573
0.57282394 0.12453201 0.020738197
0.5716874 0.12450854 0.021197191
0.5712868 0.12400057 0.021176849
0.57015222 0.12397964 0.021635948
0.56975222 0.12347252 0.021615639
0.56935227 0.1229654 0.021595331
0.56822038 0.12294786 0.022054566
0.56782109 0.12244158 0.022034291
0.56742173 0.1219353 0.022014018
0.56702244 0.12142903 0.021993743
0.56662315 0.12092274 0.02197347
0.5662238 0.12041646 0.021953195
0.56582451 0.11991019 0.02193292
0.56542516 0.11940391 0.021912647
0.56502587 0.11889763 0.021892373
0.56462657 0.11839135 0.021872098
0.56422722 0.11788507 0.021851825
0.56382793 0.11737879 0.02183155
0.56270468 0.1173723 0.022291251
0.56230605 0.11686686 0.022271011
0.56190741 0.11636143 0.02225077
0.56150877 0.115856 0.02223053
0.56111008 0.11535057 0.022210291
0.56071144 0.11484513 0.022190049
0.56031281 0.1143397 0.02216981
0.55991417 0.11383427 0.022149568
0.56023413 0.11282229 0.021649083
0.55983478 0.112316 0.021628808
0.56015265 0.11130151 0.021128245
0.5597527 0.11079439 0.021107938
0.5593527 0.11028726 0.02108763
0.55895275 0.10978013 0.021067321
0.55855274 0.10927301 0.021047013
0.55815279 0.10876589 0.021026704
0.55775279 0.10825876 0.021006398
0.55735278 0.10775164 0.020986089
0.55695283 0.10724451 0.020965781
0.55655283 0.10673738 0.020945473
0.55615288 0.10623026 0.020925164
0.55575287 0.10572314 0.020904856
0.55535287 0.10521601 0.020884549
0.55566144 0.10418966 0.020383511
0.55526078 0.10368169 0.020363169
0.55556732 0.1026528 0.019862033
0.55516601 0.10214399 0.019841658
0.55476469 0.10163517 0.019821282
0.55436337 0.10112635 0.019800905
0.55396205 0.10061753 0.01978053
0.55356073 0.10010871 0.019760154
0.55386263 0.099073865 0.019258752
0.55346066 0.0985642 0.019238343
0.55305868 0.098054536 0.019217933
0.55195546 0.098073438 0.01967865
0.55155414 0.097564615 0.019658275
0.60135484 0.13140173 0.010740602
0.60093951 0.13087514 0.010719515
0.59976858 0.13080734 0.011177721
0.59935391 0.13028158 0.011156667
0.59969348 0.12929535 0.010656252
0.59852457 0.12923008 0.011114559
0.59735692 0.12916656 0.011572964
0.5969429 0.12864165 0.011551944
0.59577733 0.12858063 0.012010424
0.59461308 0.12852129 0.012468969
0.59345019 0.12846366 0.012927582
0.59228861 0.12840772 0.013386264
0.59187728 0.12788619 0.013365379
0.59146595 0.12736468 0.013344495
0.58955938 0.12778111 0.014283043
0.58840251 0.12773108 0.014741962
0.58724695 0.12768276 0.015200951
0.58683825 0.12716463 0.015180202
0.58568466 0.12711887 0.015639318
0.58527666 0.12660159 0.015618604
0.5841251 0.12655835 0.016077792
0.58297485 0.12651679 0.016537054
0.58256823 0.12600121 0.016516406
0.58142 0.1259622 0.016975762
0.58027309 0.12592487 0.017435191
0.57986778 0.12541097 0.017414613
0.57872283 0.12537622 0.017874166
0.57757926 0.12534314 0.018333765
0.57643706 0.12531175 0.018793432
0.57529622 0.12528205 0.019253165
0.57415664 0.12525403 0.019712968
0.57375467 0.12474438 0.019692557
0.57261705 0.12471894 0.020152487
0.57148087 0.12469517 0.020612456
0.57108021 0.12418719 0.020592114
0.56994605 0.12416596 0.021052189
0.56954604 0.12365884 0.021031881
0.56914604 0.12315171 0.021011572
0.5680145 0.12313387 0.021471776
0.56761521 0.12262759 0.021451501
0.56721592 0.12212131 0.021431228
0.56681657 0.12161503 0.021410953
0.56641728 0.12110876 0.021390678
0.56601793 0.12060247 0.021370405
0.56561863 0.12009619 0.02135013
0.56521934 0.11958992 0.021329856
0.56481999 0.11908364 0.021309583
0.5644207 0.11857736 0.021289308
0.56402141 0.11807108 0.021269035
0.56362206 0.1175648 0.02124876
0.56249917 0.117558 0.021709437
0.56210053 0.11705256 0.021689195
0.56170189 0.11654713 0.021668956
0.56130326 0.1160417 0.021648714
0.56090456 0.11553627 0.021628475
0.56050593 0.11503083 0.021608233
0.56010729 0.1145254 0.021587994
0.55970865 0.11401997 0.021567754
0.55931002 0.11351454 0.021547513
0.5596289 0.11250202 0.021046018
0.55922961 0.11199573 0.021025743
0.55883032 0.11148945 0.02100547
0.55843097 0.11098318 0.020985195
0.55803168 0.1104769 0.020964921
0.55834657 0.10945933 0.020463254
0.55794656 0.1089522 0.020442946
0.55754656 0.10844508 0.020422637
0.55714661 0.10793795 0.020402331
0.5567466 0.10743082 0.020382022
0.55634665 0.1069237 0.020361714
0.55594665 0.10641658 0.020341406
0.5555467 0.10590945 0.020321097
0.55514669 0.10540233 0.020300791
0.55545491 0.10437629 0.019798778
0.55505425 0.10386832 0.019778436
0.55465358 0.10336035 0.019758094
0.55495912 0.10233092 0.019255949
0.5545578 0.10182211 0.019235572
0.55415648 0.10131329 0.019215196
0.55375516 0.10080447 0.019194821
0.55335385 0.10029565 0.019174445
0.55365539 0.099261113 0.018672068
0.55325341 0.098751448 0.018651659
0.55214989 0.098769195 0.019113317
0.55174857 0.098260373 0.019092942
0.60114074 0.13159521 0.010134428
0.60072541 0.1310686 0.01011334
0.60031003 0.13054201 0.010092252
0.5998947 0.1300154 0.010071164
0.59947938 0.12948881 0.010050076
0.59831077 0.12942325 0.010509359
0.5978961 0.12889749 0.010488305
0.59672952 0.1288345 0.010947715
0.59556425 0.12877317 0.011407171
0.59515095 0.12824911 0.011386185
0.5939877 0.12819031 0.01184574
0.59282577 0.12813321 0.012305361
0.59166521 0.12807781 0.012765052
0.59125388 0.12755628 0.012744167
0.58934802 0.1279721 0.013684663
0.58819145 0.12792176 0.014144557
0.58778214 0.12740278 0.014123774
0.5866276 0.12735499 0.014583772
0.58547431 0.12730892 0.01504386
0.58506632 0.12679164 0.015023146
0.58391511 0.12674809 0.015483313
0.58350778 0.12623164 0.015462632
0.58235854 0.12619063 0.015922898
0.58195192 0.12567504 0.015902251
0.58080471 0.12563656 0.016362617
0.57965881 0.12559979 0.016823055
0.57851422 0.12556472 0.017283585
0.577371 0.12553133 0.017744159
0.57622916 0.12549962 0.018204797
0.57582581 0.12498827 0.018184321
0.57468593 0.1249591 0.018645061
0.57354742 0.12493163 0.019105872
0.57241017 0.12490588 0.019566774
0.57127434 0.1248818 0.020027723
0.57087368 0.12437382 0.020007381
0.56973982 0.12435228 0.020468427
0.56933981 0.12384515 0.020448118
0.56893986 0.12333803 0.02042781
0.56780869 0.12331987 0.020888988
0.56740934 0.1228136 0.020868715
0.56701005 0.12230732 0.02084844
0.56661075 0.12180103 0.020828167
0.5662114 0.12129476 0.020807892
0.56581211 0.12078848 0.020787617
0.56541276 0.1202822 0.020767344
0.56501347 0.11977592 0.020747069
0.56461418 0.11926965 0.020726796
0.56421483 0.11876336 0.020706521
0.56381553 0.11825708 0.020686246
0.56341618 0.11775081 0.020665973
0.56229365 0.11774369 0.021127624
0.56189501 0.11723825 0.021107383
0.56149638 0.11673282 0.021087144
0.56109774 0.11622739 0.021066904
0.56069911 0.11572196 0.021046663
0.56030041 0.11521652 0.021026423
0.55990177 0.11471109 0.021006182
0.55950314 0.11420566 0.020985942
0.5591045 0.11370023 0.020965701
0.55870587 0.1131948 0.020945461
0.55830717 0.11268937 0.020925222
0.55790854 0.11218394 0.020904981
0.5575099 0.1116785 0.020884741
0.5578258 0.11066291 0.020382134
0.55742651 0.11015663 0.020361859
0.55702716 0.10965034 0.020341586
0.55662787 0.10914407 0.020321311
0.55622858 0.10863779 0.020301038
0.55582923 0.10813151 0.020280764
0.55542994 0.10762523 0.020260489
0.55503058 0.10711895 0.020240216
0.55463129 0.10661267 0.020219941
0.55494046 0.10558864 0.019717028
0.55454051 0.10508151 0.01969672
0.55484772 0.10405494 0.019193701
0.55444705 0.10354697 0.019173359
0.55404639 0.103039 0.019153018
0.55435091 0.10200904 0.018649859
0.55394959 0.10150023 0.018629484
0.55354828 0.10099141 0.018609108
0.55314696 0.10048259 0.018588733
0.55274564 0.099973768 0.018568356
0.55304617 0.098938696 0.018064974
0.551943 0.09895613 0.018527605
0.55154169 0.098447315 0.018507229
0.60092664 0.13178867 0.0095282495
0.60051125 0.13126208 0.0095071616
0.60009593 0.13073547 0.0094860736
0.5996806 0.13020888 0.0094649857
0.59926528 0.12968229 0.0094438978
0.59809703 0.12961639 0.0099041592
0.59768236 0.12909065 0.0098831058
0.59726769 0.12856491 0.0098620513
0.59610206 0.12850244 0.01032247
0.59493786 0.12844165 0.010782932
0.59377491 0.12838253 0.011243462
0.5926134 0.12832512 0.011704056
0.59145314 0.1282694 0.012164724
0.5910418 0.12774788 0.01214384
0.58913666 0.12816307 0.013086283
0.58798045 0.12811244 0.013547151
0.58757114 0.12759346 0.013526369
0.5864169 0.12754536 0.013987339
0.58600825 0.12702723 0.01396659
0.58485597 0.12698169 0.014427691
0.58444798 0.12646441 0.014406976
0.58329779 0.12642139 0.01486815
0.58214891 0.12638006 0.015329391
0.58174229 0.12586446 0.015308744
0.58059537 0.12582567 0.015770083
0.57944983 0.12578858 0.016231498
0.5783056 0.12575321 0.016693002
0.57790095 0.12524016 0.016672457
0.57602125 0.12568749 0.017616164
0.57561791 0.12517613 0.017595686
0.57447839 0.12514666 0.018057402
0.57334018 0.12511888 0.018519189
0.57220328 0.12509282 0.018981066
0.57106775 0.12506843 0.019442985
0.57066715 0.12456045 0.019422643
0.56953365 0.1245386 0.019884665
0.56913364 0.12403147 0.019864356
0.56873363 0.12352435 0.019844048
0.56760281 0.12350588 0.020306205
0.56720352 0.1229996 0.02028593
0.56680417 0.12249332 0.020265657
0.56640488 0.12198704 0.020245383
0.56600553 0.12148076 0.020225108
0.56560624 0.12097448 0.020204835
0.56520694 0.12046821 0.02018456
0.56480759 0.11996192 0.020164287
0.5644083 0.11945565 0.020144012
0.56400901 0.11894937 0.020123737
0.56360966 0.11844309 0.020103464
0.56321037 0.11793681 0.020083189
0.56208813 0.11792938 0.020545812
0.5616895 0.11742395 0.020525573
0.56129086 0.11691852 0.020505331
0.56089222 0.11641309 0.020485092
0.56049359 0.11590765 0.020464851
0.56009489 0.11540222 0.020444611
0.55969626 0.11489679 0.02042437
0.55929762 0.11439136 0.02040413
0.55889899 0.11388592 0.020383891
0.55850035 0.11338049 0.020363649
0.55810171 0.11287506 0.02034341
0.55770302 0.11236963 0.020323168
0.55730438 0.11186419 0.020302929
0.55690575 0.11135876 0.020282689
0.55650711 0.11085333 0.020262448
0.55610847 0.1103479 0.020242209
0.55570978 0.10984246 0.020221967
0.55531114 0.10933703 0.020201728
0.55491251 0.1088316 0.020181486
0.55451387 0.10832617 0.020161247
0.55411524 0.10782074 0.020141007
0.55442542 0.10679868 0.019637156
0.55402613 0.1062924 0.019616883
0.55433428 0.10526783 0.019112958
0.55464113 0.10424157 0.018608963
0.55424047 0.1037336 0.018588621
0.55383986 0.10322563 0.018568279
0.5534392 0.10271766 0.018547937
0.55374271 0.10168716 0.018043775
0.55334139 0.10117835 0.0180234
0.55294007 0.10066953 0.018003022
0.55253875 0.10016071 0.017982647
0.55283892 0.099125952 0.017478289
0.55243695 0.098616287 0.01745788
0.55203497 0.098106615 0.017437469
0.55233246 0.097068503 0.016932998
0.55192983 0.096557997 0.016912555
0.55152714 0.096047483 0.016892111
0.60071248 0.13198215 0.008922074
0.60029715 0.13145556 0.0089009861
0.59988183 0.13092895 0.0088798981
0.59946644 0.13040236 0.0088588102
0.59905112 0.12987575 0.0088377222
0.59863579 0.12934916 0.0088166343
0.59746855 0.12928382 0.0092779025
0.59705389 0.12875806 0.0092568481
0.59588861 0.12869529 0.009718243
0.59472471 0.12863418 0.01017968
0.59356219 0.12857476 0.010641184
0.59314954 0.12805155 0.010620232
0.59198898 0.12799467 0.011081835
0.59008253 0.1284067 0.012026127
0.58967185 0.12788603 0.012005276
0.58776945 0.1283031 0.012949746
0.58736008 0.12778412 0.012928964
0.58620626 0.12773572 0.013390909
0.58579755 0.12721758 0.01337016
0.58464563 0.12717174 0.013832233
0.58423764 0.12665446 0.013811518
0.58382964 0.12613717 0.013790803
0.58268046 0.12609468 0.014252986
0.5815326 0.1260539 0.014715237
0.5803861 0.1260148 0.015177552
0.57998008 0.12550005 0.015156938
0.57883555 0.1254635 0.015619358
0.57769233 0.12542866 0.016081871
0.57655048 0.12539549 0.016544428
0.57541001 0.12536401 0.017007051
0.57427078 0.12533422 0.017469745
0.57313293 0.12530613 0.017932504
0.57273096 0.12479646 0.017912094
0.57159507 0.12477094 0.018374981
0.57046056 0.12474708 0.01883791
0.56932741 0.12472491 0.019300906
0.56892741 0.12421779 0.019280598
0.56852746 0.12371066 0.019260289
0.56739694 0.12369188 0.019723417
0.56699765 0.1231856 0.019703144
0.5665983 0.12267932 0.019682869
0.566199 0.12217305 0.019662596
0.56579971 0.12166677 0.019642321
0.56540036 0.12116049 0.019622047
0.56500107 0.12065421 0.019601773
0.56460178 0.12014793 0.019581499
0.56420243 0.11964165 0.019561226
0.56380314 0.11913537 0.019540951
0.56340379 0.1186291 0.019520676
0.56300449 0.11812282 0.019500403
0.56188262 0.11811507 0.019964
0.56148398 0.11760964 0.019943761
0.56108534 0.11710421 0.019923519
0.56068671 0.11659878 0.01990328
0.56028807 0.11609334 0.019883038
0.55988938 0.11558791 0.019862799
0.55949074 0.11508248 0.019842559
0.5590921 0.11457705 0.019822318
0.55869347 0.11407162 0.019802079
0.55829483 0.11356619 0.019781837
0.5578962 0.11306076 0.019761598
0.5574975 0.11255533 0.019741358
0.55709887 0.11204989 0.019721117
0.55670023 0.11154446 0.019700877
0.55630159 0.11103903 0.019680636
0.55590296 0.1105336 0.019660397
0.55550426 0.11002816 0.019640155
0.55510563 0.10952273 0.019619916
0.55470699 0.1090173 0.019599676
0.55430835 0.10851187 0.019579435
0.55390972 0.10800643 0.019559195
0.5542196 0.10698468 0.01905437
0.55382025 0.10647841 0.019034095
0.55412811 0.10545415 0.018529199
0.5544346 0.1044282 0.01802423
0.55403394 0.10392023 0.018003888
0.55363327 0.10341226 0.017983546
0.55323267 0.10290428 0.017963205
0.55353582 0.10187411 0.017458066
0.5531345 0.10136528 0.017437689
0.55273318 0.10085647 0.017417314
0.55233186 0.10034765 0.017396938
0.55263174 0.0993132 0.016891604
0.55293018 0.098277092 0.01638623
0.55252755 0.097766578 0.016365785
0.55212492 0.097256064 0.016345343
0.55242068 0.096216574 0.015839828
0.55201739 0.095705211 0.01581935
0.55161405 0.095193855 0.015798872
0.55051428 0.095214017 0.016263567
0.60049838 0.13217561 0.0083158985
0.60008305 0.13164902 0.0082948115
0.59966767 0.13112243 0.0082737235
0.59925234 0.13059582 0.0082526356
0.59883702 0.13006923 0.0082315477
0.59842169 0.12954263 0.0082104597
0.59725481 0.12947698 0.0086727021
0.59684014 0.12895122 0.0086516477
0.59567517 0.12888815 0.0091140149
0.59451163 0.12882672 0.0095764268
0.59334946 0.12876698 0.010038907
0.59293675 0.12824377 0.010017954
0.59177655 0.12818658 0.010480532
0.59061772 0.12813109 0.010943182
0.58946013 0.12807733 0.011405924
0.58830392 0.12802522 0.011868706
0.58714908 0.12797479 0.012331558
0.58599555 0.12792607 0.01279448
0.58558691 0.12740794 0.012773731
0.58443534 0.12736179 0.013236779
0.58402735 0.12684451 0.013216063
0.58361936 0.12632722 0.013195349
0.58247048 0.12628442 0.013658507
0.58206314 0.12576799 0.013637826
0.58091629 0.12572773 0.014101085
0.5797708 0.12568916 0.014564406
0.57862663 0.1256523 0.015027802
0.57748371 0.12561715 0.01549129
0.57634223 0.12558366 0.01595482
0.57520205 0.12555188 0.01641842
0.57406324 0.12552178 0.016882086
0.57292575 0.12549338 0.017345816
0.57252371 0.12498371 0.017325407
0.57138819 0.12495788 0.017789269
0.57025403 0.12493371 0.018253172
0.56912124 0.12491123 0.018717144
0.56872123 0.1244041 0.018696835
0.56832123 0.12389698 0.018676527
0.56719106 0.12387789 0.019140631
0.56679177 0.12337161 0.019120358
0.56639248 0.12286533 0.019100083
0.56599313 0.12235905 0.019079808
0.56559384 0.12185278 0.019059535
0.56519455 0.1213465 0.01903926
0.5647952 0.12084021 0.019018985
0.5643959 0.12033394 0.018998712
0.56399655 0.11982766 0.018978437
0.56359726 0.11932138 0.018958164
0.56319797 0.1188151 0.018937889
0.56279862 0.11830882 0.018917615
0.5616771 0.11830077 0.019382188
0.56127846 0.11779534 0.019361949
0.56087983 0.11728991 0.019341707
0.56048119 0.11678448 0.019321468
0.56008255 0.11627904 0.019301228
0.55968386 0.11577361 0.019280987
0.55856711 0.11577145 0.019745769
0.55816913 0.11526687 0.019725563
0.55777115 0.11476228 0.019705357
0.55737317 0.11425769 0.019685149
0.55697519 0.11375311 0.019664943
0.55657721 0.11324853 0.019644737
0.55617923 0.11274394 0.019624531
0.55578125 0.11223935 0.019604325
0.55538327 0.11173477 0.019584117
0.55498528 0.11123018 0.019563911
0.5545873 0.1107256 0.019543706
0.55418932 0.11022101 0.0195235
0.55379134 0.10971642 0.019503294
0.55339336 0.10921184 0.019483086
0.5537042 0.10819213 0.018977383
0.55401373 0.10717069 0.018471584
0.55361444 0.10666441 0.018451309
0.55392188 0.10564046 0.017945437
0.55422807 0.10461483 0.017439492
0.5538274 0.10410686 0.01741915
0.55342674 0.10359889 0.017398808
0.55302608 0.10309091 0.017378466
0.55332893 0.10206104 0.016872354
0.55292761 0.10155223 0.016851977
0.5525263 0.1010434 0.016831601
0.55212498 0.10053459 0.016811226
0.55242449 0.099500448 0.016304918
0.55272263 0.098464653 0.015798569
0.55231994 0.097954139 0.015778126
0.55261612 0.096915804 0.015271673
0.55221277 0.096404448 0.015251196
0.55180943 0.095893085 0.015230718
0.55140615 0.095381729 0.015210241
0.5510028 0.094870366 0.015189763
0.60270351 0.13402331 0.0073101087
0.60228747 0.13349587 0.0072889868
0.60111493 0.13342229 0.007751896
0.60221136 0.13198628 0.006762675
0.60028428 0.13236909 0.0077097202
0.59986889 0.13184249 0.0076886327
0.59945357 0.13131589 0.0076675448
0.59903824 0.13078929 0.0076464568
0.59862292 0.1302627 0.0076253689
0.59820753 0.1297361 0.007604281
0.59704101 0.12967013 0.0080674989
0.59662634 0.12914439 0.0080464445
0.59546179 0.12908098 0.0085097896
0.59429854 0.12901926 0.0089731738
0.59388524 0.1284952 0.0089521874
0.59272403 0.128436 0.0094156768
0.59156418 0.12837851 0.0098792296
0.59040564 0.12832271 0.010342851
0.58924842 0.12826861 0.010806569
0.58809257 0.12821619 0.011270329
0.5876826 0.12769637 0.011249512
0.58652872 0.12764649 0.011713371
0.5853762 0.1275983 0.012177301
0.58496755 0.12708017 0.012156552
0.58381701 0.12703456 0.012620609
0.58340901 0.12651727 0.012599894
0.58226049 0.12647416 0.013064024
0.58185315 0.12595773 0.013043343
0.58070666 0.12591715 0.013507578
0.57956147 0.12587829 0.013971874
0.57841766 0.12584111 0.014436244
0.57801235 0.1253272 0.014415665
0.57687044 0.1252926 0.014880163
0.57572997 0.12525965 0.015344699
0.5745908 0.12522839 0.015809307
0.57345301 0.12519883 0.016273983
0.57231653 0.12517096 0.016738722
0.5711813 0.12514482 0.017203558
0.5700475 0.12512034 0.017668437
0.56964684 0.12461236 0.017648095
0.568515 0.12459043 0.018113073
0.56811506 0.1240833 0.018092765
0.56698525 0.12406389 0.018557845
0.5665859 0.12355762 0.01853757
0.56618661 0.12305134 0.018517295
0.56578732 0.12254506 0.018497022
0.56538796 0.12203878 0.018476747
0.56498867 0.1215325 0.018456474
0.56458932 0.12102623 0.018436199
0.56419003 0.12051994 0.018415924
0.56379074 0.12001367 0.018395651
0.56339139 0.11950739 0.018375376
0.5629921 0.11900111 0.018355103
0.5625928 0.11849483 0.018334828
0.56147158 0.11848646 0.018800374
0.56107295 0.11798103 0.018780133
0.56067431 0.1174756 0.018759893
0.56027567 0.11697017 0.018739652
0.55987704 0.11646473 0.018719412
0.5594784 0.11595931 0.018699173
0.55836195 0.11595684 0.019164933
0.55796397 0.11545225 0.019144727
0.55756599 0.11494766 0.019124519
0.55716801 0.11444308 0.019104313
0.55677003 0.1139385 0.019084107
0.55637205 0.1134339 0.019063901
0.55597407 0.11292932 0.019043695
0.55557609 0.11242474 0.019023487
0.55517811 0.11192015 0.019003281
0.55478013 0.11141557 0.018983075
0.55438215 0.11091098 0.018962869
0.55398417 0.11040639 0.018942662
0.55358618 0.10990181 0.018922456
0.5531882 0.10939723 0.01890225
0.55349869 0.10837782 0.018395567
0.55310005 0.10787239 0.018375328
0.55340856 0.10685042 0.017868523
0.55371571 0.10582678 0.017361674
0.55402148 0.10480145 0.016854757
0.55362087 0.10429348 0.016834415
0.55322021 0.10378551 0.016814074
0.55281955 0.10327754 0.016793732
0.55312204 0.10224798 0.016286643
0.55272073 0.10173916 0.016266268
0.55231941 0.10123035 0.016245892
0.55191809 0.10072152 0.016225517
0.55221725 0.099687703 0.015718233
0.55251503 0.098652214 0.01521091
0.5521124 0.0981417 0.015190466
0.55240816 0.097103678 0.014683039
0.55200487 0.096592315 0.014662561
0.55160153 0.096080959 0.014642083
0.55119818 0.095569603 0.014621606
0.5507949 0.09505824 0.014601128
0.54969645 0.095078632 0.015067804
0.60324657 0.13376524 0.0062180166
0.60131615 0.13414235 0.0071668089
0.60241318 0.13270865 0.0061757052
0.60048544 0.13308915 0.0071246331
0.60007012 0.13256256 0.0071035451
0.59965479 0.13203596 0.0070824572
0.59923947 0.13150936 0.0070613697
0.59882408 0.13098276 0.0070402818
0.59840876 0.13045616 0.0070191938
0.59799343 0.12992957 0.0069981059
0.59682727 0.12986329 0.007462299
0.59641254 0.12933753 0.007441245
0.59524834 0.12927383 0.0079055615
0.59408545 0.12921178 0.0083699245
0.59367216 0.12868774 0.0083489381
0.5925113 0.12862822 0.0088133989
0.59135181 0.12857042 0.009277924
0.59019363 0.1285143 0.0097425235
0.5890367 0.12845992 0.010207213
0.58862603 0.12793924 0.010186363
0.58747119 0.12788735 0.010651132
0.58631772 0.12783715 0.011115966
0.58516556 0.12778866 0.011580871
0.58475685 0.12727053 0.011560122
0.58360666 0.12722461 0.012025151
0.58319867 0.12670732 0.012004436
0.58279067 0.12619004 0.011983722
0.58164316 0.12614746 0.012448863
0.58049703 0.12610659 0.01291407
0.5793522 0.1260674 0.013379341
0.57820868 0.12602991 0.013844687
0.57780337 0.12551601 0.013824107
0.57666183 0.12548108 0.014289577
0.57552171 0.12544782 0.014755092
0.5743829 0.12541626 0.015220672
0.57324541 0.12538639 0.015686322
0.57210928 0.12535821 0.016152037
0.57097441 0.12533176 0.016617849
0.57057309 0.12482294 0.016597474
0.56944031 0.12479899 0.017063359
0.56830883 0.12477674 0.017529314
0.56790882 0.12426961 0.017509006
0.56750888 0.12376249 0.017488698
0.56638008 0.12374362 0.017954784
0.56598073 0.12323734 0.017934509
0.56558144 0.12273107 0.017914234
0.56518215 0.12222479 0.017893961
0.5647828 0.1217185 0.017873686
0.56438351 0.12121223 0.017853413
0.56398416 0.12070595 0.017833138
0.56358486 0.12019967 0.017812863
0.56318557 0.11969339 0.01779259
0.56278622 0.11918711 0.017772315
0.56238693 0.11868083 0.017752042
0.56126606 0.11867216 0.018218562
0.56086743 0.11816673 0.018198321
0.56046879 0.1176613 0.018178081
0.56007016 0.11715586 0.018157842
0.55967152 0.11665043 0.0181376
0.55927289 0.116145 0.018117361
0.55815673 0.11614222 0.018584097
0.55775875 0.11563763 0.018563889
0.55736077 0.11513305 0.018543683
0.55696279 0.11462846 0.018523477
0.55656481 0.11412387 0.018503271
0.55616683 0.11361929 0.018483063
0.55576885 0.11311471 0.018462857
0.55537093 0.11261012 0.018442651
0.55497295 0.11210553 0.018422445
0.55457497 0.11160095 0.018402239
0.55417699 0.11109636 0.018382031
0.55377901 0.11059178 0.018361825
0.55338103 0.11008719 0.01834162
0.55298305 0.1095826 0.018321414
0.55258507 0.10907802 0.018301208
0.55289453 0.10805809 0.017793516
0.55320269 0.10703642 0.017285734
0.55350947 0.1060131 0.016777916
0.55310953 0.10550597 0.016757607
0.55341429 0.10448011 0.016249679
0.55301368 0.10397214 0.016229337
0.55261302 0.10346417 0.016208995
0.55291516 0.10243492 0.015700934
0.55251384 0.1019261 0.015680559
0.55211252 0.10141728 0.015660184
0.5517112 0.10090847 0.015639806
0.55201 0.099874951 0.015131548
0.55230743 0.098839775 0.01462325
0.5519048 0.098329261 0.014602806
0.55220026 0.097291544 0.014094404
0.55179691 0.096780188 0.014073926
0.55139363 0.096268833 0.014053448
0.55099028 0.09575747 0.014032971
0.55058694 0.095246114 0.014012493
0.5494889 0.095266193 0.014480145
0.60110205 0.13433582 0.0065606339
0.60068667 0.13380922 0.006539546
0.60102654 0.13282855 0.0060324427
0.59985602 0.13275602 0.0064973701
0.59944069 0.13222943 0.0064762821
0.59902531 0.13170283 0.0064551942
0.59860998 0.13117623 0.0064341063
0.59819466 0.13064964 0.0064130188
0.59777933 0.13012303 0.0063919309
0.59661347 0.13005646 0.0068570958
0.5961988 0.1295307 0.0068360418
0.5950349 0.12946668 0.0073013338
0.59387237 0.12940432 0.0077666715
0.59345907 0.12888028 0.0077456851
0.59229857 0.12882045 0.008211121
0.59113938 0.12876233 0.0086766221
0.58998156 0.1287059 0.009142193
0.58957022 0.12818439 0.009121309
0.58841431 0.12813053 0.0095870113
0.58725983 0.12807834 0.010052752
0.58610666 0.12802783 0.010518561
0.58569735 0.12750885 0.010497779
0.58454621 0.1274609 0.010963689
0.58339632 0.12741466 0.011429696
0.58298832 0.12689736 0.011408981
0.58258033 0.12638009 0.011388266
0.58143318 0.1263372 0.01185438
0.5802874 0.12629601 0.012320562
0.57988071 0.12578042 0.012299916
0.5787369 0.12574176 0.012766195
0.5775944 0.12570481 0.013232551
0.57645327 0.12566958 0.013698995
0.57531345 0.12563601 0.014165482
0.57490945 0.12512381 0.01414497
0.57377166 0.12509277 0.014611563
0.57263517 0.12506343 0.01507822
0.57150006 0.12503579 0.015544944
0.5703662 0.12500988 0.016011762
0.56923378 0.12498562 0.016478624
0.56883311 0.12447765 0.016458282
0.56770265 0.12445593 0.016925244
0.56730264 0.12394881 0.016904935
0.5669027 0.12344168 0.016884629
0.56577492 0.12342335 0.017351722
0.56537557 0.12291707 0.017331447
0.56497627 0.12241079 0.017311173
0.56457692 0.12190451 0.0172909
0.56417763 0.12139823 0.017270625
0.56377834 0.12089196 0.017250352
0.56337899 0.12038568 0.017230077
0.5629797 0.11987939 0.017209802
0.56258035 0.11937312 0.017189529
0.56218106 0.11886684 0.017169254
0.56106061 0.11885785 0.01763675
0.56066191 0.11835242 0.01761651
0.56026328 0.11784699 0.017596269
0.55986464 0.11734156 0.01757603
0.559466 0.11683612 0.017555788
0.55906737 0.1163307 0.017535549
0.55795157 0.1163276 0.018003259
0.55755359 0.11582302 0.017983053
0.55715561 0.11531843 0.017962847
0.55675763 0.11481385 0.017942641
0.55635965 0.11430926 0.017922433
0.55596167 0.11380468 0.017902227
0.55556369 0.11330009 0.017882021
0.55516571 0.1127955 0.017861815
0.55476773 0.11229092 0.017841609
0.55436975 0.11178633 0.017821401
0.55397177 0.11128175 0.017801195
0.55357379 0.11077716 0.017780989
0.55317581 0.11027258 0.017760783
0.55277783 0.10976799 0.017740577
0.55237991 0.10926341 0.01772037
0.55268902 0.10824378 0.017211704
0.55299681 0.10722243 0.016702948
0.55259752 0.10671615 0.016682673
0.55290329 0.10569229 0.016173845
0.55320776 0.10466674 0.015664944
0.55280709 0.10415877 0.015644602
0.55240643 0.10365079 0.015624261
0.55270827 0.10262186 0.015115222
0.55230695 0.10211304 0.015094846
0.55190563 0.10160422 0.01507447
0.55150431 0.1010954 0.015054095
0.55180275 0.1000622 0.014544863
0.55209988 0.099027336 0.014035591
0.55239564 0.097990774 0.01352625
0.5519923 0.097479418 0.013505772
0.55158901 0.096968062 0.013485295
0.55118567 0.096456699 0.013464817
0.55078238 0.095945343 0.013444339
0.55037904 0.095433988 0.013423862
0.60365027 0.13521001 0.0050440766
0.60323364 0.13468172 0.0050229211
0.60088789 0.13452929 0.0059544584
0.60047257 0.13400269 0.0059333704
0.60005724 0.13347609 0.005912283
0.59964192 0.1329495 0.005891195
0.59922653 0.13242291 0.0058701071
0.59881121 0.1318963 0.0058490192
0.59839588 0.13136971 0.0058279312
0.59798056 0.1308431 0.0058068438
0.59756517 0.13031651 0.0057857558
0.59639966 0.13024962 0.0062518958
0.595985 0.12972386 0.0062308419
0.59482145 0.12965953 0.006697109
0.59365928 0.12959686 0.0071634185
0.59324598 0.12907282 0.0071424325
0.59208584 0.12901269 0.0076088435
0.590927 0.12895425 0.0080753192
0.58976948 0.12889752 0.0085418662
0.58935815 0.12837599 0.0085209813
0.58820266 0.12832183 0.0089876559
0.58779198 0.12780115 0.0089668054
0.58663845 0.12774949 0.0094335554
0.58548635 0.12769952 0.0099003734
0.58433551 0.12765124 0.010367259
0.58392686 0.12713312 0.01034651
0.58277798 0.12708741 0.010813523
0.58236998 0.12657014 0.010792809
0.58122319 0.12652694 0.011259898
0.58007771 0.12648544 0.011727055
0.57967108 0.12596984 0.011706408
0.57852763 0.12593089 0.012173663
0.57738549 0.12589362 0.012640993
0.57624465 0.12585808 0.013108413
0.57510519 0.1258242 0.013575875
0.57470119 0.12531199 0.013555364
0.57356369 0.12528065 0.014022928
0.57242757 0.125251 0.01449056
0.57129282 0.12522304 0.014958259
0.57015932 0.12519681 0.015426052
0.56902719 0.12517224 0.015893888
0.56862652 0.12466428 0.015873546
0.56822592 0.1241563 0.015853204
0.56709647 0.12413512 0.016321173
0.56669647 0.123628 0.016300866
0.56629652 0.12312087 0.016280558
0.56516969 0.12310307 0.016748661
0.5647704 0.1225968 0.016728386
0.56437111 0.12209052 0.016708111
0.56397176 0.12158424 0.016687838
