# .PCD v0.7 - Point Cloud Data file format
VERSION 0.7
FIELDS x y z
SIZE 4 4 4
TYPE F F F
COUNT 1 1 1
WIDTH 1343
HEIGHT 1
VIEWPOINT 0 0 0 1 0 0 0
POINTS 1343
DATA ascii
0.58178711 -0.039006576 0.046452463
0.58120781 -0.037723318 0.046044648
0.58148652 -0.036809687 0.046032902
0.58176523 -0.035896059 0.046021156
0.58204395 -0.034982428 0.04600941
0.58232266 -0.034068797 0.045997664
0.58260137 -0.033155166 0.045985918
0.58288008 -0.032241538 0.045974173
0.58315879 -0.031327907 0.045962427
0.5834375 -0.030414278 0.045950681
0.58371621 -0.029500648 0.045938935
0.58399487 -0.028587017 0.045927189
0.58427358 -0.027673388 0.045915443
0.58455229 -0.026759757 0.045903698
0.584831 -0.025846127 0.045891952
0.58510971 -0.024932498 0.045880206
0.58538842 -0.024018867 0.04586846
0.58566713 -0.023105245 0.045856714
0.58594584 -0.022191614 0.045844968
0.58622456 -0.021277985 0.045833223
0.58565164 -0.019974066 0.045425139
0.58593071 -0.019059397 0.045413379
0.58620971 -0.018144734 0.045401622
0.58648872 -0.017230071 0.045389861
0.58676773 -0.01631541 0.045378104
0.58619672 -0.015005296 0.044969942
0.58647609 -0.014089601 0.044958167
0.58590597 -0.012776389 0.044549979
0.58618563 -0.011859654 0.044538196
0.5864653 -0.010942928 0.044526409
0.58589643 -0.0096255476 0.044118155
0.5861764 -0.0087077953 0.044106353
0.58560854 -0.0073873508 0.043698061
0.58504134 -0.0060648257 0.043289751
0.5853219 -0.0051449938 0.043277927
0.58475566 -0.0038193797 0.042869564
0.58503652 -0.0028985229 0.042857725
0.58447123 -0.0015697888 0.04244934
0.58390641 -0.00023900197 0.042040911
0.58334237 0.0010938605 0.041632455
0.58277893 0.0024287747 0.041223988
0.58221608 0.003765767 0.04081548
0.58249861 0.0046917931 0.040803578
0.58193672 0.0060318769 0.040395044
0.58221954 0.0069589424 0.040383127
0.58165854 0.0083021596 0.039974522
0.58109826 0.0096473983 0.039565925
0.58053857 0.010994731 0.039157297
0.58082235 0.011924886 0.039145339
0.58026361 0.013275322 0.038736656
0.57970548 0.01462781 0.038327936
0.57914799 0.015982376 0.037919216
0.57859117 0.017339006 0.03751047
0.578035 0.018697686 0.037101686
0.57747942 0.020058447 0.036692884
0.57692444 0.021421289 0.036284029
0.57637012 0.02278618 0.035875179
0.5766564 0.023724608 0.035863113
0.57610303 0.025092604 0.035454221
0.57638961 0.026032073 0.035442144
0.57667619 0.026971541 0.035430066
0.57612413 0.028343664 0.035021108
0.58667284 -0.049278527 0.048798148
0.58694869 -0.048374195 0.048786521
0.58636504 -0.047106545 0.048377853
0.58492273 -0.045472473 0.047572132
0.58434057 -0.044199646 0.047163397
0.58375913 -0.042924769 0.046754654
0.58403659 -0.042015269 0.046742961
0.58345604 -0.040737286 0.046334174
0.5837338 -0.039826762 0.046322469
0.5831542 -0.038545668 0.045913629
0.58343232 -0.037634104 0.045901909
0.58371037 -0.036722545 0.04589019
0.58398843 -0.035810981 0.04587847
0.58426654 -0.034899417 0.04586675
0.5845446 -0.033987857 0.04585503
0.58482265 -0.033076294 0.045843311
0.58510077 -0.032164726 0.045831595
0.58537883 -0.03125317 0.045819875
0.58565694 -0.030341605 0.045808155
0.585935 -0.029430039 0.045796435
0.58621305 -0.028518481 0.045784716
0.58649117 -0.027606916 0.045772996
0.58676922 -0.02669535 0.045761276
0.58704728 -0.025783792 0.04574956
0.58732539 -0.024872229 0.04573784
0.58675116 -0.023573576 0.045328788
0.58702958 -0.022660978 0.045317054
0.58730793 -0.021748381 0.045305323
0.58758634 -0.020835783 0.045293592
0.5878647 -0.019923193 0.045281857
0.58814311 -0.019010596 0.045270126
0.58757102 -0.017704694 0.044860967
0.58784974 -0.016791064 0.044849221
0.58727866 -0.015482066 0.044440035
0.58755773 -0.014567404 0.044428274
0.58698761 -0.013255318 0.044019036
0.58726692 -0.012339616 0.044007264
0.58754629 -0.011423921 0.043995492
0.58697742 -0.010107697 0.043586213
0.58725709 -0.0091909701 0.04357443
0.58668911 -0.007871625 0.043165095
0.5861218 -0.0065502315 0.042755753
0.58640206 -0.0056314389 0.04274394
0.58668238 -0.0047126329 0.042732127
0.58611637 -0.0033871096 0.042322729
0.58555096 -0.002059523 0.041913293
0.58498621 -0.00072985585 0.041503843
0.58442199 0.00060187839 0.041094348
0.58385849 0.0019356752 0.040684845
0.58329564 0.0032715355 0.040275302
0.58357781 0.0041965367 0.040263411
0.58301586 0.0055355025 0.039853841
0.58245456 0.0068765194 0.039444242
0.58189386 0.0082196463 0.039034605
0.58217698 0.0091477372 0.039022673
0.5816173 0.010493922 0.038612995
0.5810582 0.011842188 0.038203321
0.58049971 0.013192531 0.037793588
0.57994187 0.014544928 0.037383832
0.57938462 0.015899401 0.036974061
0.5788281 0.017255941 0.036564268
0.57827216 0.018614529 0.03615443
0.57771683 0.019975197 0.035744581
0.57716209 0.021337947 0.035334691
0.57660806 0.022702746 0.034924787
0.57689434 0.023641175 0.034912724
0.57634127 0.025009077 0.034502782
0.57662785 0.025948547 0.034490705
0.57691443 0.026888017 0.034478623
0.57636261 0.028260048 0.034068629
0.58834678 -0.05098353 0.048689999
0.58862203 -0.050081272 0.048678398
0.58803767 -0.048816815 0.04826875
0.5874539 -0.047550265 0.047859043
0.58687079 -0.046281684 0.047449328
0.58628833 -0.045011029 0.047039583
0.58570647 -0.043738294 0.046629816
0.58598328 -0.042830866 0.046618149
0.58540231 -0.041555032 0.046208322
0.58567947 -0.040646564 0.046196643
0.58509952 -0.039367642 0.045786794
0.58537698 -0.03845815 0.045775101
0.58565438 -0.03754865 0.045763411
0.58593184 -0.036639154 0.045751717
0.5862093 -0.035729662 0.045740023
0.58648676 -0.034820162 0.045728333
0.58676422 -0.033910669 0.04571664
0.58704162 -0.033001177 0.045704946
0.58731908 -0.032091677 0.045693252
0.58759654 -0.031182183 0.045681562
0.587874 -0.030272683 0.045669869
0.58815145 -0.029363189 0.045658175
0.58842885 -0.028453697 0.045646485
0.58785331 -0.027160298 0.045236446
0.58813107 -0.026249774 0.045224741
0.58840889 -0.02533924 0.045213036
0.58868665 -0.024428716 0.045201331
0.5889644 -0.023518182 0.045189623
0.58839077 -0.022218583 0.044779509
0.58866882 -0.021307018 0.04476779
0.58894688 -0.02039546 0.04475607
0.58922499 -0.019483896 0.04474435
0.58865291 -0.018179134 0.044334169
0.58893132 -0.017266536 0.044322439
0.58836013 -0.015958661 0.043912198
0.58863884 -0.015045032 0.043900456
0.58806866 -0.013734062 0.043490194
0.58834767 -0.012819393 0.043478433
0.58862668 -0.01190473 0.043466676
0.58805782 -0.010589631 0.043056361
0.58833712 -0.0096739428 0.043044589
0.58776915 -0.008355746 0.042634234
0.58720177 -0.0070354538 0.042223837
0.58748174 -0.0061176871 0.042212039
0.5877617 -0.0051999204 0.042200241
0.58719563 -0.0038755289 0.041789804
0.58663017 -0.0025490583 0.041379344
0.58606535 -0.0012205373 0.040968858
0.58550119 0.00011007711 0.040558342
0.58493757 0.00144276 0.040147804
0.58437467 0.0027774887 0.039737221
0.58465648 0.0037014501 0.039725341
0.58409452 0.0050392984 0.039314736
0.58353317 0.0063791978 0.038904101
0.58297247 0.0077211633 0.038493458
0.5824123 0.009065222 0.038082741
0.58185285 0.010411316 0.037672028
0.58129406 0.01175949 0.037261304
0.58157778 0.012689659 0.037249345
0.58101988 0.014040937 0.036838565
0.58046257 0.01539428 0.036427729
0.57990599 0.016749689 0.036016911
0.57934999 0.018107174 0.035606049
0.57879466 0.019466696 0.035195164
0.57823992 0.020828312 0.034784254
0.57768577 0.022192011 0.034373298
0.57713228 0.023557741 0.033962332
0.57657945 0.024925552 0.033551339
0.57686603 0.02586502 0.033539262
0.57715261 0.02680449 0.033527184
0.57660109 0.028176431 0.033116139
0.58916062 -0.05232501 0.048186921
0.58943552 -0.051423784 0.048175335
0.58971047 -0.050522551 0.048163749
0.58912605 -0.049259227 0.047753047
0.58854228 -0.047993828 0.047342334
0.58795905 -0.046726342 0.046931569
0.58737653 -0.045456812 0.046520788
0.58765268 -0.044551451 0.046509147
0.58707112 -0.043278821 0.04609834
0.58734763 -0.042372424 0.046086688
0.58762413 -0.041466027 0.046075035
0.58704382 -0.040189259 0.045664161
0.58732063 -0.03928183 0.045652498
0.58759743 -0.038374402 0.04564083
0.58787429 -0.037466973 0.045629166
0.5881511 -0.036559545 0.045617498
0.5884279 -0.035652116 0.045605835
0.58870471 -0.034744687 0.045594167
0.58898151 -0.033837259 0.045582499
0.58925837 -0.03292983 0.045570835
0.58953518 -0.032022394 0.045559168
0.58981198 -0.031114968 0.045547504
0.58923537 -0.02982579 0.045136455
0.58951253 -0.028917329 0.045124777
0.58978963 -0.028008861 0.045113098
0.59006679 -0.027100401 0.045101415
0.58949184 -0.025806069 0.044690333
0.58976924 -0.02489657 0.04467864
0.5900467 -0.023987075 0.044666946
0.58947301 -0.022688609 0.044255797
0.58975077 -0.021778077 0.044244088
0.59002852 -0.020867551 0.044232383
0.59030628 -0.019957017 0.044220679
0.5897342 -0.018653374 0.043809459
0.59001225 -0.017741816 0.043797739
0.58944106 -0.016435076 0.043386482
0.58971947 -0.015522478 0.043374747
0.58914918 -0.014212631 0.042963434
0.58942789 -0.013299 0.042951688
0.5897066 -0.01238537 0.042939942
0.58913761 -0.011071394 0.042528607
0.58941668 -0.010156732 0.042516846
0.58969569 -0.009242055 0.042505089
0.58912796 -0.0079239504 0.042093683
0.58856094 -0.0066037816 0.041682255
0.58884054 -0.0056870542 0.041670468
0.58827436 -0.0043637636 0.04125898
0.58770889 -0.0030384238 0.040847499
0.58714402 -0.0017110059 0.040435974
0.58657974 -0.00038153745 0.040024422
0.58601618 0.00095001009 0.039612845
0.58545315 0.0022836402 0.039201241
0.58573467 0.0032065623 0.039189376
0.58517265 0.0045432788 0.038777731
0.58461124 0.0058820606 0.038366061
0.58405048 0.0072228932 0.037954364
0.58349031 0.0085658059 0.037542656
0.58293074 0.0099108126 0.037130892
0.58237189 0.011257839 0.036719114
0.58181363 0.012606961 0.036307324
0.58125603 0.013958146 0.035895497
0.58069897 0.015311399 0.035483625
0.58014262 0.016666714 0.035071757
0.57958692 0.018024109 0.034659848
0.57903183 0.019383539 0.034247909
0.57847732 0.020745063 0.033835962
0.57792342 0.022108668 0.033423956
0.57737023 0.023474308 0.033011943
0.57765651 0.024412738 0.032999877
0.57710427 0.025781495 0.032587823
0.57739085 0.026720965 0.032575745
0.57683951 0.028092815 0.032163661
0.57712644 0.029033322 0.032151572
0.58969992 -0.054564439 0.047697477
0.58997452 -0.053664245 0.047685903
0.59024918 -0.052764051 0.047674332
0.59052378 -0.051863853 0.047662757
0.589939 -0.050602674 0.047251035
0.59021389 -0.049701449 0.047239445
0.58963007 -0.048437178 0.046827696
0.58904684 -0.047170844 0.046415921
0.58932239 -0.046267547 0.04640431
0.58874011 -0.044998091 0.045992464
0.58901596 -0.044093758 0.045980837
0.58929181 -0.043189429 0.045969211
0.58956772 -0.042285103 0.045957584
0.58898699 -0.041010495 0.04554569
0.5892632 -0.040105134 0.045534048
0.58953941 -0.039199777 0.04552241
0.58981556 -0.038294412 0.045510769
0.59009176 -0.037389051 0.045499131
0.59036797 -0.036483686 0.04548749
0.59064412 -0.035578329 0.045475852
0.59006596 -0.034295455 0.045063864
0.59034246 -0.033389058 0.045052212
0.59061897 -0.032482665 0.045040559
0.59089547 -0.031576268 0.045028906
0.59117198 -0.030669872 0.04501725
0.59059572 -0.029380787 0.044605184
0.59087253 -0.028473359 0.044593517
0.59114933 -0.027565932 0.044581853
0.59142613 -0.026658503 0.044570185
0.59085137 -0.025364248 0.044158019
0.59112853 -0.02445578 0.04414634
0.59055477 -0.023158437 0.043734167
0.59083223 -0.022248944 0.043722473
0.59110969 -0.02133945 0.043710783
0.59138709 -0.02042995 0.043699089
0.59081495 -0.019127445 0.043286834
0.59109271 -0.018216914 0.043275129
0.59052145 -0.016911296 0.042862833
0.59079957 -0.015999731 0.042851113
0.59022927 -0.014691024 0.042438794
0.59050769 -0.013778427 0.042427059
0.59078604 -0.012865829 0.042415328
0.59021699 -0.011552961 0.042002939
0.59049571 -0.010639338 0.041991193
0.59077442 -0.0097257011 0.041979447
0.59020662 -0.0084087141 0.041567005
0.58963948 -0.0070896759 0.041154537
0.58991885 -0.0061739739 0.041142765
0.58935267 -0.0048518307 0.040730271
0.58878708 -0.0035275917 0.040317737
0.58822215 -0.0022013057 0.039905176
0.58765781 -0.00087296765 0.039492603
0.58709419 0.00045744816 0.03907999
0.58653116 0.0017899444 0.038667362
0.58681238 0.0027118409 0.038655512
0.58625025 0.0040474427 0.038242813
0.58568877 0.0053850939 0.037830122
0.58512795 0.0067248084 0.037417389
0.58456779 0.0080665881 0.037004627
0.58400822 0.0094104484 0.036591854
0.58344918 0.010756389 0.03617904
0.58289093 0.012104364 0.035766203
0.58233327 0.013454433 0.035353348
0.5817762 0.014806551 0.034940455
0.58121973 0.016160753 0.034527536
0.58066398 0.017517015 0.034114603
0.58010882 0.018875342 0.033701632
0.57955432 0.020235719 0.033288632
0.57900041 0.021598179 0.03287562
0.5784471 0.02296273 0.032462552
0.57789445 0.024329305 0.032049488
0.57734245 0.025697971 0.031636395
0.57762903 0.026637441 0.031624317
0.57707798 0.028009197 0.031211171
0.57736492 0.028949704 0.031199081
0.5905143 -0.055900384 0.047198504
0.59164906 -0.055357989 0.047588095
0.591923 -0.054459859 0.047576547
0.59133714 -0.053202897 0.047163825
0.59075201 -0.051943887 0.046751093
0.5910266 -0.051043693 0.046739519
0.5913012 -0.050143499 0.046727948
0.59157586 -0.049243305 0.046716373
0.59099227 -0.04797912 0.046303574
0.59126717 -0.047077894 0.046291988
0.59068453 -0.045810614 0.045879133
0.59095979 -0.044908352 0.045867532
0.59123504 -0.044006094 0.045855936
0.5915103 -0.043103829 0.045844335
0.59092921 -0.041831382 0.045431443
0.59120476 -0.040928092 0.045419831
0.59148031 -0.040024795 0.045408219
0.59090048 -0.03874819 0.04499523
0.59117633 -0.037843864 0.044983603
0.59145224 -0.036939535 0.044971976
0.59172809 -0.036035202 0.04496035
0.59200394 -0.035130881 0.044948723
0.59227985 -0.034226548 0.044937097
0.5925557 -0.033322226 0.044925474
0.59283155 -0.032417893 0.044913847
0.59225464 -0.031132013 0.044500768
0.59167832 -0.029844061 0.044087663
0.59195477 -0.028937664 0.044076011
0.59223127 -0.028031269 0.044064358
0.59250778 -0.027124872 0.044052705
0.59193307 -0.025831752 0.043639518
0.59220988 -0.024924325 0.043627851
0.591636 -0.023628088 0.043214627
0.59191316 -0.022719627 0.043202944
0.59219027 -0.021811167 0.043191265
0.59246743 -0.020902706 0.043179587
0.59189516 -0.019601317 0.04276631
0.59217262 -0.018691825 0.042754617
0.59160131 -0.01738734 0.042341299
0.59187907 -0.016476806 0.042329594
0.59130877 -0.015169218 0.041916221
0.59158683 -0.014257653 0.041904502
0.59186494 -0.013346087 0.041892782
0.592143 -0.012434529 0.041881062
0.59157425 -0.011121777 0.041467641
0.59185261 -0.010209179 0.041455906
0.59128475 -0.0088933064 0.041042428
0.59071755 -0.0075753708 0.040628936
0.59099662 -0.0066607087 0.040617179
0.59043038 -0.0053396979 0.040203635
0.58986473 -0.0040166075 0.039790075
0.58929974 -0.002691421 0.039376479
0.5887354 -0.0013642018 0.038962852
0.58817166 -3.4915152e-05 0.038549233
0.58760858 0.0012964481 0.038135555
0.58788949 0.0022173051 0.038123716
0.58732736 0.003551774 0.037710011
0.58676583 0.0048883241 0.037296269
0.58620495 0.006226907 0.036882497
0.58564466 0.0075675705 0.036468714
0.58508503 0.0089102993 0.036054906
0.58452606 0.010255092 0.03564107
0.58396769 0.01160198 0.035227176
0.58340997 0.012950903 0.034813289
0.58285284 0.014301904 0.034399372
0.58229637 0.015654972 0.033985429
0.5817405 0.017010104 0.033571433
0.58118528 0.0183673 0.033157438
0.58063072 0.019726576 0.032743413
0.58007675 0.021087902 0.032329366
0.57952344 0.022451295 0.031915292
0.57897073 0.023816794 0.031501159
0.57841867 0.025184315 0.031087032
0.57786727 0.026553914 0.030672876
0.57731646 0.027925579 0.030258695
0.5776034 0.028866088 0.030246604
0.57789028 0.029806582 0.030234514
0.59078085 -0.059030347 0.046724714
0.5910548 -0.058132216 0.04671317
0.5913288 -0.05723409 0.046701621
0.5916028 -0.056335967 0.046690077
0.59187675 -0.055437837 0.046678528
0.59215075 -0.054539707 0.046666984
0.59242469 -0.053641584 0.046655435
0.59183943 -0.052383684 0.046241652
0.59211373 -0.051484521 0.046230093
0.59238803 -0.050585359 0.046218533
0.59266233 -0.049686201 0.046206973
0.59207869 -0.048423145 0.045793135
0.59235328 -0.047522951 0.045781564
0.59177065 -0.046256796 0.045367688
0.59204555 -0.045355566 0.045356099
0.5923205 -0.044454332 0.045344513
0.5925954 -0.043553106 0.045332927
0.59287035 -0.042651881 0.045321342
0.59314525 -0.041750655 0.045309756
0.59256476 -0.040477268 0.044895787
0.59284002 -0.039575003 0.044884186
0.59311527 -0.038672745 0.044872586
0.59339046 -0.037770484 0.044860985
0.59281158 -0.036491923 0.044446949
0.59308714 -0.035588633 0.044435337
0.59336269 -0.03468534 0.044423725
0.59363824 -0.033782043 0.044412114
0.59391379 -0.032878749 0.044400498
0.59333676 -0.031593964 0.043986369
0.59361261 -0.03068964 0.043974742
0.59388846 -0.029785309 0.043963116
0.59331274 -0.028496416 0.043548949
0.59358895 -0.027591061 0.043537308
0.59301412 -0.026299071 0.0431231
0.59329063 -0.025392674 0.043111447
0.59271675 -0.024097573 0.042697199
0.59299356 -0.023190144 0.042685531
0.59327042 -0.022282716 0.042673867
0.59354722 -0.021375287 0.0426622
0.5929749 -0.020075008 0.042247869
0.593252 -0.019166546 0.04223619
0.59268069 -0.017863186 0.041821837
0.59295815 -0.016953692 0.041810144
0.59238774 -0.015647234 0.04139575
0.59266549 -0.014736702 0.041384045
0.59294325 -0.013826176 0.041372336
0.59322101 -0.012915643 0.041360632
0.5926522 -0.011604002 0.040946171
0.59293032 -0.010692444 0.040934451
0.5923624 -0.0093777189 0.040519953
0.59179515 -0.0080608977 0.04010541
0.59207386 -0.0071472754 0.040093664
0.59150755 -0.0058273668 0.039679095
0.59094191 -0.004505408 0.0392645
0.59037685 -0.0031813697 0.038849883
0.5898124 -0.0018552502 0.038435221
0.58924866 -0.00052709662 0.038020547
0.58868551 0.00080313609 0.037605844
0.58812296 0.0021354337 0.037191119
0.58756113 0.0034698104 0.036776368
0.58699983 0.0048062685 0.036361571
0.58643919 0.0061447606 0.035946764
0.58587921 0.007485332 0.035531931
0.58531988 0.0088279676 0.035117071
0.58476114 0.010172669 0.034702186
0.584203 0.011519466 0.034287259
0.58364552 0.012868296 0.033872321
0.5830887 0.014219206 0.033457354
0.58253253 0.015572181 0.03304236
0.58197689 0.016927222 0.032627329
0.58142191 0.018284326 0.032212283
0.58086765 0.01964351 0.031797212
0.58031392 0.021004744 0.03138211
0.57976091 0.022368044 0.030966986
0.57920843 0.023733452 0.030551819
0.57865661 0.025100881 0.030136641
0.57810545 0.026470389 0.029721437
0.57755494 0.027841961 0.029306205
0.57784188 0.02878247 0.029294113
0.57812876 0.029722964 0.029282022
0.57841569 0.030663474 0.029269932
0.59104872 -0.062153917 0.046252932
0.59132236 -0.061256818 0.046241399
0.59159601 -0.060359728 0.046229865
0.59186971 -0.059462633 0.046218332
0.59214336 -0.058565542 0.046206798
0.592417 -0.057668444 0.046195265
0.59269071 -0.056771357 0.046183731
0.59296435 -0.055874258 0.046172198
0.593238 -0.054977167 0.046160664
0.5935117 -0.054080073 0.046149131
0.59292644 -0.052823305 0.045734324
0.59320039 -0.051925175 0.045722779
0.59347439 -0.051027056 0.04571123
0.59374833 -0.050128926 0.045699686
0.59402233 -0.049230795 0.045688137
0.59343892 -0.047967818 0.045273237
0.59371322 -0.047068663 0.045261677
0.59398752 -0.046169501 0.045250118
0.59340537 -0.044902403 0.044835191
0.59368002 -0.044002209 0.04482362
0.59395462 -0.043102015 0.044812046
0.59422922 -0.042201821 0.044800475
0.59450382 -0.041301627 0.044788901
0.59392363 -0.040028326 0.044373881
0.59419852 -0.0391271 0.044362295
0.59447348 -0.038225867 0.04435071
0.59474838 -0.037324637 0.04433912
0.59502333 -0.036423411 0.044327535
0.59444499 -0.035143919 0.043912437
0.59472024 -0.03424165 0.043900836
0.59499544 -0.033339392 0.043889236
0.59441841 -0.032055762 0.043474086
0.59469396 -0.03115247 0.043462474
0.59496951 -0.030249171 0.043450858
0.59439367 -0.028961387 0.043035638
0.59466952 -0.028057056 0.043024011
0.59409469 -0.02676619 0.042608768
0.59437084 -0.025860827 0.042597126
0.59379697 -0.024566863 0.042181857
0.59407347 -0.023660466 0.042170204
0.59434992 -0.022754071 0.042158552
0.59462643 -0.021847675 0.042146899
0.5940541 -0.020548536 0.041731548
0.59433091 -0.019641107 0.04171988
0.59375948 -0.018338855 0.041304473
0.59403664 -0.017430395 0.041292794
0.59346616 -0.016125059 0.040877379
0.59374362 -0.015215559 0.040865686
0.59402108 -0.014306066 0.040853992
0.59429854 -0.013396566 0.040842302
0.59372967 -0.01208607 0.040426802
0.5931614 -0.010773487 0.040011279
0.59259379 -0.0094588548 0.039595727
0.5928722 -0.0085462574 0.039583996
0.59230548 -0.0072285025 0.039168403
0.59173948 -0.0059086862 0.038752787
0.59117407 -0.0045868196 0.038337141
0.59060931 -0.0032628735 0.037921473
0.59004509 -0.0019368463 0.037505761
0.59032506 -0.0010190937 0.037493963
0.58976191 0.00031002151 0.037078224
0.5891993 0.0016411886 0.036662474
0.58863741 0.0029744336 0.036246683
0.58807611 0.0043097432 0.03583087
0.58751535 0.0056471359 0.035415024
0.58695531 0.0069865752 0.034999155
0.58639592 0.0083280941 0.034583259
0.58583719 0.0096716629 0.034167334
0.58527899 0.011017312 0.033751402
0.58472145 0.012365042 0.03333541
0.58332455 0.014136507 0.032515336
0.58276862 0.01548939 0.032099292
0.58221322 0.01684434 0.03168321
0.58165854 0.018201353 0.031267129
0.58110452 0.019560443 0.030851007
0.58055109 0.020921586 0.030434858
0.57999831 0.022284795 0.030018697
0.57944614 0.023650112 0.029602479
0.57889456 0.025017448 0.029186251
0.57834369 0.026386864 0.028770011
0.57779342 0.027758345 0.028353728
0.57808036 0.028698854 0.028341638
0.57836723 0.029639348 0.028329546
0.57865411 0.030579858 0.028317455
0.5933162 -0.065069377 0.046579946
0.59358889 -0.064175382 0.046568453
0.59386164 -0.063281395 0.046556961
0.59413433 -0.062387399 0.046545468
0.59440708 -0.061493408 0.046533972
0.5938189 -0.060247071 0.046118248
0.59409195 -0.059352048 0.046106745
0.59350473 -0.058102611 0.045690995
0.59377807 -0.057206556 0.045679472
0.59405142 -0.05631049 0.045667954
0.59432477 -0.055414435 0.045656435
0.59459811 -0.054518368 0.045644913
0.59487146 -0.053622313 0.045633394
0.59514481 -0.052726254 0.045621872
0.59456015 -0.051468555 0.045206003
0.59483379 -0.050571457 0.045194469
0.59510744 -0.049674362 0.045182936
0.59452403 -0.048412524 0.044767015
0.59479803 -0.047514394 0.044755466
0.59507203 -0.046616264 0.044743922
0.59534597 -0.045718137 0.044732373
0.59561998 -0.044820014 0.044720829
0.59589392 -0.043921884 0.04470928
0.59531265 -0.042652797 0.044293266
0.59558696 -0.041753635 0.044281706
0.59586126 -0.04085448 0.044270143
0.59613556 -0.039955318 0.044258583
0.59640986 -0.039056156 0.044247024
0.5958305 -0.037780881 0.043830942
0.5961051 -0.036880687 0.043819372
0.59637976 -0.035980493 0.043807797
0.59580165 -0.034701087 0.043391649
0.59607661 -0.033799857 0.043380063
0.59549946 -0.032517351 0.042963874
0.59577471 -0.031615093 0.042952273
0.59604996 -0.030712826 0.042940672
0.59547412 -0.029426189 0.042524446
0.59574968 -0.02852289 0.042512834
0.59517473 -0.027233126 0.042096537
0.59545058 -0.026328802 0.04208491
0.59487659 -0.025035955 0.041668601
0.5951528 -0.0241306 0.041656964
0.595429 -0.023225237 0.041645322
0.59570515 -0.022319872 0.041633684
0.59513277 -0.021021863 0.041217308
0.59540927 -0.020115469 0.041205656
0.59483784 -0.018814357 0.040789228
0.59511465 -0.017906921 0.04077756
0.59454411 -0.016602695 0.04036108
0.59482121 -0.015694235 0.040349398
0.59509838 -0.014785774 0.040337719
0.59452915 -0.013477427 0.039921213
0.59480655 -0.01256794 0.039909519
0.59423828 -0.01125649 0.039492961
0.59367061 -0.009942974 0.039076388
0.59394872 -0.0090314019 0.039064668
0.593382 -0.0077147963 0.038648039
0.59281588 -0.0063960939 0.038231384
0.59225041 -0.0050753448 0.037814703
0.59168559 -0.0037525306 0.037397996
0.59112138 -0.0024276501 0.036981277
0.59055781 -0.0011006885 0.036564514
0.58999485 0.00022833451 0.036147729
0.58943254 0.0015594094 0.035730928
0.58887088 0.0028925622 0.035314091
0.58830988 0.0042277798 0.034897223
0.58774942 0.0055650799 0.03448033
0.58718961 0.0069044274 0.03406341
0.58663046 0.0082458546 0.033646476
0.58607197 0.0095893322 0.033229504
0.58551407 0.010934889 0.032812517
0.58495677 0.012282527 0.032395478
0.58356041 0.014053809 0.031573318
0.58300471 0.0154066 0.03115624
0.58244962 0.016761458 0.030739106
0.58189523 0.01811838 0.030321974
0.58134145 0.019477379 0.029904801
0.58078825 0.020838428 0.029487602
0.58023572 0.022201544 0.029070392
0.57968378 0.023566769 0.028653139
0.57913256 0.024934014 0.02823586
0.57858187 0.026303338 0.02781857
0.5780319 0.027674727 0.027401237
0.57831877 0.028615236 0.027389146
0.5777697 0.029989731 0.026971759
0.57805693 0.030931264 0.026959656
0.59612948 -0.066190124 0.046890184
0.59640121 -0.065299228 0.046878729
0.59667301 -0.06440834 0.046867277
0.59608352 -0.063167267 0.046450585
0.59549469 -0.061924126 0.046033863
0.59490645 -0.060678892 0.045617089
0.5951792 -0.0597849 0.045605592
0.59459192 -0.058536597 0.045188807
0.59486496 -0.057641566 0.0451773
0.59513795 -0.056746539 0.045165796
0.595411 -0.055851515 0.045154288
0.59568405 -0.054956488 0.045142781
0.5959571 -0.054061458 0.045131274
0.59623009 -0.053166434 0.045119766
0.59564537 -0.051909856 0.044702876
0.59591872 -0.051013798 0.044691354
0.59619206 -0.050117735 0.044679835
0.59646541 -0.049221676 0.044668317
0.59673876 -0.048325621 0.044656795
0.5970121 -0.047429554 0.044645276
0.59728545 -0.046533499 0.044633757
0.5975588 -0.04563744 0.044622235
0.59697694 -0.044371556 0.044205222
0.59725058 -0.043474469 0.044193689
0.59752423 -0.042577371 0.044182159
0.59779787 -0.041680284 0.044170626
0.59721756 -0.040409226 0.043753531
0.59749156 -0.039511103 0.043741986
0.59776556 -0.038612973 0.043730438
0.59718645 -0.037337776 0.043313291
0.59746069 -0.036438614 0.043301731
0.59688258 -0.035160333 0.042884558
0.59715718 -0.034260139 0.042872988
0.59658003 -0.032978751 0.042455759
0.59685498 -0.032077525 0.042444173
0.59712988 -0.031176297 0.042432588
0.59655398 -0.029890785 0.042015322
0.59682924 -0.028988525 0.042003725
0.59625423 -0.027699908 0.041586418
0.59652984 -0.026796609 0.041574806
0.59595573 -0.02550487 0.041157447
0.59623158 -0.024600547 0.04114582
0.59650749 -0.023696216 0.041134194
0.59678334 -0.022791885 0.041122567
0.5962109 -0.021495003 0.040705144
0.5964871 -0.020589646 0.040693503
0.59591562 -0.019289657 0.040276051
0.59619212 -0.018383263 0.040264398
0.59646863 -0.017476866 0.040252745
0.59589839 -0.016172741 0.039835244
0.59532869 -0.014866543 0.039417684
0.59560585 -0.013958082 0.039406005
0.59503716 -0.012648801 0.038988434
0.59446919 -0.011337442 0.038570836
0.59474695 -0.01042691 0.038559131
0.59417987 -0.0091124475 0.038141478
0.59445792 -0.0082008895 0.038129762
0.5938918 -0.0068833353 0.037712082
0.59332621 -0.0055636996 0.037294365
0.59276134 -0.0042420016 0.036876634
0.59219712 -0.0029182546 0.036458865
0.5916335 -0.0015924268 0.036041081
0.59107047 -0.00026451773 0.035623256
0.5905081 0.0010654384 0.035205405
0.58994639 0.0023974606 0.034787543
0.58938527 0.0037315476 0.034369655
0.58882487 0.005067714 0.033951741
0.58742392 0.0068222806 0.033127677
0.58686501 0.0081636161 0.032709695
0.58630675 0.0095070004 0.032291673
0.58574915 0.010852466 0.031873636
0.58519208 0.012200013 0.031455558
0.58463573 0.013549606 0.031037457
0.58324087 0.015323809 0.030213172
0.58268601 0.016678575 0.029795002
0.58213186 0.018035404 0.02937682
0.58157831 0.019394312 0.028958598
0.58102542 0.02075527 0.028540364
0.58047318 0.022118295 0.028122101
0.57992148 0.023483427 0.027703784
0.5793705 0.024850581 0.02728547
0.57882011 0.026219813 0.026867129
0.57827038 0.027591109 0.026448762
0.57772118 0.028964488 0.026030337
0.5771727 0.030339928 0.025611917
0.57746029 0.031282503 0.025599798
0.57607764 0.033096991 0.024774982
0.59839952 -0.069085903 0.047229536
0.59867036 -0.068198115 0.047218122
0.59807926 -0.06696333 0.046800457
0.59835041 -0.066074505 0.046789031
0.5977602 -0.064836614 0.046371311
0.59717065 -0.063596651 0.045953579
0.59658182 -0.062354639 0.045535825
0.59685385 -0.061462712 0.045524359
0.59626591 -0.060217597 0.04510656
0.59653831 -0.059324637 0.045095082
0.59681076 -0.058431678 0.045083601
0.59708315 -0.057538718 0.04507212
0.59735554 -0.056645758 0.045060642
0.59762794 -0.055752799 0.045049161
0.59704214 -0.054500427 0.044631254
0.59731489 -0.053606436 0.044619761
0.59758759 -0.05271244 0.044608269
0.59786034 -0.051818449 0.044596776
0.59813303 -0.050924458 0.044585284
0.59840572 -0.050030459 0.044573788
0.59867847 -0.049136464 0.044562295
0.59895116 -0.048242472 0.044550803
0.59922391 -0.047348481 0.04453931
0.59864134 -0.046085794 0.044121288
0.59891433 -0.04519077 0.04410978
0.59918737 -0.044295743 0.044098273
0.59860605 -0.043028921 0.043680198
0.5988794 -0.042132866 0.043668676
0.59829903 -0.040862944 0.043250561
0.59857267 -0.039965853 0.043239027
0.59884638 -0.039068758 0.043227497
0.59912002 -0.03817166 0.043215964
0.5985412 -0.036896572 0.042797782
0.59796298 -0.0356194 0.042379558
0.59823728 -0.034720238 0.042367999
0.59766006 -0.033439979 0.041949749
0.59793466 -0.032539785 0.041938175
0.59820926 -0.031639591 0.041926604
0.5976333 -0.030355196 0.041508302
0.59790826 -0.029453969 0.041496716
0.59733325 -0.028166478 0.041078359
0.59760851 -0.027264219 0.041066758
0.59703439 -0.025973627 0.040648393
0.59730995 -0.025070336 0.040636778
0.5975855 -0.024167037 0.040625166
0.59701264 -0.022872286 0.040206715
0.59728855 -0.021967962 0.040195089
0.59671664 -0.02067014 0.039776601
0.59614545 -0.019370243 0.039358117
0.5964219 -0.018463846 0.039346464
0.5966984 -0.017557452 0.039334811
0.59612846 -0.016253417 0.038916256
0.59640527 -0.01534599 0.038904589
0.59583622 -0.014038851 0.038485967
0.59611332 -0.013130383 0.038474288
0.59554523 -0.011820154 0.03805567
0.5949778 -0.010507863 0.037636992
0.59525555 -0.0095973304 0.037625287
0.59468907 -0.0082819331 0.037206586
0.59496713 -0.0073703751 0.037194867
0.5944016 -0.0060518738 0.036776129
0.59383661 -0.004731291 0.036357347
0.59327233 -0.0034086602 0.035938554
0.59270865 -0.0020839642 0.035519734
0.59214562 -0.00075720344 0.035100888
0.59158313 0.00057165301 0.034681998
0.59102136 0.0019025578 0.0342631
0.59046024 0.0032355131 0.033844173
0.58989972 0.0045705475 0.033425219
0.58849895 0.0063239057 0.032599084
0.58709955 0.0080813775 0.031772912
0.58654159 0.0094246697 0.031353839
0.58598423 0.010770044 0.03093477
0.5854274 0.012117499 0.030515641
0.58487135 0.013467 0.030096488
0.58347696 0.015241018 0.029270103
0.5829224 0.016595693 0.028850883
0.58236849 0.017952431 0.028431665
0.58181524 0.019311246 0.028012393
0.58126259 0.020672113 0.027593108
0.58071059 0.022035044 0.027173797
0.58015919 0.023400085 0.026754444
0.57960844 0.024767147 0.026335079
0.57905829 0.026136287 0.025915688
0.57850885 0.027507491 0.025496271
0.57712418 0.029313553 0.024669457
0.57657629 0.030689942 0.024249975
0.57769924 0.031198701 0.024645222
0.57798678 0.032141261 0.024633104
0.59953862 -0.072511673 0.047179136
0.59980881 -0.071625948 0.047167748
0.600079 -0.07074023 0.047156364
0.60034919 -0.069854505 0.047144976
0.59975743 -0.068622909 0.046726316
0.60002792 -0.067736149 0.046714917
0.59943712 -0.066501461 0.046296202
0.59884691 -0.065264702 0.04587746
0.5982573 -0.064025864 0.045458678
0.59852874 -0.063136011 0.045447238
0.59794009 -0.061894078 0.045028433
0.59821188 -0.061003182 0.045016978
0.59848368 -0.060112286 0.045005526
0.59875542 -0.059221398 0.044994071
0.59902722 -0.058330506 0.044982616
0.59929895 -0.057439618 0.044971164
0.59957075 -0.056548722 0.044959709
0.59898466 -0.05529853 0.044540796
0.59925675 -0.054406602 0.04452933
0.59952879 -0.053514674 0.044517864
0.59980088 -0.052622754 0.044506397
0.60007298 -0.051730826 0.044494931
0.59948879 -0.050474435 0.044075951
0.59976119 -0.049581476 0.044064473
0.60003358 -0.048688516 0.044052992
0.60030597 -0.047795553 0.044041511
0.60057837 -0.046902593 0.044030033
0.60085076 -0.046009634 0.044018552
0.60026872 -0.044745985 0.043599449
0.60054147 -0.04385199 0.043587957
0.59996039 -0.042585261 0.043168832
0.60023344 -0.041690238 0.043157324
0.5996533 -0.040420409 0.042738158
0.59992665 -0.03952435 0.04272664
0.6002 -0.038628288 0.042715121
0.59962118 -0.037354328 0.042295899
0.59904295 -0.036078293 0.041876655
0.5993169 -0.035180163 0.04186511
0.59873956 -0.033901021 0.041445807
0.59901386 -0.033001859 0.041434247
0.59928817 -0.032102697 0.041422687
0.59871215 -0.030819431 0.041003365
0.59898674 -0.029919237 0.040991791
0.59841168 -0.028632868 0.040572412
0.59868664 -0.027731642 0.040560827
0.59811246 -0.026442178 0.040141407
0.59838772 -0.02553991 0.040129811
0.59781456 -0.024247346 0.039710365
0.59809011 -0.023344055 0.039698754
0.59751785 -0.022048363 0.039279241
0.59694624 -0.020750633 0.038859714
0.59722239 -0.01984527 0.038848076
0.5974986 -0.018939905 0.038836434
0.5977748 -0.018034542 0.038824797
0.59720474 -0.016731648 0.038405206
0.59663534 -0.015426667 0.037985589
0.59691221 -0.014519239 0.037973922
0.5963437 -0.013211152 0.037554249
0.59577584 -0.011901015 0.03713458
0.5960533 -0.010991522 0.037122887
0.59548646 -0.0096782818 0.036703166
0.59492022 -0.0083629778 0.036283415
0.59519827 -0.0074514193 0.036271695
0.59463298 -0.0061330101 0.035851903
0.59406823 -0.0048125186 0.035432085
0.59350419 -0.0034899795 0.035012245
0.59294081 -0.002165376 0.034592375
0.59237802 -0.00083870732 0.034172479
0.59181583 0.00049005693 0.033752538
0.59125435 0.0018208695 0.03333259
0.59069347 0.0031537339 0.032912627
0.59013319 0.0044886763 0.032492626
0.58957356 0.0058256974 0.032072596
0.58817434 0.0075819618 0.031244321
0.58761626 0.0089241397 0.030824238
0.58705884 0.010268366 0.030404117
0.58650208 0.011614687 0.029983968
0.58510691 0.013384393 0.029155521
0.58371305 0.01515823 0.02832705
0.58315873 0.016512811 0.027906779
0.58260512 0.017869456 0.027486498
0.58205211 0.019228179 0.027066188
0.58149976 0.020588955 0.026645854
0.580948 0.021951795 0.026225507
0.58039683 0.023316745 0.025805103
0.57984638 0.024683712 0.025384689
0.5784604 0.026483379 0.024555871
0.57791144 0.027855536 0.024135388
0.57652771 0.029662436 0.023306478
0.57598037 0.031039745 0.022885932
0.57793826 0.0311149 0.023690647
0.57822579 0.03205746 0.023678528
0.60121965 -0.074157372 0.047110058
0.60148919 -0.073273718 0.0470987
0.60175878 -0.072390057 0.047087338
0.60202831 -0.071506396 0.047075979
0.60143584 -0.070277989 0.046656292
0.60084397 -0.069047526 0.046236582
0.60111421 -0.068161801 0.046225194
0.60052329 -0.06692823 0.045805458
0.59993303 -0.065692596 0.045385681
0.59934342 -0.064454898 0.044965878
0.59961456 -0.063566081 0.044954449
0.5998857 -0.062677257 0.044943023
0.60015684 -0.061788425 0.044931598
0.59956872 -0.060545541 0.044511724
0.59984016 -0.059655685 0.044500284
0.60011166 -0.058765825 0.044488844
0.6003831 -0.057875969 0.044477407
0.60065454 -0.056986105 0.044465967
0.60092604 -0.056096248 0.044454526
0.60119748 -0.055206388 0.044443086
0.60146892 -0.054316532 0.044431645
0.60174036 -0.053426668 0.044420205
0.60201186 -0.052536815 0.044408765
0.60142726 -0.05128257 0.043988746
0.60169905 -0.050391685 0.043977294
0.60197079 -0.049500789 0.043965839
0.60224259 -0.048609894 0.043954387
0.60251433 -0.047719005 0.043942932
0.60193169 -0.046458568 0.043522839
0.60220373 -0.045566641 0.043511372
0.60162199 -0.044303104 0.043091249
0.60104084 -0.043037482 0.042671084
0.60131353 -0.04214349 0.042659592
0.60158628 -0.041249495 0.042648099
0.60100645 -0.03997976 0.042227883
0.60127944 -0.039084729 0.042216375
0.60070056 -0.037811894 0.041796137
0.60012227 -0.036536988 0.041375853
0.60039592 -0.035639901 0.04136432
0.59981859 -0.034361884 0.040943999
0.60009259 -0.033463761 0.04093245
0.60036659 -0.032565631 0.040920906
0.59979045 -0.031283475 0.040500514
0.60006475 -0.030384315 0.040488955
0.59948963 -0.029099077 0.040068552
0.59976423 -0.028198883 0.040056981
0.59919006 -0.026910534 0.039636526
0.59861648 -0.025620127 0.03921606
0.59889174 -0.024717869 0.03920446
0.59831917 -0.023424365 0.038783953
0.59774715 -0.022128766 0.03836339
0.59717578 -0.020831127 0.037942816
0.59745198 -0.019925762 0.037931174
0.59772813 -0.019020399 0.037919536
0.59800434 -0.018115036 0.037907895
0.59743458 -0.016812231 0.037487268
0.59771109 -0.015905837 0.037475616
0.59714228 -0.014599916 0.037054934
0.59657401 -0.013291921 0.036634214
0.59685117 -0.012383468 0.036622532
0.59628391 -0.011072383 0.036201801
0.59571731 -0.0097592343 0.035781041
0.59599507 -0.0088487156 0.035769336
0.59542942 -0.0075324639 0.03534852
0.59486437 -0.0062141465 0.034927681
0.59429991 -0.0048937472 0.034506813
0.59373617 -0.0035713003 0.034085918
0.59317303 -0.0022467889 0.033665001
0.59261048 -0.0009202112 0.03324407
0.59204853 0.00040846088 0.032823078
0.59148729 0.0017391825 0.032402094
0.59092671 0.0030719547 0.031981081
0.59036672 0.0044068047 0.03156003
0.58980733 0.0057437341 0.031138949
0.58924854 0.0070827315 0.030717842
0.58869046 0.0084237764 0.030296711
0.58729368 0.010186035 0.029466284
0.58673716 0.011532265 0.029045101
0.58534253 0.013301787 0.028214553
0.58394921 0.015075439 0.027383981
0.58339512 0.016429929 0.02696266
0.58284175 0.017786482 0.026541343
0.58228904 0.019145114 0.026119985
0.58173692 0.020505797 0.025698613
0.58118546 0.021868546 0.025277216
0.58063453 0.023233403 0.024855763
0.57924813 0.025029765 0.024024885
0.57869887 0.026399763 0.023603395
0.57731462 0.028203392 0.022772422
0.57593173 0.030011136 0.021941412
0.57538497 0.031389389 0.021519803
0.57567346 0.032335054 0.021507643
0.57179046 0.035459187 0.019448034
0.56957859 0.037720215 0.018207289
0.60316974 -0.074916966 0.047033768
0.60343868 -0.074035376 0.047022432
0.60284525 -0.072811209 0.046601765
0.60311449 -0.071928583 0.046590418
0.60252196 -0.070701301 0.046169713
0.60193002 -0.069471948 0.045748949
0.60219991 -0.068587258 0.045737576
0.60160899 -0.067354821 0.0453168
0.60101867 -0.066120312 0.044896003
0.60128915 -0.065233558 0.044884603
0.6015597 -0.064346798 0.0448732
0.60183018 -0.063460037 0.044861801
0.60124147 -0.062220365 0.044440921
0.60151225 -0.061332572 0.044429507
0.6017831 -0.060444776 0.044418093
0.60205394 -0.059556983 0.044406679
0.60232478 -0.058669195 0.044395268
0.60259557 -0.057781402 0.044383854
0.60286641 -0.056893613 0.044372439
0.60313725 -0.056005821 0.044361025
0.60340804 -0.055118024 0.044349611
0.60282248 -0.053868018 0.043928612
0.60309362 -0.052979194 0.043917187
0.60336477 -0.052090369 0.043905757
0.60363591 -0.051201541 0.043894332
0.60390705 -0.050312717 0.043882906
0.60417819 -0.049423892 0.043871477
0.60359478 -0.048166636 0.04345037
0.60301203 -0.046907317 0.043029238
0.60328376 -0.046016421 0.043017786
0.60270202 -0.044754017 0.042596627
0.60297406 -0.04386209 0.042585161
0.60239321 -0.042596575 0.042163961
0.6026656 -0.041703623 0.042152479
0.60208565 -0.040434986 0.041731212
0.6023584 -0.039540987 0.04171972
0.60177946 -0.038269278 0.041298442
0.60120112 -0.036995504 0.040877137
0.60147446 -0.036099438 0.040865615
0.60089707 -0.034822561 0.040444259
0.60117072 -0.033925474 0.040432725
0.60144442 -0.033028375 0.040421192
0.60086828 -0.031747352 0.039999794
0.60114223 -0.03084923 0.039988246
0.60056704 -0.029565101 0.039566781
0.60084134 -0.028665939 0.039555222
0.60026711 -0.027378723 0.039133742
0.59969348 -0.026089434 0.038712237
0.5991205 -0.024798088 0.038290694
0.59854817 -0.023504674 0.037869137
0.59797645 -0.022209167 0.037447538
0.5982523 -0.021304836 0.037435912
0.59768152 -0.020006256 0.037014272
0.59795773 -0.019100893 0.037002634
0.59823388 -0.018195529 0.036990993
0.59766442 -0.016892817 0.036569331
0.59794092 -0.01598642 0.036557678
0.59737235 -0.014680592 0.036135949
0.59680438 -0.013372689 0.035714176
0.59708148 -0.012464236 0.035702497
0.59651452 -0.011153243 0.035280727
0.59679198 -0.01024375 0.035269033
0.59622592 -0.0089296689 0.034847196
0.59566051 -0.007613508 0.034425348
0.59509575 -0.0062952829 0.034003459
0.5945316 -0.0049749757 0.03358154
0.59396803 -0.0036526199 0.03315961
0.59340519 -0.0023282005 0.032737639
0.59284294 -0.0010017151 0.032315657
0.59228128 0.00032686605 0.031893633
0.59172028 0.0016574942 0.031471584
0.59115994 0.0029901743 0.031049522
0.59060019 0.0043249335 0.030627433
0.5900411 0.0056617702 0.030205304
0.58948255 0.0070006759 0.029783146
0.58892477 0.00834163 0.029360978
0.58836752 0.0096846614 0.028938768
0.58697224 0.01144984 0.028106203
0.58557808 0.013219181 0.027273584
0.5841853 0.014992648 0.026440913
0.58363152 0.016347047 0.026018556
0.58307838 0.017703507 0.025596173
0.58252591 0.019062048 0.02517378
0.58197409 0.020422641 0.024751374
0.58142287 0.021785295 0.024328912
0.58087224 0.02315006 0.023906423
0.57948637 0.024946241 0.023073459
0.57810169 0.026746584 0.022240441
0.57671833 0.028551051 0.02140737
0.57533628 0.03035965 0.020574247
0.57479006 0.03173887 0.020151557
0.5742445 0.033120122 0.019728871
0.57203156 0.035374649 0.018485086
0.56982046 0.037635401 0.017241204
0.60345018 -0.077977441 0.046585266
0.60371882 -0.077096879 0.046573944
0.60485059 -0.076555729 0.046972983
0.60511887 -0.075676203 0.046961676
0.60366225 -0.074113756 0.046129614
0.60393113 -0.073232166 0.046118278
0.6033383 -0.072007053 0.045696549
0.60360754 -0.071124427 0.045685202
0.6030156 -0.069896214 0.045263432
0.60328513 -0.069012552 0.04525207
0.60269409 -0.067781225 0.044830244
0.60296398 -0.066896528 0.044818871
0.60237396 -0.065662116 0.044397008
0.60264415 -0.064776398 0.044385619
0.60291433 -0.063890673 0.044374235
0.60318452 -0.063004948 0.044362847
0.60345471 -0.062119219 0.044351459
0.6037249 -0.061233494 0.044340074
0.60399508 -0.060347769 0.044328686
0.60426533 -0.059462044 0.044317298
0.60453552 -0.058576323 0.044305913
0.60480571 -0.057690598 0.044294525
0.60421914 -0.056444813 0.043872543
0.60448962 -0.055558052 0.043861143
0.60476011 -0.054671295 0.04384974
0.60503066 -0.053784538 0.043838341
0.60530114 -0.052897777 0.043826941
0.60471648 -0.051645793 0.043404851
0.60498732 -0.050758 0.043393437
0.60525811 -0.049870204 0.043382023
0.6046747 -0.048614088 0.042959895
0.60494584 -0.047725264 0.04294847
0.60436332 -0.046466034 0.042526282
0.60463476 -0.04557617 0.042514842
0.6040532 -0.044313844 0.042092636
0.60347235 -0.043049462 0.041670401
0.60374439 -0.042157535 0.041658934
0.60316443 -0.040890053 0.041236658
0.60343683 -0.039997093 0.041225176
0.60285777 -0.038726479 0.040802848
0.60227942 -0.037453827 0.040380508
0.60255241 -0.036558803 0.040369
0.60197502 -0.035283048 0.039946619
0.60224837 -0.034386992 0.039935097
0.60252172 -0.033490926 0.039923579
0.60194552 -0.032211043 0.039501145
0.60221916 -0.031313945 0.039489612
0.60164398 -0.030030951 0.039067123
0.60191792 -0.029132823 0.039055575
0.60134363 -0.02784672 0.038633045
0.60076994 -0.026558561 0.038210519
0.60019696 -0.025268333 0.037787937
0.59962451 -0.023976045 0.037365343
0.59905279 -0.022681685 0.036942724
0.5984816 -0.021385238 0.03652006
0.59791112 -0.020086749 0.036097385
0.59818727 -0.019181386 0.036085747
0.59846348 -0.018276021 0.036074109
0.59873962 -0.017370665 0.036062468
0.5981707 -0.016067008 0.035639729
0.59760243 -0.014761269 0.035216961
0.59787923 -0.013853841 0.035205293
0.59731185 -0.012545004 0.034782473
0.59674513 -0.011234104 0.034359641
0.59702259 -0.010324611 0.034347948
0.59645683 -0.0090106213 0.033925075
0.59589165 -0.0076945531 0.033502162
0.59532714 -0.0063764197 0.033079233
0.59476322 -0.0050562043 0.032656267
0.59419996 -0.0037339407 0.032233287
0.59363735 -0.0024096123 0.03181028
0.59307539 -0.001083219 0.031387247
0.59251398 0.00024527 0.030964175
0.59195322 0.0015758072 0.030541088
0.59139317 0.0029083937 0.030117963
0.59083366 0.0042430609 0.029694824
0.59027487 0.0055798083 0.029271672
0.58971661 0.0069186212 0.028848466
0.58915901 0.0082594818 0.028425233
0.58860207 0.0096024219 0.028001988
0.58720726 0.011367418 0.027167337
0.5858137 0.013136574 0.026332617
0.5844214 0.014909858 0.025497859
0.58386785 0.016264165 0.025074452
0.58331501 0.017620534 0.024651021
0.58276284 0.018978981 0.024227576
0.58221126 0.020339482 0.023804119
0.58166027 0.021702046 0.023380622
0.58027393 0.023494968 0.022545582
0.57888889 0.025292033 0.021710519
0.57750511 0.027093217 0.020875387
0.57612258 0.028898528 0.020040218
0.5747413 0.030707996 0.019204965
0.57336134 0.032521568 0.018369704
0.57198262 0.034339279 0.01753436
0.5706051 0.03616114 0.016698964
0.57006234 0.037550591 0.016275106
0.60513246 -0.079608694 0.046527524
0.60540044 -0.078730211 0.046516228
0.60566843 -0.077851713 0.046504937
0.60507357 -0.076633923 0.046082262
0.60534191 -0.075754404 0.046070956
0.60474795 -0.0745335 0.045648213
0.60501659 -0.073652938 0.045636892
0.60442364 -0.072428949 0.045214124
0.60469258 -0.071547359 0.045202792
0.60410058 -0.070320271 0.044779986
0.60436982 -0.069437653 0.044768639
0.60463905 -0.068555027 0.044757292
0.60404831 -0.067323796 0.04433443
0.6043179 -0.066440143 0.044323068
0.6045875 -0.065556481 0.04431171
0.60485703 -0.06467282 0.044300348
0.60512662 -0.063789167 0.044288989
0.60539615 -0.062905505 0.044277627
0.60566574 -0.062021855 0.044266269
0.60593528 -0.061138194 0.044254906
0.60620487 -0.06025454 0.044243548
0.6064744 -0.059370879 0.044232186
0.60674399 -0.058487225 0.044220824
0.606157 -0.057243578 0.043797791
0.60642689 -0.056358892 0.043786418
0.60669672 -0.055474199 0.043775044
0.60611105 -0.054226443 0.043351971
0.60638124 -0.053340714 0.043340582
0.60579652 -0.052089859 0.042917486
0.606067 -0.051203102 0.042906083
0.60633755 -0.050316341 0.042894684
0.60575408 -0.049061343 0.042471517
0.60602486 -0.048173554 0.042460106
0.60544235 -0.046915464 0.042036898
0.60571349 -0.046026632 0.042025473
0.60513186 -0.044765428 0.041602213
0.6045509 -0.043502163 0.041178938
0.60482264 -0.042611267 0.041167486
0.60424268 -0.041344907 0.040744174
0.60451472 -0.040452983 0.040732708
0.60393566 -0.039183524 0.04030937
0.6033572 -0.037911966 0.039885975
0.60362989 -0.037017975 0.039874483
0.60305244 -0.035743352 0.039451063
0.60332543 -0.034848321 0.039439559
0.60359848 -0.033953294 0.039428052
0.60302228 -0.032674536 0.039004579
0.60329562 -0.03177847 0.038993061
0.60272032 -0.030496614 0.038569547
0.60214567 -0.029212672 0.038146012
0.60157162 -0.027926661 0.037722431
0.60099822 -0.026638595 0.037298854
0.60042542 -0.025348457 0.036875237
0.59985334 -0.024056261 0.036451593
0.59928179 -0.022761995 0.036027923
0.59871089 -0.021465639 0.035604209
0.59898674 -0.020561315 0.035592582
0.59926265 -0.019656984 0.035580955
0.59869301 -0.018356515 0.035157207
0.59896922 -0.01745116 0.035145566
0.59924543 -0.016545795 0.035133928
0.59867704 -0.015241195 0.034710139
0.59810936 -0.013934517 0.034286309
0.59838617 -0.01302709 0.034274641
0.59781933 -0.011717305 0.033850756
0.5972532 -0.010405472 0.033426862
0.59668767 -0.0090915747 0.033002939
0.5961228 -0.0077755973 0.032578986
0.59555858 -0.006457556 0.032155011
0.5949949 -0.0051374328 0.031730995
0.59443188 -0.0038152603 0.031306978
0.59386957 -0.0024910239 0.030882921
0.59330779 -0.0011647228 0.03045884
0.59274668 0.00016367392 0.030034715
0.59218621 0.0014941189 0.02961058
0.59162641 0.0028266145 0.029186416
0.59106719 0.0041611893 0.028762229
0.59050858 0.0054978444 0.028338026
0.58995062 0.0068365657 0.02791377
0.58939332 0.0081773354 0.0274895
0.58883661 0.0095201833 0.027065206
0.58744234 0.011284995 0.026228454
0.58604926 0.013053969 0.025391648
0.58465755 0.014827067 0.024554791
0.58410424 0.016181283 0.024130333
0.58355165 0.017537558 0.023705866
0.58299971 0.018895915 0.023281371
0.58161205 0.02068243 0.022444354
0.58106166 0.022045974 0.022019779
0.57967621 0.023839721 0.021182654
0.57829195 0.02563763 0.020345477
0.57690901 0.027439667 0.019508248
0.57469255 0.029677125 0.018258374
0.57331246 0.031488448 0.017421039
0.57193363 0.033303913 0.016583636
0.57055598 0.035123523 0.015746165
0.56834614 0.037382685 0.014496026
0.56780463 0.038775131 0.014071093
0.55643624 0.045856945 0.0082815913
0.60568333 -0.081777819 0.046072807
0.60595101 -0.080900364 0.046061523
0.6062187 -0.080022901 0.046050243
0.60562319 -0.078808315 0.045626547
0.60589117 -0.077929817 0.045615252
0.60529661 -0.076712124 0.04519153
0.60556489 -0.075832598 0.04518022
0.60583317 -0.074953072 0.045168914
0.60610151 -0.074073546 0.045157608
0.60550845 -0.072850674 0.044733789
0.60577708 -0.071970113 0.044722468
0.60604572 -0.071089551 0.044711147
