# .PCD v0.7 - Point Cloud Data file format
VERSION 0.7
FIELDS x y z
SIZE 4 4 4
TYPE F F F
COUNT 1 1 1
WIDTH 1365
HEIGHT 1
VIEWPOINT 0 0 0 1 0 0 0
POINTS 1365
DATA ascii
0.639727 0.026622286 0.015605164
0.63853467 0.026578179 0.015997205
0.63806456 0.025982158 0.015973337
0.6368742 0.025940625 0.016365502
0.63568521 0.025900751 0.016757712
0.63449752 0.025862571 0.017149989
0.63331121 0.025826083 0.017542332
0.63212621 0.025791289 0.017934745
0.63094252 0.025758222 0.018327249
0.62976021 0.025726814 0.018719798
0.6285792 0.025697101 0.019112414
0.62739956 0.025669079 0.019505097
0.62622118 0.025642784 0.019897874
0.62575781 0.02505523 0.019874346
0.62458146 0.025031444 0.020267198
0.62340653 0.025009349 0.020660121
0.62223285 0.024988947 0.021053109
0.62106055 0.024970239 0.021446165
0.61988956 0.024953255 0.021839315
0.61871994 0.024937935 0.022232506
0.61755162 0.024924306 0.022625767
0.61638469 0.024912372 0.023019094
0.61521906 0.02490213 0.02341249
0.61405474 0.024893614 0.02380598
0.61289179 0.024886759 0.02419951
0.61173016 0.024881598 0.024593107
0.61056989 0.024878128 0.024986776
0.60941088 0.024876386 0.025380537
0.60825324 0.024876302 0.025774339
0.60779989 0.024301447 0.025751319
0.60664427 0.024303904 0.026145224
0.60548997 0.024308056 0.026539193
0.60433704 0.024313901 0.026933234
0.60318542 0.02432147 0.027327366
0.60203516 0.0243307 0.027721543
0.60088623 0.024341624 0.028115785
0.5997386 0.02435424 0.028510096
0.59859234 0.024368584 0.028904501
0.5974474 0.024384588 0.029298946
0.597 0.023817351 0.029276231
0.59585708 0.023835892 0.029670781
0.59471548 0.023856131 0.030065395
0.59357524 0.02387806 0.03046008
0.59312987 0.023313364 0.030437466
0.59199154 0.023337867 0.030832278
0.59085464 0.023364032 0.03122713
0.59041059 0.022801029 0.031204585
0.58927572 0.02282973 0.03159954
0.58883232 0.022267573 0.031577028
0.58769941 0.022298817 0.031972084
0.58725667 0.021737507 0.031949606
0.58612579 0.021771289 0.032344766
0.58568376 0.021210829 0.032322321
0.58455479 0.021247182 0.032717608
0.58411342 0.020687569 0.032695197
0.58367205 0.020127952 0.032672789
0.58254582 0.02016766 0.033068184
0.5814209 0.020209063 0.033463646
0.58098084 0.019651141 0.033441305
0.58054084 0.019093219 0.033418961
0.58010077 0.018535296 0.03339662
0.57966071 0.017977374 0.03337428
0.57922065 0.017419448 0.033351935
0.57878065 0.016861526 0.033329595
0.57834059 0.016303604 0.033307251
0.57790053 0.015745683 0.03328491
0.57746047 0.01518776 0.033262566
0.57702047 0.014629838 0.033240225
0.57658041 0.014071915 0.033217881
0.57614034 0.013513993 0.03319554
0.57570028 0.012956069 0.033173196
0.57526028 0.012398146 0.033150855
0.57482022 0.011840224 0.033128511
0.57438016 0.011282302 0.033106171
0.5739401 0.01072438 0.03308383
0.57350004 0.010166457 0.033061486
0.57306004 0.0096085351 0.033039145
0.57261997 0.0090506133 0.033016801
0.57217991 0.0084926877 0.03299446
0.57173985 0.0079347659 0.032972116
0.57129985 0.0073768436 0.032949775
0.57085979 0.0068189213 0.032927431
0.57041973 0.006260999 0.032905091
0.57064652 0.0050808932 0.032464027
0.57020581 0.0045221234 0.03244165
0.56976509 0.003963354 0.032419275
0.56932437 0.0034045845 0.032396898
0.56888366 0.0028458149 0.032374524
0.56844294 0.0022870454 0.032352146
0.56866503 0.0011010139 0.031910844
0.56822366 0.00054139982 0.031888433
0.56778228 -1.8220046e-05 0.031866025
0.56734085 -0.00057783409 0.031843614
0.56755966 -0.0017681294 0.031402119
0.56711763 -0.0023285968 0.031379674
0.56733435 -0.0035214012 0.030938102
0.56754977 -0.0047159004 0.030496461
0.56776386 -0.0059120893 0.030054754
0.56731981 -0.0064750928 0.030032208
0.56753188 -0.0076738228 0.029590398
0.5664317 -0.0076010996 0.029987117
0.56598765 -0.0081640976 0.029964572
0.66191602 0.024477474 0.0065326858
0.6592375 0.025482079 0.0077572921
0.65681207 0.025340786 0.0085412432
0.65560138 0.025272664 0.0089333085
0.6522063 0.026835676 0.010575095
0.65100026 0.026773479 0.010967398
0.64906836 0.027257806 0.011776378
0.64713907 0.027745552 0.012585519
0.6459384 0.027690127 0.012978093
0.64473909 0.027636398 0.013370734
0.64354104 0.027584393 0.013763469
0.64234436 0.027534049 0.014156245
0.64114904 0.027485397 0.01454909
0.63995504 0.027438439 0.014942002
0.63948429 0.026841573 0.0149181
0.63829231 0.026797155 0.015311114
0.63782221 0.026201135 0.015287247
0.63663214 0.02615929 0.015680388
0.63544351 0.026119106 0.016073572
0.63425618 0.026080614 0.016466821
0.63307023 0.026043816 0.01686014
0.63188559 0.02600871 0.017253527
0.63070226 0.025975332 0.017647007
0.62952024 0.025943613 0.01804053
0.62833959 0.025913589 0.01843412
0.62716031 0.025885256 0.018827779
0.62598228 0.02585865 0.019221529
0.62551886 0.025271097 0.019198
0.62434292 0.025246998 0.019591829
0.62316829 0.025224593 0.019985724
0.62199497 0.02520388 0.020379689
0.62082303 0.02518486 0.02077372
0.61965239 0.025167568 0.021167843
0.61848307 0.025151934 0.02156201
0.61731511 0.025137996 0.021956244
0.61614853 0.025125749 0.022350546
0.61498326 0.025115198 0.022744916
0.61381924 0.025106369 0.02313938
0.61265665 0.025099203 0.023533886
0.61149538 0.025093731 0.02392846
0.61033547 0.025089949 0.0243231
0.60917681 0.025087897 0.024717836
0.60801953 0.025087502 0.025112612
0.60756612 0.024512647 0.025089592
0.60641086 0.024514794 0.025484471
0.60525692 0.024518633 0.025879417
0.60410434 0.024524167 0.026274431
0.60295302 0.024531426 0.02666954
0.60180312 0.024540344 0.027064689
0.60065454 0.024550958 0.027459906
0.59950727 0.024563264 0.027855191
0.59836131 0.024577295 0.028250571
0.59721673 0.024592988 0.028645992
0.59607351 0.024610372 0.02904148
0.59562677 0.024043983 0.029018799
0.59448552 0.024063909 0.029414389
0.59334564 0.024085527 0.029810049
0.59290022 0.023520833 0.029787436
0.5917623 0.023545025 0.03018322
0.5906257 0.023570877 0.030579049
0.59018165 0.023007873 0.030556504
0.58904713 0.023036264 0.030952433
0.58860373 0.022474108 0.030929921
0.58747119 0.022505039 0.031325951
0.58702844 0.021943731 0.031303473
0.58589792 0.021977203 0.031699605
0.58545583 0.02141674 0.031677164
0.58432722 0.021452785 0.032073423
0.58388585 0.02089317 0.032051012
0.58344448 0.020333553 0.032028604
0.5823186 0.02037295 0.032424975
0.58119404 0.020414043 0.032821413
0.58075398 0.01985612 0.032799069
0.58031398 0.019298198 0.032776728
0.5791921 0.019342676 0.0331733
0.5787527 0.018785598 0.033150993
0.57831335 0.018228523 0.033128686
0.57787395 0.017671445 0.033106375
0.57743454 0.017114371 0.033084068
0.57699519 0.016557297 0.033061761
0.57655579 0.016000219 0.033039451
0.57611644 0.015443143 0.033017144
0.57567704 0.014886066 0.032994833
0.57523769 0.014328991 0.032972526
0.57479829 0.013771917 0.032950219
0.57435894 0.013214839 0.032927908
0.57391953 0.012657763 0.032905601
0.57348013 0.012100689 0.032883294
0.57304078 0.011543611 0.032860983
0.57260138 0.010986537 0.032838676
0.57216203 0.010429459 0.032816369
0.57172263 0.0098723834 0.032794058
0.57128328 0.0093153091 0.032771751
0.57084388 0.0087582311 0.032749441
0.57040453 0.0082011567 0.032727133
0.57063293 0.0070239007 0.032285199
0.57019287 0.0064659785 0.032262854
0.56975281 0.0059080566 0.032240514
0.56997859 0.0047274143 0.031798441
0.56953788 0.0041686445 0.031776063
0.56909716 0.003609875 0.031753689
0.56865644 0.0030511054 0.031731311
0.56821573 0.0024923359 0.031708937
0.56777501 0.0019335692 0.031686559
0.56733429 0.0013747967 0.031664185
0.56689358 0.00081603008 0.031641807
0.56645286 0.00025725758 0.03161943
0.56667197 -0.0009318465 0.03117702
0.5662306 -0.0014914605 0.03115461
0.56644768 -0.0026831452 0.030712072
0.56666344 -0.0038764863 0.030269491
0.56687784 -0.0050715222 0.029826842
0.56709087 -0.006268247 0.029384127
0.56730264 -0.0074666659 0.028941343
0.56620282 -0.0073942537 0.029339036
0.56575876 -0.0079572517 0.029316489
0.6589886 0.025706965 0.007052687
0.65777558 0.025635146 0.0074455896
0.65656388 0.025565051 0.0078385873
0.65195984 0.027058385 0.0098773111
0.65075415 0.026995877 0.010270587
0.6488229 0.027479582 0.011081517
0.64762056 0.02742134 0.011474988
0.64569402 0.02791097 0.012286155
0.64449501 0.027856929 0.012679771
0.64329731 0.027804613 0.013073481
0.64210099 0.027753958 0.013467231
0.64090598 0.027704997 0.01386105
0.63971233 0.027657729 0.014254937
0.63924158 0.027060861 0.014231035
0.63804996 0.027016131 0.014625024
0.63757986 0.026420111 0.014601156
0.63639015 0.026377955 0.014995271
0.63520187 0.02633746 0.015389429
0.6340149 0.026298657 0.015783656
0.63282925 0.026261548 0.016177949
0.63164496 0.026226131 0.016572312
0.63046193 0.026192443 0.016966766
0.62928033 0.026160413 0.017361263
0.62810004 0.026130076 0.017755827
0.62692106 0.026101435 0.01815046
0.62574339 0.026074516 0.018545186
0.62527996 0.025486963 0.018521657
0.62410438 0.025462553 0.01891646
0.62293005 0.025439836 0.019311329
0.62175715 0.025418812 0.019706268
0.6205855 0.025399482 0.020101273
0.61941516 0.025381878 0.020496372
0.61824626 0.025365936 0.020891512
0.61707866 0.025351685 0.021286722
0.61591238 0.025339127 0.021681998
0.61474746 0.025328264 0.022077342
0.6135838 0.025319126 0.02247278
0.61242151 0.025311647 0.022868263
0.61126059 0.025305863 0.02326381
0.61010098 0.025301773 0.023659425
0.60894269 0.025299408 0.024055135
0.60778576 0.025298703 0.024450887
0.60733241 0.024723848 0.024427867
0.60617745 0.024725683 0.02482372
0.60502386 0.024729213 0.02521964
0.60387164 0.024734434 0.025615629
0.60272068 0.024741383 0.026011711
0.60157108 0.024749991 0.026407836
0.60042286 0.024760291 0.026804028
0.59927595 0.024772286 0.027200287
0.59813035 0.024786009 0.027596641
0.59698611 0.02480139 0.027993036
0.5958432 0.024818463 0.0283895
0.59470165 0.024837229 0.028786032
0.59425557 0.024271689 0.028763384
0.59311604 0.024292996 0.029160017
0.59267062 0.0237283 0.029137403
0.59153301 0.023752181 0.029534165
0.59039682 0.023777723 0.029930966
0.58995277 0.02321472 0.029908421
0.58881855 0.023242798 0.030305324
0.58768564 0.023272572 0.030702297
0.58724296 0.022711264 0.030679818
0.58680022 0.022149954 0.030657342
0.58566999 0.022183115 0.031054448
0.58522797 0.021622654 0.031032005
0.58409971 0.021658387 0.031429239
0.58365834 0.021098772 0.031406831
0.58321697 0.020539155 0.03138442
0.58209139 0.020578241 0.031781767
0.58096719 0.020619022 0.032179177
0.58052713 0.0200611 0.032156836
0.58008713 0.019503178 0.032134492
0.57896554 0.019547345 0.03253204
0.5785262 0.018990267 0.032509733
0.57808679 0.018433193 0.032487426
0.57764745 0.017876115 0.032465115
0.57720804 0.01731904 0.032442808
0.5767687 0.016761964 0.032420497
0.57632929 0.016204888 0.03239819
0.57588995 0.015647812 0.032375883
0.57545054 0.015090735 0.032353573
0.57501113 0.014533659 0.032331266
0.57457179 0.013976585 0.032308958
0.57413238 0.013419507 0.032286648
0.57369304 0.012862433 0.032264341
0.57325363 0.012305357 0.032242034
0.57281429 0.011748279 0.032219723
0.57237488 0.011191205 0.032197416
0.57193547 0.010634127 0.032175105
0.57149613 0.010077053 0.032152798
0.57105672 0.0095199775 0.032130491
0.57061738 0.0089628994 0.03210818
0.57017797 0.0084058251 0.032085873
0.56973863 0.0078487471 0.032063566
0.56929922 0.0072916723 0.032041255
0.56952596 0.0061130361 0.031598277
0.56908596 0.0055551138 0.031575937
0.56864589 0.0049971887 0.031553593
0.56820583 0.0044392664 0.031531252
0.56776577 0.0038813443 0.031508908
0.56732577 0.003323422 0.031486567
0.56688571 0.002765497 0.031464223
0.56644565 0.0022075777 0.031441882
0.56600559 0.0016496525 0.031419538
0.56622565 0.0004625482 0.030976223
0.56578493 -9.6218449e-05 0.030953845
0.56600302 -0.0012858588 0.030510426
0.56621981 -0.0024772326 0.030066913
0.56643522 -0.0036702626 0.029623358
0.56599247 -0.0042315712 0.029600879
0.56620586 -0.0054271375 0.029157223
0.56641793 -0.0066244043 0.028713498
0.56597388 -0.0071874079 0.028690953
0.56552982 -0.0077504055 0.028668407
0.66020083 0.024853596 0.0055113668
0.65825695 0.025319746 0.0063235681
0.65704495 0.025248462 0.0067174798
0.6524412 0.02673858 0.0087610343
0.65123522 0.026674915 0.0091552511
0.64930403 0.02715715 0.0099680964
0.64737546 0.027642805 0.010781102
0.64617479 0.027585912 0.011175591
0.64425093 0.028077461 0.011988808
0.64305359 0.028024834 0.012383492
0.64185762 0.027973868 0.012778218
0.64066297 0.027924595 0.013173011
0.63946968 0.027877016 0.013567872
0.63899893 0.027280148 0.013543971
0.63780761 0.027235109 0.013938934
0.63733751 0.026639089 0.013915066
0.63614815 0.026596621 0.014310156
0.63496017 0.026555814 0.014705288
0.63377357 0.0265167 0.015100489
0.63258827 0.026479281 0.015495758
0.63140434 0.026443554 0.015891094
0.63022166 0.026409553 0.016286522
0.62904036 0.026377212 0.016681995
0.62786043 0.026346564 0.017077534
0.6266818 0.026317611 0.017473141
0.62550449 0.026290383 0.017868841
0.62504107 0.025702829 0.017845312
0.62386578 0.025678108 0.018241089
0.62269187 0.025655081 0.018636934
0.62151927 0.025633747 0.019032847
0.62034798 0.025614105 0.019428827
0.619178 0.025596188 0.0198249
0.61800939 0.025579935 0.020221015
0.61684215 0.025565375 0.0206172
0.61567622 0.025552504 0.021013452
0.61451161 0.02554133 0.02140977
0.61334831 0.025531881 0.021806182
0.61218643 0.025524093 0.022202637
0.61102581 0.025517998 0.022599161
0.60986656 0.025513595 0.022995749
0.60870862 0.02551092 0.023392433
0.60755205 0.025509903 0.02378916
0.60709864 0.024935048 0.02376614
0.60594404 0.024936574 0.024162967
0.60479081 0.02493979 0.024559863
0.60363895 0.024944702 0.024956826
0.60248834 0.024951339 0.025353884
0.6013391 0.024959635 0.025750982
0.60019118 0.024969626 0.02614815
0.59904462 0.024981311 0.026545383
0.59789938 0.02499472 0.026942711
0.59675545 0.02500979 0.027340082
0.59561288 0.025026552 0.027737519
0.59447169 0.025045009 0.028135026
0.59402561 0.024479467 0.028112378
0.59288639 0.024500463 0.028509986
0.59174848 0.024523186 0.028907686
0.59130377 0.023959339 0.028885107
0.59016788 0.023984568 0.029282885
0.58903337 0.024011489 0.029680729
0.58858997 0.023449333 0.029658217
0.58745742 0.023478797 0.030056164
0.58701468 0.022917487 0.030033685
0.58588415 0.022949493 0.030431734
0.58544213 0.022389028 0.03040929
0.58500004 0.021828566 0.030386847
0.58387214 0.021863988 0.030785056
0.58343077 0.021304375 0.030762646
0.58298939 0.020744756 0.030740235
0.58186418 0.020783532 0.031138556
0.58074033 0.020824002 0.031536944
0.58030027 0.020266078 0.0315146
0.57986027 0.019708157 0.031492259
0.57873905 0.019752013 0.03189078
0.5782997 0.019194936 0.031868473
0.57718045 0.019241365 0.032267123
0.57674176 0.018685136 0.03224485
0.57630301 0.018128905 0.032222573
0.57586432 0.017572675 0.032200299
0.57542562 0.017016448 0.032178026
0.57498688 0.016460218 0.032155752
0.57454818 0.015903987 0.032133475
0.57410949 0.01534776 0.032111201
0.57367074 0.01479153 0.032088928
0.57323205 0.014235299 0.032066651
0.57279336 0.013679071 0.032044377
0.57235461 0.013122842 0.032022104
0.57191592 0.012566611 0.03199983
0.57147717 0.012010383 0.031977553
0.57103848 0.011454153 0.031955279
0.57059979 0.010897926 0.031933006
0.57016104 0.010341696 0.031910732
0.56972235 0.009785465 0.031888455
0.56928366 0.0092292372 0.031866182
0.56884491 0.0086730067 0.031843908
0.56907272 0.0074963407 0.031399995
0.56863332 0.0069392659 0.031377688
0.56819397 0.0063821883 0.031355381
0.56775457 0.0058251135 0.03133307
0.56797898 0.0046442458 0.030889016
0.56753892 0.0040863235 0.030866673
0.56709886 0.0035284015 0.030844333
0.56665885 0.0029704764 0.03082199
0.56621879 0.0024125571 0.030799648
0.56577873 0.001854632 0.030777305
0.56533867 0.0012967128 0.030754963
0.56555778 0.00010907217 0.030310636
0.56511706 -0.00044969449 0.03028826
0.56533408 -0.001639877 0.029843831
0.56554985 -0.0028317813 0.029399311
0.56576425 -0.0040253475 0.028954746
0.56597728 -0.0052206027 0.028510116
0.56618899 -0.0064175585 0.028065417
0.56574494 -0.0069805621 0.02804287
0.56530088 -0.0075435597 0.028020324
0.56420374 -0.0074692271 0.028420068
0.65825415 0.024392016 0.0051750503
0.65437704 0.025334956 0.0068038497
0.65098876 0.026897624 0.008457466
0.64978445 0.026835341 0.0088527268
0.64785594 0.027319495 0.0096676219
0.6466549 0.027261477 0.010063076
0.64473104 0.027751556 0.01087821
0.64353341 0.027697738 0.011273808
0.64233708 0.027645648 0.011669501
0.64114213 0.027595216 0.012065235
0.63922697 0.028096303 0.012880808
0.63875622 0.027499435 0.012856906
0.63756526 0.027454086 0.013252844
0.63709515 0.026858065 0.013228976
0.63590616 0.026815286 0.013625041
0.63471854 0.026774168 0.014021148
0.63353229 0.026734745 0.014417322
0.63234729 0.026697014 0.014813566
0.63116372 0.026660975 0.015209876
0.6299814 0.026626663 0.01560628
0.62880045 0.026594011 0.016002726
0.62762082 0.026563054 0.01639924
0.62644255 0.026533788 0.016795821
0.6252656 0.026506249 0.017192498
0.62480217 0.025918694 0.017168969
0.62362725 0.025893664 0.01756572
0.62245363 0.025870325 0.01796254
0.62128139 0.025848679 0.018359426
0.62011045 0.025828727 0.01875638
0.61894083 0.025810501 0.019153429
0.61777258 0.025793934 0.019550519
0.61660564 0.025779063 0.019947678
0.61544007 0.025765883 0.020344904
0.61427581 0.025754398 0.020742197
0.61311287 0.025744636 0.021139584
0.61195129 0.025736537 0.021537013
0.61079103 0.025730131 0.021934511
0.60963213 0.025725417 0.022332076
0.60847455 0.025722431 0.022729734
0.60731828 0.025721105 0.023127435
0.60686493 0.02514625 0.023104414
0.60571069 0.025147462 0.023502216
0.60455775 0.02515037 0.023900086
0.60340619 0.025154969 0.024298025
0.60225594 0.025161294 0.024696056
0.60110706 0.025169279 0.025094129
0.59995949 0.02517896 0.025492271
0.5988133 0.025190333 0.025890479
0.59766835 0.025203433 0.026288781
0.59652483 0.025218192 0.026687127
0.59538263 0.025234643 0.027085539
0.59424174 0.025252787 0.02748402
0.59379566 0.024687247 0.027461372
0.59265679 0.024707932 0.027859954
0.59151924 0.024730343 0.028258631
0.59038299 0.024754416 0.028657347
0.58993894 0.024191415 0.028634802
0.58880478 0.024218025 0.029033622
0.58767188 0.024246329 0.029432509
0.58722919 0.023685019 0.029410031
0.58609831 0.023715867 0.029809019
0.58565629 0.023155404 0.029786576
0.5852142 0.02259494 0.029764131
0.58477217 0.022034479 0.029741688
0.58364463 0.02206959 0.030140871
0.58320326 0.021509975 0.030118462
0.58276182 0.020950358 0.030096052
0.58163702 0.020988822 0.030495346
0.58051348 0.021028981 0.030894708
0.58007342 0.020471059 0.030872365
0.5789519 0.020513756 0.03127183
0.57851255 0.019956682 0.031249521
0.57807314 0.019399604 0.031227212
0.57695431 0.019445721 0.031626835
0.57651556 0.018889494 0.031604562
0.57607687 0.018333264 0.031582288
0.57563818 0.017777033 0.031560015
0.57519943 0.017220806 0.031537738
0.57476074 0.016664576 0.031515464
0.57432199 0.016108345 0.031493191
0.5738833 0.015552117 0.031470917
0.5734446 0.014995887 0.03144864
0.57300586 0.014439656 0.031426366
0.57256716 0.01388343 0.031404093
0.57212847 0.013327199 0.031381816
0.57168972 0.012770968 0.031359542
0.57125103 0.012214741 0.031337269
0.57081234 0.011658511 0.031314995
0.57037359 0.011102283 0.031292718
0.5699349 0.010546053 0.031270444
0.56949621 0.0099898223 0.031248171
0.56905746 0.0094335945 0.031225896
0.56861877 0.0088773649 0.031203622
0.56818002 0.0083211344 0.031181347
0.56840682 0.0071439347 0.030736428
0.56796741 0.0065868567 0.030714119
0.56752807 0.0060297819 0.030691812
0.56708866 0.0054727071 0.030669503
0.56664932 0.0049156295 0.030647194
0.56620991 0.0043585547 0.030624885
0.566432 0.0031754561 0.030179754
0.56599194 0.0026175368 0.030157411
0.56555188 0.0020596117 0.030135069
0.56511182 0.0015016923 0.030112728
0.56467181 0.00094376726 0.030090386
0.56488985 -0.00024440387 0.02964505
0.56510657 -0.0014342754 0.029199649
0.56466514 -0.0019938895 0.029177237
0.56487989 -0.00318633 0.028731707
0.56509328 -0.0043804324 0.028286137
0.56530535 -0.0055762241 0.027840495
0.56486195 -0.0061383802 0.027817985
0.56441855 -0.0067005362 0.027795473
0.56397516 -0.0072626923 0.027772961
0.65219533 0.026034823 0.0069187065
0.65099001 0.025970567 0.0073148981
0.64906085 0.026452405 0.0081316754
0.64713436 0.02693763 0.0089485878
0.6452105 0.027426273 0.0097656613
0.64401257 0.027371299 0.010162201
0.64281595 0.027318018 0.010558808
0.64162058 0.027266461 0.010955509
0.63970548 0.027766079 0.011772997
0.63851351 0.027718723 0.012169842
0.6373229 0.027673062 0.012566754
0.6368528 0.027077042 0.012542886
0.63566417 0.027033951 0.012939925
0.6344769 0.026992524 0.013337007
0.63329095 0.026952788 0.013734156
0.63210636 0.026914746 0.014131374
0.63092309 0.026878396 0.014528659
0.62974107 0.026843773 0.014926038
0.62856048 0.02681081 0.015323458
0.62738127 0.026779542 0.015720947
0.6262033 0.026749965 0.016118504
0.6250267 0.026722115 0.016516153
0.62456328 0.026134562 0.016492624
0.62338865 0.026109219 0.016890349
0.62221545 0.026085569 0.017288143
0.6210435 0.026063612 0.017686006
0.61987293 0.026043348 0.018083934
0.61870366 0.026024811 0.018481957
0.61753571 0.026007934 0.018880023
0.61636913 0.025992751 0.019278154
0.61520392 0.02597926 0.019676356
0.61404002 0.025967464 0.020074623
0.61287743 0.025957393 0.020472985
0.61171615 0.025948981 0.02087139
0.6105563 0.025942264 0.021269862
0.60939771 0.025937241 0.021668401
0.60824043 0.025933944 0.022067033
0.60708457 0.025932305 0.022465708
0.60663116 0.025357449 0.022442687
0.60547727 0.025358353 0.022841465
0.6043247 0.025360947 0.023240309
0.60317349 0.025365237 0.023639223
0.6020236 0.025371252 0.024038229
0.60087502 0.025378926 0.024437277
0.59972781 0.025388295 0.024836391
0.59858197 0.025399355 0.025235575
0.59743738 0.025412144 0.025634853
0.59629416 0.025426593 0.026034173
0.59515232 0.025442732 0.026433559
0.59401178 0.025460567 0.026833013
0.5935657 0.024895025 0.026810367
0.59242719 0.024915399 0.027209923
0.59128994 0.024937499 0.027609574
0.59015411 0.024961263 0.028009266
0.58971006 0.02439826 0.02798672
0.5885762 0.024424559 0.028386515
0.58744365 0.024452552 0.028786376
0.58700097 0.023891244 0.028763898
0.58587044 0.023921778 0.029163862
0.58542836 0.023361318 0.029141417
0.58498633 0.022800853 0.029118974
0.5845443 0.022240391 0.029096529
0.58341706 0.022275191 0.029496687
0.58297569 0.021715578 0.029474277
0.58253431 0.021155961 0.029451868
0.58140981 0.021194113 0.029852137
0.58028662 0.021233961 0.030252473
0.57984656 0.020676039 0.030230131
0.5787254 0.020718426 0.030630568
0.57828605 0.020161351 0.030608261
0.57784665 0.019604273 0.030585952
0.57672811 0.019650079 0.030986551
0.57628942 0.019093851 0.030964278
0.57585067 0.018537622 0.030942002
0.57541198 0.017981391 0.030919727
0.57497329 0.017425163 0.030897453
0.57453454 0.016868932 0.030875178
0.57409585 0.016312702 0.030852905
0.57365716 0.015756475 0.030830629
0.57321841 0.015200244 0.030808356
0.57277972 0.014644015 0.03078608
0.57234102 0.014087787 0.030763807
0.57190228 0.013531556 0.030741531
0.57146358 0.012975326 0.030719258
0.57102489 0.012419098 0.030696983
0.57058614 0.011862868 0.030674709
0.57014745 0.011306641 0.030652434
0.5697087 0.01075041 0.03063016
0.56927001 0.01019418 0.030607885
0.56883132 0.0096379528 0.030585611
0.56839257 0.0090817222 0.030563336
0.56795388 0.0085254917 0.030541062
0.56751519 0.0079692639 0.030518787
0.56707644 0.0074130339 0.030496513
0.56663775 0.0068568033 0.030474238
0.56686217 0.0056773755 0.030028243
0.56642282 0.0051202979 0.030005934
0.56598341 0.0045632231 0.029983625
0.56554401 0.0040061451 0.029961318
0.56510466 0.0034490733 0.029939009
0.56466526 0.0028919955 0.0299167
0.56488496 0.0017066719 0.029470492
0.56444496 0.0011487467 0.02944815
0.56466264 -3.9113234e-05 0.029001841
0.56422192 -0.00059788575 0.028979465
0.56443763 -0.0017882877 0.028533055
0.56399626 -0.0023479017 0.028510643
0.56421 -0.0035408786 0.028064106
0.56442231 -0.0047355178 0.027617525
0.56463337 -0.0059318454 0.027170876
0.56418997 -0.0064940015 0.027148364
0.56374657 -0.0070561576 0.027125854
0.65340054 0.025173297 0.0053760735
0.65146875 0.02565028 0.0061946302
0.64953959 0.026130682 0.0070133475
0.6483373 0.02606947 0.0074106245
0.64641279 0.026555765 0.0082295537
0.64449096 0.027045481 0.0090486445
0.64329404 0.026991041 0.0094461916
0.64137685 0.027486682 0.010265521
0.64018327 0.027436476 0.010663237
0.638991 0.027387964 0.011061023
0.63780004 0.027341144 0.011458876
0.63661045 0.027296018 0.011856796
0.63542217 0.027252618 0.01225481
0.6342352 0.027210878 0.012652867
0.63304961 0.027170831 0.01305099
0.63186538 0.027132478 0.013449182
0.63068247 0.027095817 0.013847442
0.62950081 0.027060883 0.014245795
0.62832057 0.027027611 0.01464419
0.62714165 0.02699603 0.015042653
0.62596405 0.026966143 0.015441184
0.62478775 0.02693798 0.015839808
0.62432438 0.026350427 0.015816279
0.62315011 0.026324773 0.01621498
0.62197721 0.026300812 0.016613748
0.62080562 0.026278544 0.017012585
0.6196354 0.026257971 0.017411487
0.61846644 0.026239121 0.017810486
0.6172989 0.026221935 0.018209524
0.61613268 0.026206441 0.018608632
0.61496776 0.026192637 0.019007808
0.61380422 0.02618053 0.019407051
0.61264193 0.026170148 0.019806385
0.61148107 0.026161427 0.020205766
0.61032152 0.026154399 0.020605212
0.60916328 0.026149062 0.021004725
0.60800636 0.026145454 0.021404332
0.6068508 0.026143504 0.021803983
0.60639739 0.025568649 0.021780962
0.60524386 0.025569241 0.022180714
0.60409164 0.025571527 0.022580532
0.6029408 0.025575504 0.02298042
0.6017912 0.025581207 0.023380401
0.60064304 0.02558857 0.023780422
0.59949613 0.025597628 0.024180513
0.59835064 0.025608379 0.024580672
0.59720641 0.025620855 0.024980923
0.59606355 0.025634995 0.025381217
0.59492201 0.025650823 0.025781579
0.59378183 0.025668345 0.026182007
0.59333575 0.025102805 0.026159361
0.5921976 0.025122868 0.026559891
0.5910607 0.025144657 0.026960516
0.58992517 0.025168108 0.027361184
0.58948112 0.024605107 0.027338637
0.58834761 0.024631094 0.027739406
0.58721542 0.024658777 0.028140243
0.58677274 0.024097467 0.028117765
0.58564252 0.024127692 0.028518703
0.58520049 0.02356723 0.028496258
0.58475846 0.023006765 0.028473815
0.58363092 0.02304041 0.028874913
0.58318955 0.022480793 0.028852504
0.58274812 0.021921178 0.028830094
0.58230674 0.021361561 0.028807683
0.5811826 0.021399403 0.029208926
0.58005977 0.021438939 0.029610239
0.57961971 0.020881018 0.029587897
0.57805949 0.020366019 0.029967001
0.57762015 0.019808941 0.029944692
0.57650197 0.019854436 0.030346265
0.57606322 0.019298209 0.030323992
0.57562453 0.018741978 0.030301716
0.57518584 0.018185748 0.030279443
0.57474709 0.017629521 0.030257167
0.5743084 0.01707329 0.030234894
0.57386971 0.01651706 0.030212618
0.57343096 0.015960833 0.030190345
0.57299227 0.015404603 0.03016807
0.57255352 0.014848372 0.030145794
0.57211483 0.014292144 0.030123521
0.57167614 0.013735914 0.030101245
0.57123739 0.013179683 0.030078972
0.5707987 0.012623456 0.030056696
0.57036 0.012067226 0.030034423
0.56992126 0.011510998 0.030012148
0.56948256 0.010954767 0.029989874
0.56904387 0.010398538 0.029967599
0.56860512 0.0098423101 0.029945325
0.56816643 0.0092860796 0.02992305
0.56772774 0.008729849 0.029900776
0.56728899 0.0081736213 0.029878501
0.5668503 0.0076173912 0.029856227
0.56641155 0.0070611611 0.029833952
0.56597286 0.0065049333 0.029811678
0.56553417 0.0059487033 0.029789403
0.56509542 0.0053924755 0.02976713
0.56531751 0.0042108139 0.029320057
0.56487817 0.0036537419 0.029297749
0.56443876 0.0030966641 0.02927544
0.56465811 0.0019116513 0.028828258
0.5642181 0.0013537263 0.028805915
0.56443542 0.00016617725 0.028358633
0.56399471 -0.00039259525 0.028336257
0.56355399 -0.0009513619 0.028313881
0.56376868 -0.0021423001 0.02786646
0.56398207 -0.003334966 0.027418947
0.56419408 -0.0045292941 0.026971392
0.5637514 -0.0050906027 0.026948914
0.56396139 -0.0062874667 0.026501257
0.56351799 -0.0068496228 0.026478745
0.56242323 -0.0067745289 0.026881481
0.65074211 0.025265738 0.0054705534
0.64881498 0.025747212 0.0062912884
0.64689052 0.026232038 0.0071121333
0.64569128 0.026173903 0.0075105196
0.64377147 0.026664687 0.0083316276
0.64185435 0.027158827 0.0091528455
0.6399399 0.027656386 0.0099742236
0.63874793 0.027607562 0.010372983
0.63755739 0.027560432 0.010771811
0.6363681 0.027514994 0.011170706
0.63518018 0.027471283 0.011569695
0.63399357 0.027429232 0.011968725
0.63280833 0.027388874 0.012367824
0.6316244 0.02735021 0.012766991
0.63044184 0.02731324 0.013166225
0.62926054 0.027277995 0.013565552
0.62808061 0.02724441 0.013964922
0.62690204 0.027212517 0.01436436
0.62572479 0.02718232 0.014763866
0.62454885 0.027153848 0.015163464
0.62408543 0.026566293 0.015139936
0.62291157 0.026540328 0.01553961
0.62173897 0.026516058 0.015939353
0.62056774 0.026493479 0.016339164
0.61939788 0.026472593 0.016739042
0.61822927 0.026453432 0.017139014
0.61706203 0.026435934 0.017539028
0.61589617 0.026420129 0.017939109
0.61473161 0.026406016 0.01833926
0.61356843 0.026393598 0.018739477
0.61240649 0.026382903 0.019139787
0.61124593 0.026373871 0.01954014
0.61008674 0.026366532 0.019940561
0.60892886 0.026360886 0.02034105
0.60777229 0.026356965 0.020741632
0.60661709 0.026354706 0.021142256
0.60616368 0.025779851 0.021119235
0.60501045 0.02578013 0.021519963
0.60385859 0.025782105 0.021920756
0.6027081 0.02578577 0.022321617
0.60155886 0.025791164 0.022722572
0.600411 0.025798216 0.02312357
0.5992645 0.025806962 0.023524635
0.59811932 0.025817402 0.023925768
0.59697539 0.025829569 0.024326993
0.59583288 0.025843395 0.024728263
0.59469169 0.025858913 0.025129598
0.59355187 0.025876125 0.025531001
0.59310579 0.025310583 0.025508355
0.59196794 0.025330335 0.025909862
0.5908314 0.025351813 0.026311459
0.58969623 0.025374955 0.026713101
0.58925217 0.024811951 0.026690556
0.58811903 0.024837628 0.027092298
0.5869872 0.024865 0.02749411
0.58654445 0.024303691 0.027471632
0.58541465 0.024333604 0.027873544
0.58497262 0.023773143 0.027851101
0.58340335 0.023246011 0.02823073
0.58296198 0.022686394 0.028208319
0.5825206 0.022126781 0.02818591
0.58207923 0.021567164 0.0281635
0.58095539 0.021604694 0.028565718
0.57983291 0.02164392 0.028968003
0.57939285 0.021085998 0.02894566
0.577833 0.020570688 0.02932574
0.57739365 0.02001361 0.029303432
0.57583708 0.019502567 0.029683705
0.57539833 0.018946337 0.02966143
0.57495964 0.018390106 0.029639157
0.57452095 0.017833877 0.029616881
0.5740822 0.017277649 0.029594608
0.57364351 0.016721418 0.029572332
0.57320482 0.016165189 0.029550059
0.57276607 0.01560896 0.029527783
0.57232738 0.015052729 0.02950551
0.57188869 0.014496502 0.029483235
0.57144994 0.013940271 0.029460961
0.57101125 0.01338404 0.029438686
0.57057256 0.012827814 0.029416412
0.57013381 0.012271583 0.029394137
0.56969512 0.011715355 0.029371863
0.56925637 0.011159125 0.029349588
0.56881768 0.010602895 0.029327314
0.56837898 0.010046667 0.029305039
0.56794024 0.0094904369 0.029282765
0.56750154 0.0089342063 0.02926049
0.56706285 0.0083779795 0.029238217
0.5666241 0.007821749 0.029215941
0.56618541 0.0072655184 0.029193668
0.56574672 0.0067092907 0.029171392
0.56530797 0.0061530606 0.029149117
0.56486928 0.0055968328 0.029126843
0.56443059 0.0050406028 0.029104568
0.56465161 0.0038584103 0.028656488
0.56421226 0.0033013325 0.028634179
0.56443125 0.002116631 0.028186023
0.56399125 0.0015587059 0.028163681
0.56420821 0.00037146793 0.027715422
0.56376749 -0.00018730455 0.027693046
0.56332678 -0.00074607122 0.02767067
0.56354117 -0.0019366986 0.027222276
0.5637542 -0.0031290534 0.026773788
0.56331217 -0.0036895147 0.026751345
0.56352317 -0.004884379 0.026302781
0.5637328 -0.006080932 0.02585415
0.5632894 -0.0066430881 0.025831638
0.562195 -0.0065683052 0.026235348
0.64809042 0.025363741 0.0055692289
0.64616799 0.025849639 0.0063920906
0.64424819 0.026338955 0.0072151134
0.64233112 0.026831627 0.0080382461
0.64041668 0.027327716 0.0088615399
0.63850492 0.02782716 0.0096849445
0.63731468 0.027779719 0.010084746
0.63612574 0.02773397 0.010484616
0.63493812 0.027689949 0.010884579
0.63446873 0.027094774 0.010860745
0.63328314 0.027053259 0.011260784
0.63209891 0.027013438 0.011660892
0.630916 0.026975309 0.012061066
0.62973446 0.026938872 0.012461309
0.62855417 0.026904164 0.012861645
0.62737525 0.026871115 0.013262023
0.6261977 0.026839759 0.01366247
0.62502146 0.026810097 0.014062983
0.62384653 0.026782159 0.01446359
0.62267298 0.026755884 0.014864241
0.62150079 0.026731301 0.015264958
0.62032992 0.026708411 0.015665743
0.61916035 0.026687214 0.016066596
0.6179921 0.026667744 0.016467541
0.61682522 0.026649933 0.016868532
0.61565965 0.026633818 0.017269587
0.61449546 0.026619393 0.017670712
0.61333257 0.026606664 0.018071903
0.61217099 0.02659566 0.018473189
0.61101079 0.026586317 0.018874517
0.60985196 0.026578667 0.019275911
0.60869443 0.026572708 0.019677375
0.60753816 0.026568478 0.020078931
0.60638332 0.026565906 0.02048053
0.60592991 0.025991051 0.02045751
0.6047771 0.025991021 0.02085921
0.60362554 0.025992682 0.021260979
0.6024754 0.025996039 0.021662815
0.60132647 0.02600112 0.022064745
0.60017896 0.026007861 0.022466717
0.59903282 0.026016297 0.022868756
0.59788793 0.026026426 0.023270864
0.59674442 0.02603828 0.023673065
0.59560221 0.026051795 0.024075307
0.59446138 0.026067004 0.024477618
0.59332192 0.026083903 0.024879998
0.59287584 0.025518361 0.02485735
0.59173834 0.025537804 0.02525983
0.59060216 0.025558971 0.025662404
0.58946735 0.025581799 0.02606502
0.58902329 0.025018798 0.026042474
0.58789045 0.025044164 0.026445191
0.58675897 0.025071224 0.026847977
0.58631623 0.024509914 0.026825499
0.58518678 0.024539517 0.027228385
0.58361721 0.024011226 0.027608957
0.58317584 0.023451613 0.027586546
0.58273441 0.022891996 0.027564136
0.58116889 0.022368755 0.027944885
0.58072817 0.021809984 0.027922507
0.57960606 0.021848898 0.028325768
0.579166 0.021290977 0.028303426
0.5776065 0.020775355 0.02868448
0.57716709 0.020218277 0.028662171
0.57561088 0.019706924 0.029043419
0.57517219 0.019150693 0.029021146
0.5747335 0.018594462 0.02899887
0.57429475 0.018038236 0.028976597
0.57385606 0.017482005 0.028954322
0.57341737 0.016925775 0.028932048
0.57297862 0.016369548 0.028909773
0.57253993 0.015813317 0.028887499
0.57210118 0.015257087 0.028865224
0.57166249 0.014700859 0.02884295
0.5712238 0.014144628 0.028820675
0.57078505 0.013588399 0.028798401
0.57034636 0.013032171 0.028776126
0.56990767 0.01247594 0.028753852
0.56946892 0.011919713 0.028731577
0.56903023 0.011363483 0.028709304
0.56859154 0.010807252 0.028687028
0.56815279 0.010251025 0.028664753
0.5677141 0.0096947942 0.028642479
0.5672754 0.0091385636 0.028620204
0.56683666 0.0085823368 0.02859793
0.56639796 0.0080261063 0.028575655
0.56595922 0.0074698757 0.028553382
0.56552052 0.0069136485 0.028531106
0.56508183 0.0063574179 0.028508833
0.56464309 0.0058011906 0.028486557
0.56420439 0.0052449601 0.028464284
0.56442511 0.0040630787 0.028015228
0.56398576 0.0035060011 0.027992919
0.56420439 0.0023216105 0.027543789
0.56376433 0.0017636854 0.027521446
0.56398106 0.00057675858 0.027072214
0.56354034 1.7986067e-05 0.027049838
0.56309962 -0.0005407806 0.027027462
0.5633136 -0.001731097 0.026578093
0.56352633 -0.0029231405 0.026128629
0.56308424 -0.0034836021 0.026106186
0.56329489 -0.0046781553 0.025656648
0.56350422 -0.0058743972 0.025207043
0.56306088 -0.0064365533 0.025184531
0.56196678 -0.0063620815 0.025589215
0.56152403 -0.0069233901 0.025566736
0.64544541 0.025467239 0.0056720483
0.64280719 0.026505049 0.0069216983
0.64017296 0.027547939 0.0081715519
0.63898104 0.027497645 0.0085722264
0.63779044 0.027449045 0.0089729698
0.63588339 0.027952949 0.0097985258
0.63541329 0.027356928 0.0097746579
0.63422674 0.027313441 0.01017563
0.6330415 0.027271613 0.010576643
0.63185757 0.027231481 0.010977725
0.63067502 0.027193042 0.011378875
0.62949383 0.027156295 0.011780092
0.6283139 0.027121274 0.012181403
0.62713534 0.027087914 0.012582756
0.62595809 0.027056247 0.012984176
0.6247822 0.027026273 0.013385665
0.62360764 0.026998026 0.013787246
0.62243444 0.026971439 0.014188871
0.62126255 0.026946545 0.014590562
0.62009203 0.026923344 0.014992322
0.61892283 0.026901836 0.01539415
0.61775488 0.026882054 0.015796071
0.61658835 0.026863934 0.016198033
0.6154232 0.026847506 0.016600065
0.6142593 0.026832771 0.017002163
0.61309677 0.02681973 0.017404331
0.61193556 0.026808415 0.01780659
0.61077571 0.026798761 0.018208891
0.60961717 0.0267908 0.018611262
0.60846001 0.02678453 0.019013699
0.6073041 0.026779989 0.019416232
0.60614961 0.026777107 0.019818805
0.6056962 0.026202252 0.019795785
0.60454369 0.026201909 0.020198459
0.60339248 0.026203262 0.020601202
0.60224265 0.026206305 0.021004014
0.60109413 0.026211077 0.021406917
0.59994698 0.026217505 0.021809863
0.59880114 0.02622563 0.022212878
0.59765661 0.026235448 0.02261596
0.59651345 0.026246993 0.023019135
0.5953716 0.026260197 0.023422353
0.59423113 0.026275093 0.023825638
0.59309196 0.026291683 0.02422899
0.59264588 0.025726141 0.024206344
0.59150875 0.025745271 0.024609799
0.59037286 0.025766127 0.025013346
0.58923841 0.025788646 0.025416937
0.58879435 0.025225643 0.025394391
0.58766186 0.025250698 0.025798084
0.58653075 0.025277447 0.026201844
0.586088 0.024716139 0.026179366
0.58451682 0.024184968 0.026560783
0.58338964 0.024216829 0.026964772
0.58294827 0.023657214 0.026942363
0.58138239 0.023132814 0.027324051
0.58094168 0.022574045 0.027301675
0.5793792 0.022053879 0.027683534
0.57893914 0.021495957 0.027661191
0.57738 0.020980025 0.02804322
0.5769406 0.020422947 0.028020911
0.57538474 0.019911282 0.028403135
0.57494605 0.019355051 0.02838086
0.5745073 0.018798821 0.028358584
0.57406861 0.018242594 0.028336311
0.57362986 0.017686363 0.028314035
0.57319117 0.017130133 0.028291762
0.57275248 0.016573904 0.028269487
0.57231373 0.016017674 0.028247213
0.57187504 0.015461444 0.028224938
0.57143635 0.014905216 0.028202664
0.5709976 0.014348987 0.028180389
0.57055891 0.013792756 0.028158115
0.57012022 0.013236528 0.02813584
0.56968147 0.012680298 0.028113566
0.56924278 0.01212407 0.028091291
0.56880409 0.01156784 0.028069017
0.56836534 0.01101161 0.028046742
0.56792665 0.010455382 0.028024469
0.5674879 0.0098991515 0.028002193
0.56704921 0.009342921 0.02797992
0.56661052 0.0087866941 0.027957644
0.56617177 0.0082304636 0.027935371
0.56573308 0.0076742331 0.027913095
0.56529438 0.0071180058 0.027890822
0.56485564 0.0065617752 0.027868547
0.56441694 0.0060055479 0.027846273
0.56397825 0.0054493174 0.027823998
0.56419861 0.0042677475 0.027373968
0.56375921 0.0037106697 0.027351659
0.56397754 0.0025265901 0.026901554
0.56353748 0.001968665 0.026879212
0.56375384 0.00078204909 0.026429003
0.56331313 0.00022327663 0.026406627
0.56287241 -0.00033549004 0.026384251
0.56308603 -0.0015254953 0.025933908
0.5632984 -0.0027172279 0.025483472
0.56285638 -0.0032776895 0.025461027
0.56306666 -0.0044719316 0.025010515
0.56327564 -0.0056678625 0.024559934
0.5628323 -0.0062300186 0.024537424
0.56173855 -0.0061558578 0.024943082
0.56129581 -0.0067171664 0.024920603
0.64328253 0.026179092 0.0058032013
0.63873762 0.027717555 0.0078832135
0.63754743 0.027668646 0.0082849301
0.6363585 0.027621428 0.0086867157
0.635171 0.027575905 0.0090885684
0.63398468 0.027532106 0.0094905142
0.6327998 0.02748997 0.0098925028
0.63233107 0.026895642 0.0098687029
0.63114816 0.026856044 0.010270793
0.62996662 0.026818139 0.01067295
0.62878644 0.026781928 0.011075176
0.62760752 0.026747443 0.011477496
0.62642998 0.026714619 0.011879857
0.62525374 0.026683487 0.012282286
0.62407887 0.02665405 0.012684783
0.62290531 0.026626337 0.013087373
0.62102431 0.02716179 0.013916167
0.61985415 0.027138278 0.014318901
0.61868531 0.027116459 0.014721704
0.61751771 0.027096365 0.015124599
0.61635154 0.027077934 0.015527537
0.61518669 0.027061196 0.015930543
0.61402315 0.02704615 0.016333615
0.61286098 0.027032798 0.016736757
0.61170012 0.02702117 0.017139992
0.61054057 0.027011205 0.017543267
0.60938239 0.027002933 0.017946612
0.60822558 0.026996354 0.018350026
0.60707003 0.0269915 0.01875353
0.60591584 0.026988307 0.019157078
0.60546243 0.026413452 0.019134058
0.60431027 0.0264128 0.019537708
0.60315943 0.026413839 0.019941425
0.60200995 0.026416574 0.020345211
0.60086173 0.026421033 0.020749088
0.59971493 0.026427152 0.02115301
0.59856945 0.026434965 0.021557
0.59742528 0.026444472 0.021961056
0.59628242 0.026455704 0.022365205
0.59514093 0.026468597 0.022769397
0.59400082 0.026483184 0.023173658
0.59286201 0.026499461 0.023577984
0.59241593 0.025933919 0.023555338
0.59127915 0.02595274 0.023959767
0.59014362 0.025973285 0.024364289
0.58900946 0.025995491 0.024768855
0.58856541 0.02543249 0.02474631
0.58743328 0.025457233 0.025150975
0.58630252 0.025483672 0.025555711
0.58585978 0.024922362 0.025533233
0.58428895 0.02439088 0.025915625
0.58316213 0.02442243 0.026320588
0.5827207 0.023862816 0.026298178
0.58227932 0.0233032 0.026275769
0.58115524 0.023338106 0.026680842
0.58071452 0.022779336 0.026658466
0.57959241 0.022816781 0.027063642
0.57915235 0.022258859 0.027041299
0.5780322 0.022298843 0.027446575
0.57759285 0.021741768 0.027424268
0.57715344 0.021184692 0.02740196
0.5767141 0.020627616 0.027379651
0.57515854 0.020115638 0.027762849
0.57471985 0.019559408 0.027740574
0.57428116 0.019003177 0.0277183
0.57384241 0.01844695 0.027696025
0.57340372 0.01789072 0.027673751
0.57296503 0.017334489 0.027651476
0.57252628 0.016778262 0.027629202
0.57208759 0.016222032 0.027606927
0.5716489 0.015665801 0.027584653
0.57121015 0.015109574 0.027562378
0.57077146 0.014553344 0.027540104
0.57033271 0.013997113 0.027517829
0.56989402 0.013440886 0.027495554
0.56945533 0.012884655 0.02747328
0.56901658 0.012328428 0.027451005
0.56857789 0.011772198 0.027428731
0.5681392 0.011215967 0.027406456
0.56770045 0.010659739 0.027384182
0.56726176 0.010103509 0.027361907
0.56682307 0.0095472792 0.027339634
0.56638432 0.0089910515 0.027317358
0.56594563 0.0084348209 0.027295085
0.56550694 0.0078785904 0.027272809
0.56506819 0.0073223631 0.027250536
0.5646295 0.006766133 0.02722826
0.56419075 0.0062099053 0.027205987
0.56375206 0.0056536747 0.027183712
0.56397212 0.0044724159 0.026732707
0.56353271 0.0039153383 0.026710398
0.56375068 0.0027315696 0.026259318
0.56331062 0.0021736445 0.026236976
0.56352663 0.00098733976 0.025785794
0.56308591 0.00042856723 0.025763419
0.5626452 -0.00013019941 0.025741043
0.56285852 -0.0013198936 0.025289724
0.56307054 -0.0025113153 0.024838313
0.56262851 -0.0030717768 0.024815869
0.56283844 -0.0042657079 0.024364382
0.56304711 -0.0054613277 0.023912827
0.56260371 -0.0060234838 0.023890315
0.56151026 -0.0059496341 0.024296949
0.56106758 -0.0065109427 0.02427447
0.64303744 0.026400557 0.0051093148
0.64256203 0.025797764 0.0050851754
0.63921273 0.027388973 0.0067675719
0.63802218 0.027338905 0.0071702297
0.63683295 0.027290531 0.0075729555
0.63564509 0.027243849 0.0079757487
0.63445854 0.02719886 0.00837861
0.6332733 0.027155597 0.0087815644
0.63208938 0.027113996 0.0091845617
0.63090688 0.027074087 0.009587626
0.62972564 0.027035872 0.0099907592
0.62854582 0.026999351 0.010393959
0.6273672 0.026964555 0.010797253
0.62619001 0.026931418 0.011200588
0.62501419 0.026899977 0.011603992
0.62454939 0.026310729 0.011580396
0.62337554 0.026281826 0.011983901
0.62149453 0.026815841 0.012814636
0.62032402 0.026791172 0.013218311
0.61915487 0.026768196 0.013622054
0.61728054 0.027310677 0.014453127
0.61611468 0.027291933 0.01485704
0.61495018 0.027274884 0.01526102
0.613787 0.027259527 0.015665067
0.61262518 0.027245864 0.016069183
0.61146462 0.027233927 0.016473392
0.61030549 0.02722365 0.016877644
0.60914761 0.027215067 0.017281963
0.60799116 0.027208176 0.01768635
0.60683596 0.027203012 0.018090829
0.60568213 0.027199507 0.018495353
0.60522872 0.026624652 0.018472333
0.60407686 0.026623689 0.018876957
0.60292637 0.026624417 0.019281648
0.60177726 0.02662684 0.019686408
0.60062939 0.026630988 0.020091262
0.59948289 0.026636796 0.020496156
0.59833777 0.026644299 0.020901119
0.59719396 0.026653495 0.021306152
0.59605145 0.026664417 0.021711275
0.59491032 0.026676999 0.022116443
0.5937705 0.026691273 0.022521676
0.59263206 0.026707241 0.022926979
0.59218597 0.026141699 0.022904331
0.59104949 0.026160207 0.023309736
0.58991432 0.026180441 0.023715233
0.58878058 0.026202338 0.024120772
0.58833653 0.025639335 0.024098227
0.58720469 0.025663767 0.024503868
0.58607423 0.025689894 0.024909578
0.58563155 0.025128586 0.0248871
0.58406103 0.024596794 0.025270466
0.58293456 0.024628032 0.025676405
0.58249319 0.024068417 0.025653994
0.58136874 0.024102164 0.026060009
0.58092803 0.023543395 0.026037633
0.58048731 0.022984626 0.026015256
0.57936555 0.023021759 0.026421405
0.57892549 0.022463838 0.026399065
0.5778057 0.022503512 0.026805315
0.57736635 0.021946436 0.026783006
0.57692695 0.021389361 0.026760699
0.5764876 0.020832283 0.02673839
0.57537109 0.020876223 0.027144836
0.5749324 0.020319996 0.027122563
0.57449371 0.019763766 0.027100287
0.57405496 0.019207535 0.027078014
0.57361627 0.018651308 0.027055738
0.57317752 0.018095078 0.027033465
0.57273883 0.017538847 0.02701119
0.57230014 0.016982621 0.026988916
0.57186139 0.01642639 0.026966641
0.5714227 0.015870159 0.026944367
0.57098401 0.015313932 0.026922092
0.57054526 0.014757701 0.026899818
0.57010657 0.014201471 0.026877543
0.56966788 0.013645243 0.026855269
0.56922913 0.013089013 0.026832994
0.56879044 0.012532786 0.026810721
0.56835175 0.011976555 0.026788445
0.567913 0.011420324 0.026766172
0.56747431 0.010864097 0.026743896
0.56703556 0.010307867 0.026721623
0.56659687 0.0097516365 0.026699347
0.56615818 0.0091954088 0.026677074
0.56571943 0.0086391782 0.026654799
0.56528074 0.0080829477 0.026632523
0.56484205 0.0075267209 0.02661025
0.5644033 0.0069704903 0.026587974
0.56396461 0.0064142626 0.026565701
0.56352592 0.0058580325 0.026543425
0.56374556 0.0046770843 0.026091447
0.56330621 0.0041200067 0.026069138
0.56352383 0.0029365493 0.025617084
0.56308377 0.0023786239 0.025594741
0.56329942 0.0011926303 0.025142586
0.5628587 0.00063385785 0.025120208
0.56241798 7.5091179e-05 0.025097832
0.56263095 -0.0011142921 0.024645541
0.56284267 -0.0023054027 0.024193155
0.56240058 -0.002865864 0.024170712
0.56261021 -0.0040594842 0.023718249
0.56281853 -0.005254793 0.023265719
0.56237513 -0.0058169491 0.023243207
0.56128204 -0.0057434104 0.023650816
0.56083935 -0.006304719 0.023628337
0.63968712 0.02706098 0.0056499564
0.63777876 0.027558815 0.0064812163
0.63658988 0.027510129 0.0068849162
0.63611847 0.026912415 0.0068609808
0.63493162 0.026866268 0.0072647827
0.63374609 0.026821816 0.0076686521
0.63256186 0.026779089 0.0080726156
0.63137901 0.026738023 0.0084766205
0.63019747 0.026698651 0.0088806935
0.62901729 0.026660971 0.0092848344
0.62783843 0.026624983 0.0096890433
0.62666082 0.026590724 0.010093345
0.62548465 0.026558124 0.01049769
0.62430984 0.026527217 0.010902102
0.62313628 0.026498003 0.011306582
0.6219641 0.026470516 0.011711155
0.62079322 0.026444688 0.012115771
0.61891699 0.026983129 0.012948633
0.61704338 0.027524987 0.013781656
0.61587787 0.027505934 0.014186542
0.61471367 0.027488573 0.014591497
0.61355084 0.027472904 0.014996519
0.61238939 0.02745893 0.01540161
0.61122918 0.027446682 0.015806794
0.61007035 0.027436094 0.01621202
0.60891283 0.0274272 0.016617313
0.60775667 0.027419997 0.017022675
0.60660183 0.027414523 0.01742813
0.60544837 0.027410708 0.017833626
0.60499495 0.026835853 0.017810605
0.60384351 0.026834577 0.018216206
0.60269332 0.026834996 0.018621871
0.60154456 0.026837109 0.019027606
0.60039705 0.026840946 0.019433433
0.59925091 0.026846442 0.019839304
0.59810609 0.026853634 0.020245241
0.59696263 0.026862519 0.020651247
0.59582049 0.026873128 0.021057347
0.59467965 0.0268854 0.021463487
0.59354019 0.026899364 0.021869697
0.5924021 0.026915019 0.022275973
0.59195602 0.026349477 0.022253325
0.5908199 0.026367676 0.022659704
0.58968508 0.026387598 0.023066176
0.58855164 0.026409183 0.023472691
0.58810759 0.025846181 0.023450145
0.58697611 0.025870303 0.023856761
0.58540332 0.025334809 0.024240967
0.58383316 0.024802707 0.024625309
0.58270699 0.024833633 0.02503222
0.58226562 0.02427402 0.025009811
