# .PCD v0.7 - Point Cloud Data file format
VERSION 0.7
FIELDS x y z
SIZE 4 4 4
TYPE F F F
COUNT 1 1 1
WIDTH 1380
HEIGHT 1
VIEWPOINT 0 0 0 1 0 0 0
POINTS 1380
DATA ascii
0.48102239 0.051133208 0.0239853
0.4800292 0.051283274 0.0244621
0.47964656 0.050798159 0.024442673
0.47865537 0.050950758 0.024919579
0.47766551 0.051105052 0.025396548
0.47728422 0.050621632 0.02537719
0.47629637 0.050778463 0.025854262
0.47591573 0.050295889 0.025834937
0.47553512 0.049813319 0.025815612
0.47515449 0.049330745 0.025796287
0.47416994 0.049491845 0.026273556
0.47378999 0.049010117 0.026254265
0.47341004 0.048528384 0.026234975
0.47303009 0.04804666 0.026215684
0.47204891 0.048211958 0.026693096
0.47166961 0.047731079 0.02667384
0.47129035 0.0472502 0.026654582
0.47091106 0.046769321 0.026635326
0.47053179 0.046288438 0.026616069
0.4701525 0.045807559 0.026596813
0.4697732 0.04532668 0.026577555
0.46939394 0.044845801 0.026558297
0.46901464 0.044364922 0.026539041
0.46863538 0.043884039 0.026519783
0.46825609 0.04340316 0.026500527
0.46787682 0.042922281 0.026481269
0.46749753 0.042441402 0.026462013
0.46711823 0.041960515 0.026442755
0.46673897 0.041479636 0.026423497
0.46635967 0.040998757 0.026404241
0.46598041 0.040517878 0.026384983
0.46560112 0.040037002 0.026365727
0.46522182 0.039556116 0.026346469
0.46484256 0.039075237 0.026327213
0.46446326 0.038594358 0.026307955
0.464084 0.038113479 0.026288699
0.46370471 0.037632596 0.026269441
0.46332544 0.037151717 0.026250184
0.46294615 0.036670838 0.026230928
0.46256685 0.036189958 0.02621167
0.46218759 0.035709072 0.026192414
0.46180829 0.035228197 0.026173156
0.46142903 0.034747317 0.0261539
0.46104974 0.034266438 0.026134642
0.46067047 0.033785559 0.026115384
0.46029118 0.033304673 0.026096128
0.45991188 0.032823794 0.02607687
0.45953262 0.032342914 0.026057614
0.45915332 0.031862035 0.026038356
0.45877403 0.031381153 0.026019098
0.45839477 0.030900273 0.025999842
0.458592 0.029741045 0.025482627
0.45821208 0.02925932 0.025463335
0.45840734 0.028097512 0.024945991
0.45802674 0.027614938 0.024926666
0.45821998 0.026450632 0.024409249
0.45783868 0.025967211 0.024389891
0.45802993 0.024800355 0.023872374
0.45821983 0.023631813 0.023354784
0.45783719 0.023146704 0.023335358
0.4580251 0.021975618 0.022817669
0.45821169 0.020802811 0.022299886
0.45839694 0.019628337 0.021782059
0.45801231 0.019140685 0.021762531
0.45762768 0.018653033 0.021743003
0.45667589 0.018855581 0.022221908
0.45629191 0.018368777 0.022202414
0.4564738 0.017190071 0.021684418
0.4560892 0.016702419 0.02166489
0.50952393 0.035580873 0.0053399
0.50725716 0.03693261 0.0068093701
0.48350781 0.054713469 0.023562124
0.48373881 0.053597692 0.02304564
0.48335487 0.053110886 0.023026146
0.48297089 0.052624084 0.023006652
0.48258695 0.052137274 0.022987157
0.48220298 0.051650468 0.022967663
0.48181903 0.051163662 0.022948168
0.4808248 0.05131175 0.023425901
0.47983193 0.051461503 0.023903679
0.4794493 0.050976384 0.023884254
0.47845846 0.051128674 0.02436213
0.47746894 0.051282659 0.024840076
0.47708765 0.050799239 0.024820717
0.47610015 0.050955761 0.025298763
0.47571951 0.050473187 0.025279438
0.47533891 0.049990613 0.025260113
0.47495827 0.049508039 0.025240788
0.47397408 0.04966883 0.025719034
0.47359413 0.049187101 0.025699742
0.47321415 0.048705369 0.025680451
0.47283423 0.048223644 0.025661161
0.47185338 0.048388634 0.026139546
0.47147408 0.047907755 0.026120288
0.47109482 0.047426876 0.026101032
0.47071552 0.046945997 0.026081774
0.47033626 0.046465114 0.026062518
0.46995696 0.045984235 0.02604326
0.4695777 0.045503356 0.026024004
0.46919841 0.045022476 0.026004747
0.46881911 0.044541597 0.025985491
0.46843985 0.044060711 0.025966233
0.46806055 0.043579832 0.025946975
0.46768129 0.043098953 0.025927719
0.46730199 0.042618077 0.025908461
0.4669227 0.042137191 0.025889205
0.46654344 0.041656312 0.025869947
0.46616414 0.041175433 0.025850689
0.46578488 0.040694553 0.025831433
0.46540558 0.040213674 0.025812175
0.46502629 0.039732791 0.025792919
0.46464702 0.039251912 0.025773661
0.46426773 0.038771033 0.025754405
0.46388847 0.038290154 0.025735147
0.46350917 0.037809268 0.025715889
0.46312991 0.037328392 0.025696633
0.46275061 0.036847513 0.025677375
0.46237132 0.036366634 0.025658119
0.46199206 0.035885748 0.025638862
0.46161276 0.035404868 0.025619606
0.4612335 0.034923989 0.025600348
0.4608542 0.03444311 0.025581092
0.46047494 0.033962231 0.025561834
0.46009564 0.033481348 0.025542576
0.45971635 0.033000469 0.02552332
0.45933709 0.03251959 0.025504062
0.45895779 0.032038711 0.025484806
0.45857853 0.031557828 0.025465548
0.45819923 0.031076947 0.025446292
0.45839614 0.02991803 0.024928102
0.45801619 0.029436305 0.024908813
0.45821112 0.028274808 0.024390493
0.45783052 0.027792234 0.024371168
0.4580234 0.026628239 0.023852777
0.45764211 0.026144817 0.023833418
0.45783302 0.024978274 0.023314925
0.45802256 0.023810042 0.022796365
0.45763996 0.023324931 0.022776937
0.45782751 0.022154158 0.022258271
0.45801377 0.020981662 0.021739515
0.45819864 0.019807499 0.021220714
0.45781401 0.019319847 0.021201184
0.45742941 0.018832196 0.021181656
0.45647794 0.019034432 0.021661537
0.45666015 0.017856885 0.0211426
0.45627552 0.017369233 0.021123072
0.45589089 0.016881581 0.021103542
0.50704783 0.037121728 0.006216838
0.48331022 0.054892007 0.023002729
0.48354086 0.053776544 0.022485266
0.48315692 0.053289741 0.022465771
0.48277295 0.052802935 0.022446277
0.482389 0.052316125 0.022426782
0.48200506 0.051829319 0.022407288
0.48162109 0.051342517 0.022387793
0.48062721 0.051490288 0.022866506
0.47963467 0.051639732 0.023345256
0.47925207 0.051154617 0.023325829
0.47826156 0.051306594 0.023804681
0.47727239 0.05146027 0.024283599
0.4768911 0.050976846 0.024264241
0.47590393 0.051133055 0.024743265
0.47552329 0.050650485 0.02472394
0.47514269 0.050167911 0.024704615
0.47476205 0.049685337 0.02468529
0.47377819 0.049845815 0.025164507
0.47339824 0.04936409 0.025145216
0.47301829 0.048882358 0.025125924
0.47263834 0.048400629 0.025106635
0.47165784 0.048565309 0.025585996
0.47127855 0.04808443 0.025566738
0.47089928 0.047603551 0.02554748
0.47051999 0.047122672 0.025528224
0.47014073 0.046641786 0.025508966
0.46976143 0.046160907 0.02548971
0.46938217 0.045680027 0.025470452
0.46900287 0.045199152 0.025451196
0.46862358 0.044718273 0.025431938
0.46824431 0.044237386 0.025412681
0.46786502 0.043756507 0.025393425
0.46748576 0.043275628 0.025374167
0.46710646 0.042794749 0.025354911
0.46672717 0.042313866 0.025335653
0.4663479 0.041832987 0.025316397
0.46596861 0.041352108 0.025297139
0.46558934 0.040871229 0.025277883
0.46521005 0.04039035 0.025258625
0.46483079 0.039909467 0.025239367
0.46445149 0.039428588 0.025220111
0.4640722 0.038947709 0.025200853
0.46369293 0.03846683 0.025181597
0.46331364 0.037985943 0.025162339
0.46293437 0.037505064 0.025143083
0.46255508 0.037024185 0.025123825
0.46217582 0.036543306 0.025104567
0.46179652 0.036062423 0.025085311
0.46141723 0.035581544 0.025066053
0.46103796 0.035100665 0.025046797
0.46065867 0.034619786 0.02502754
0.46027941 0.034138907 0.025008284
0.45990011 0.033658024 0.024989026
0.45952082 0.033177145 0.024969768
0.45914155 0.032696266 0.024950512
0.45876226 0.032215387 0.024931254
0.45838299 0.0317345 0.024911998
0.4580037 0.031253621 0.02489274
0.45820028 0.030095017 0.024373576
0.45782033 0.02961329 0.024354286
0.45801491 0.028452104 0.023834996
0.4576343 0.02796953 0.023815671
0.45782685 0.026805848 0.0232963
0.45744556 0.026322426 0.023276942
0.45763609 0.025156192 0.022757476
0.4578253 0.023988271 0.02223794
0.4574427 0.023503162 0.022218514
0.45762992 0.022332698 0.021698875
0.45781583 0.021160515 0.021179141
0.45800036 0.019986661 0.020659367
0.45761573 0.019499009 0.020639839
0.4572311 0.019011358 0.020620311
0.45627999 0.019213285 0.021101164
0.45646185 0.018036049 0.020581255
0.45607725 0.017548395 0.020561725
0.45569262 0.017060744 0.020542197
0.45530799 0.016573092 0.020522669
0.50745744 0.036688458 0.0051256316
0.4831126 0.055070549 0.02244333
0.48334292 0.053955395 0.021924894
0.48295897 0.053468592 0.0219054
0.48257503 0.052981786 0.021885907
0.48219106 0.052494977 0.021866411
0.48180711 0.052008171 0.021846918
0.48142314 0.051521368 0.021827424
0.48042959 0.05166883 0.022307107
0.47943744 0.051817961 0.022786833
0.47905481 0.051332846 0.022767406
0.47806466 0.051484514 0.023247233
0.47707582 0.051637877 0.023727126
0.47669452 0.051154457 0.023707766
0.47570771 0.051310353 0.024187764
0.47532707 0.050827779 0.024168439
0.47494647 0.050345208 0.024149114
0.47456583 0.049862634 0.024129789
0.47358233 0.0500228 0.024609985
0.47320238 0.049541075 0.024590693
0.47282243 0.049059343 0.024571402
0.47244248 0.048577614 0.024552111
0.47146231 0.048741981 0.025032448
0.47108305 0.048261102 0.02501319
0.47070375 0.047780223 0.024993934
0.47032446 0.047299344 0.024974676
0.46994519 0.046818461 0.02495542
0.4695659 0.046337582 0.024936162
0.46918663 0.045856703 0.024916906
0.46880734 0.045375824 0.024897648
0.46842808 0.044894945 0.02487839
0.46804878 0.044414062 0.024859134
0.46766949 0.043933183 0.024839876
0.46729022 0.043452304 0.02482062
0.46691093 0.042971425 0.024801362
0.46653166 0.042490538 0.024782106
0.46615237 0.042009659 0.024762848
0.46577308 0.04152878 0.024743591
0.46539381 0.041047901 0.024724334
0.46501452 0.040567026 0.024705077
0.46463525 0.040086139 0.024685821
0.46425596 0.03960526 0.024666563
0.46387669 0.039124381 0.024647307
0.4634974 0.038643502 0.024628049
0.46311811 0.038162619 0.024608791
0.46273884 0.03768174 0.024589535
0.46235955 0.037200861 0.024570277
0.46198028 0.036719982 0.024551021
0.46160099 0.036239095 0.024531763
0.46122169 0.035758216 0.024512507
0.46084243 0.035277341 0.024493249
0.46046314 0.034796461 0.024473993
0.46008387 0.034315582 0.024454735
0.45970458 0.033834696 0.024435477
0.45932531 0.033353817 0.024416221
0.45894602 0.032872938 0.024396963
0.45856673 0.032392059 0.024377707
0.45818746 0.031911176 0.02435845
0.45780817 0.031430297 0.024339193
0.45800439 0.030272001 0.023819054
0.45762444 0.029790275 0.023799764
0.45781869 0.028629402 0.023279494
0.45743808 0.028146828 0.023260169
0.45763028 0.026983455 0.022739828
0.45724899 0.026500033 0.022720469
0.45743918 0.02533411 0.022200027
0.45762807 0.024166502 0.021679517
0.45724544 0.023681391 0.021660089
0.4574323 0.02251124 0.021139476
0.45761788 0.021339366 0.02061877
0.45780209 0.020165823 0.020098021
0.45741746 0.019678172 0.020078493
0.45703283 0.01919052 0.020058965
0.45608205 0.019392136 0.020540792
0.45626357 0.018215211 0.020019908
0.45644376 0.017036596 0.019498955
0.45549434 0.017239906 0.019980852
0.45567319 0.016059598 0.019459831
0.50622326 0.036985215 0.0050111604
0.483145 0.054134246 0.021364525
0.48276103 0.053647444 0.021345031
0.48237708 0.053160638 0.021325536
0.48199311 0.052673828 0.021306042
0.48160917 0.052187022 0.021286547
0.48122522 0.05170022 0.021267053
0.480232 0.051847372 0.021747712
0.47924018 0.05199619 0.022228412
0.47885755 0.051511075 0.022208985
0.47786772 0.05166243 0.022689786
0.47687924 0.051815484 0.023170652
0.47649798 0.051332064 0.023151293
0.47551149 0.051487651 0.023632266
0.47513086 0.051005077 0.023612941
0.47475025 0.050522503 0.023593616
0.47436962 0.050039928 0.023574291
0.47338644 0.050199784 0.024055459
0.47300649 0.04971806 0.024036167
0.47262654 0.049236327 0.024016876
0.47224659 0.048754603 0.023997584
0.47126678 0.048918657 0.024478897
0.47088751 0.048437778 0.02445964
0.47050822 0.047956899 0.024440382
0.47012895 0.04747602 0.024421126
0.46974966 0.046995137 0.024401868
0.46937037 0.046514258 0.024382612
0.4689911 0.046033379 0.024363354
0.46861181 0.0455525 0.024344098
0.46823254 0.04507162 0.02432484
0.46785325 0.044590734 0.024305582
0.46747395 0.044109855 0.024286326
0.46709469 0.043628976 0.024267068
0.4667154 0.043148097 0.024247812
0.46633613 0.042667214 0.024228554
0.46595684 0.042186335 0.024209298
0.46557757 0.041705456 0.02419004
0.46519828 0.041224577 0.024170784
0.46481898 0.040743697 0.024151526
0.46443972 0.040262815 0.024132269
0.46406043 0.039781936 0.024113012
0.46368116 0.039301056 0.024093755
0.46330187 0.038820177 0.024074499
0.46292257 0.038339291 0.024055241
0.46254331 0.037858415 0.024035985
0.46216401 0.037377536 0.024016727
0.46178475 0.036896657 0.023997469
0.46140546 0.036415771 0.023978213
0.46102616 0.035934892 0.023958955
0.4606469 0.035454012 0.023939699
0.4602676 0.034973133 0.023920441
0.45988834 0.034492254 0.023901185
0.45950904 0.034011371 0.023881927
0.45912978 0.033530492 0.023862669
0.45875049 0.033049613 0.023843413
0.45837119 0.032568734 0.023824155
0.45799193 0.032087851 0.023804899
0.45761263 0.031606972 0.023785641
0.45780852 0.030448988 0.023264527
0.45742857 0.029967261 0.023245238
0.45762247 0.028806698 0.022723995
0.45724186 0.028324123 0.02270467
0.4574337 0.027161062 0.022183353
0.45705244 0.02667764 0.022163995
0.45724228 0.02551203 0.021642579
0.45743081 0.024344729 0.021121096
0.45704821 0.02385962 0.02110167
0.45723471 0.02268978 0.020580081
0.45741993 0.021518217 0.020058399
0.45760378 0.020344988 0.019536676
0.45721915 0.019857336 0.019517148
0.45683455 0.019369682 0.019497618
0.45588413 0.019570988 0.019980421
0.45663044 0.017704571 0.018956197
0.45624512 0.01721607 0.018936634
0.45585984 0.01672757 0.018917073
0.48271742 0.05542763 0.021324536
0.48294705 0.054313101 0.02080415
0.48256308 0.053826295 0.020784656
0.48217914 0.053339489 0.020765161
0.48179519 0.052852679 0.020745667
0.48141122 0.052365877 0.020726172
0.48102728 0.051879071 0.020706678
0.48003441 0.05202591 0.021188313
0.47904292 0.052174419 0.021669989
0.47866032 0.051689304 0.021650562
0.47767082 0.05184035 0.022132341
0.47668269 0.051993091 0.022614179
0.4763014 0.051509671 0.022594821
0.47592011 0.051026247 0.022575462
0.47493464 0.051182371 0.023057442
0.47455403 0.0506998 0.023038117
0.4741734 0.050217226 0.023018792
0.47319058 0.050376769 0.023500936
0.47281063 0.049895044 0.023481645
0.47243068 0.049413312 0.023462353
0.47205073 0.048931587 0.023443062
0.47107124 0.049095333 0.023925345
0.47069198 0.048614454 0.023906089
0.47031268 0.048133574 0.023886831
0.46993342 0.047652695 0.023867575
0.46955413 0.047171809 0.023848318
0.46917483 0.04669093 0.02382906
0.46879557 0.046210051 0.023809804
0.46841627 0.045729171 0.023790546
0.46803701 0.045248296 0.02377129
0.46765772 0.04476741 0.023752032
0.46727842 0.04428653 0.023732774
0.46689916 0.043805651 0.023713518
0.46651986 0.043324772 0.02369426
0.4661406 0.042843889 0.023675004
0.4657613 0.04236301 0.023655746
0.46538204 0.041882131 0.02363649
0.46500275 0.041401252 0.023617232
0.46462345 0.040920373 0.023597976
0.46424419 0.040439487 0.023578718
0.46386489 0.039958611 0.02355946
0.46348563 0.039477732 0.023540204
0.46310633 0.038996853 0.023520947
0.46272704 0.038515966 0.02350169
0.46234778 0.038035087 0.023482433
0.46196848 0.037554208 0.023463177
0.46158922 0.037073329 0.023443919
0.46120992 0.036592446 0.023424661
0.46083066 0.036111567 0.023405405
0.46045136 0.035630688 0.023386147
0.46007207 0.035149809 0.023366891
0.45969281 0.03466893 0.023347633
0.45931351 0.034188047 0.023328377
0.45893425 0.033707168 0.023309119
0.45855495 0.033226289 0.023289861
0.45817569 0.03274541 0.023270605
0.45779639 0.032264523 0.023251347
0.4574171 0.031783644 0.023232091
0.45761263 0.030625973 0.022710005
0.45723268 0.030144246 0.022690713
0.45742625 0.028983993 0.022168498
0.45704564 0.028501419 0.022149174
0.45723715 0.027338669 0.02162688
0.45685586 0.026855249 0.021607522
0.45704538 0.025689948 0.021085134
0.45723355 0.02452296 0.020562673
0.45742041 0.023354277 0.020040143
0.45760596 0.022183875 0.01951752
0.45779014 0.021011801 0.018994858
0.45740551 0.02052415 0.018975329
0.45702088 0.020036498 0.018955801
0.45663625 0.019548846 0.018936273
0.45568618 0.019749839 0.019420048
0.45643181 0.017884044 0.018393876
0.45604652 0.017395545 0.018374315
0.45566121 0.016907046 0.018354751
0.48251984 0.055606171 0.020765141
0.4827491 0.054491952 0.020243779
0.48236516 0.054005146 0.020224286
0.48198119 0.05351834 0.020204792
0.48159724 0.05303153 0.020185297
0.48121327 0.052544728 0.020165803
0.48082933 0.052057922 0.020146308
0.47983682 0.052204452 0.020628916
0.47884569 0.052352648 0.021111565
0.47846305 0.051867533 0.021092139
0.47747391 0.052018266 0.021574892
0.47648612 0.052170698 0.022057706
0.47610483 0.051687278 0.022038346
0.47572356 0.051203858 0.022018988
0.47473842 0.051359668 0.022501945
0.47435781 0.050877094 0.022482621
0.47397718 0.05039452 0.022463296
0.47299469 0.050553758 0.02294641
0.47261474 0.050072029 0.022927118
0.47223479 0.049590297 0.022907827
0.47185484 0.049108572 0.022888536
0.47087571 0.049272005 0.023371799
0.47049645 0.048791125 0.023352541
0.47011715 0.048310246 0.023333283
0.46973789 0.047829367 0.023314027
0.46935859 0.047348484 0.023294769
0.4689793 0.046867605 0.023275513
0.46860003 0.046386726 0.023256255
0.46822074 0.045905847 0.023236999
0.46784148 0.045424968 0.023217741
0.46746218 0.044944081 0.023198484
0.46708292 0.044463206 0.023179227
0.46670362 0.043982327 0.02315997
0.46632433 0.043501448 0.023140714
0.46594507 0.043020561 0.023121456
0.46556577 0.042539682 0.0231022
0.46518651 0.042058803 0.023082942
0.46480721 0.041577924 0.023063686
0.46442795 0.041097045 0.023044428
0.46404865 0.040616162 0.02302517
0.46366936 0.040135283 0.023005914
0.4632901 0.039654404 0.022986656
0.4629108 0.039173525 0.0229674
0.46253154 0.038692642 0.022948142
0.46215224 0.038211763 0.022928884
0.46177295 0.037730884 0.022909628
0.46139368 0.037250005 0.02289037
0.46101439 0.036769118 0.022871114
0.46063513 0.036288239 0.022851856
0.46025583 0.03580736 0.0228326
0.45987657 0.035326485 0.022813343
0.45949727 0.034845605 0.022794086
0.45911798 0.034364719 0.022774829
0.45873871 0.03388384 0.022755571
0.45835942 0.033402961 0.022736315
0.45798016 0.032922082 0.022717057
0.45760086 0.032441199 0.022697801
0.45722157 0.03196032 0.022678543
0.45741677 0.030802958 0.022155479
0.45703682 0.030321233 0.022136187
0.45723003 0.029161289 0.021613
0.4568494 0.028678715 0.021593675
0.45704058 0.027516276 0.021070408
0.45665929 0.027032856 0.021051049
0.45684847 0.025867866 0.020527685
0.45703632 0.024701189 0.020004248
0.45722282 0.023532817 0.019480748
0.45740801 0.022362726 0.018957149
0.45759183 0.021190964 0.018433511
0.45720723 0.020703312 0.018413983
0.4568226 0.02021566 0.018394455
0.45643798 0.019728009 0.018374927
0.45661846 0.018552016 0.017851116
0.45584789 0.017575018 0.017811993
0.45546257 0.017086519 0.01779243
0.48255116 0.054670803 0.019683409
0.48216721 0.054183997 0.019663915
0.48178327 0.053697191 0.019644421
0.4813993 0.053210381 0.019624926
0.48101535 0.052723579 0.019605432
0.48063138 0.052236773 0.019585937
0.4796392 0.052382994 0.020069517
0.47864842 0.052530881 0.020553142
0.47826579 0.052045763 0.020533714
0.47727701 0.052196186 0.021017443
0.47689506 0.051711917 0.02099805
0.47590828 0.051864885 0.021481873
0.47552699 0.051381465 0.021462515
0.4745422 0.051536966 0.021946443
0.4741616 0.051054392 0.021927118
0.47378096 0.050571818 0.021907793
0.47279882 0.050730743 0.022391887
0.47241887 0.050249014 0.022372596
0.47203892 0.049767282 0.022353305
0.47165897 0.049285557 0.022334013
0.47068018 0.04944868 0.022818247
0.47030091 0.048967801 0.022798991
0.46992162 0.048486922 0.022779733
0.46954235 0.048006043 0.022760475
0.46916306 0.047525156 0.022741219
0.4687838 0.047044281 0.022721961
0.4684045 0.046563402 0.022702705
0.46802521 0.046082523 0.022683447
0.46764594 0.045601644 0.022664191
0.46726665 0.045120757 0.022644933
0.46688738 0.044639878 0.022625675
0.46650809 0.044158999 0.022606419
0.46612883 0.04367812 0.022587162
0.46574953 0.043197237 0.022567905
0.46537024 0.042716358 0.022548648
0.46499097 0.042235479 0.022529392
0.46461168 0.0417546 0.022510134
0.46423241 0.041273721 0.022490878
0.46385312 0.040792838 0.02247162
0.46347383 0.040311959 0.022452362
0.46309456 0.03983108 0.022433106
0.46271527 0.0393502 0.022413848
0.462336 0.038869314 0.022394592
0.46195671 0.038388435 0.022375334
0.46157742 0.037907559 0.022356078
0.46119815 0.03742668 0.02233682
0.46081886 0.036945794 0.022317562
0.46043959 0.036464915 0.022298306
0.4600603 0.035984036 0.022279048
0.45968103 0.035503156 0.022259792
0.45930174 0.035022277 0.022240534
0.45892245 0.034541395 0.022221278
0.45854318 0.034060515 0.022202021
0.45816389 0.033579636 0.022182763
0.45778462 0.033098757 0.022163507
0.45740533 0.032617874 0.022144249
0.45702603 0.032136995 0.022124993
0.45722088 0.030979943 0.021600956
0.45684093 0.030498218 0.021581665
0.45703381 0.029338587 0.021057498
0.45665318 0.028856013 0.021038173
0.45684403 0.027693884 0.020513935
0.45646274 0.027210463 0.020494575
0.45665157 0.026045784 0.019970238
0.45683905 0.02487942 0.019445825
0.4570252 0.023711359 0.018921349
0.45721006 0.022541577 0.018396778
0.45739356 0.021370128 0.017872162
0.45700893 0.020882476 0.017852634
0.4566243 0.020394824 0.017833106
0.4562397 0.019907171 0.017813578
0.45641983 0.01873149 0.017288797
0.45564926 0.017754491 0.017249672
0.45526397 0.017265992 0.017230108
0.48235324 0.054849654 0.019123035
0.48196927 0.054362848 0.01910354
0.48158532 0.053876046 0.019084046
0.48120135 0.053389236 0.019064551
0.48081741 0.05290243 0.019045057
0.48043343 0.052415624 0.019025562
0.47944161 0.052561533 0.019510122
0.47845116 0.05270911 0.019994721
0.47806856 0.052223992 0.019975295
0.47708011 0.052374106 0.020459995
0.47669816 0.051889837 0.020440603
0.47631618 0.051405568 0.020421209
0.47533041 0.051559072 0.020906042
0.47494915 0.051075649 0.020886684
0.47396538 0.05123169 0.02137162
0.47358474 0.050749116 0.021352295
0.47320414 0.050266542 0.02133297
0.47222298 0.050426003 0.02181807
0.47184303 0.04994427 0.021798778
0.47146308 0.049462542 0.021779487
0.47048464 0.049625356 0.022264697
0.47010538 0.049144477 0.022245439
0.46972609 0.048663598 0.022226183
0.46934682 0.048182718 0.022206925
0.46896753 0.047701832 0.022187667
0.46858826 0.047220953 0.022168411
0.46820897 0.046740074 0.022149153
0.46782967 0.046259195 0.022129897
0.46745041 0.045778316 0.022110639
0.46707112 0.045297433 0.022091383
0.46669185 0.044816554 0.022072125
0.46631256 0.044335674 0.022052869
0.46593329 0.043854795 0.022033611
0.465554 0.043373913 0.022014353
0.4651747 0.042893033 0.021995097
0.46479544 0.042412154 0.02197584
0.46441615 0.041931275 0.021956583
0.46403688 0.041450396 0.021937326
0.46365759 0.04096951 0.02191807
0.46327829 0.040488634 0.021898812
0.46289903 0.040007755 0.021879554
0.46251974 0.039526876 0.021860298
0.46214047 0.03904599 0.02184104
0.46176118 0.03856511 0.021821784
0.46138191 0.038084231 0.021802526
0.46100262 0.037603352 0.02178327
0.46062332 0.037122469 0.021764012
0.46024406 0.03664159 0.021744754
0.45986477 0.036160711 0.021725498
0.4594855 0.035679832 0.02170624
0.45910621 0.035198953 0.021686984
0.45872691 0.03471807 0.021667726
0.45834765 0.034237191 0.02164847
0.45796835 0.033756312 0.021629212
0.45758909 0.033275433 0.021609956
0.4572098 0.032794546 0.021590699
0.45740497 0.031638656 0.021065721
0.45702502 0.031156929 0.02104643
0.45664507 0.030675203 0.021027138
0.45683759 0.029515883 0.020502001
0.45645696 0.029033309 0.020482676
0.45664746 0.027871491 0.01995746
0.45683661 0.026707971 0.019432181
0.45645466 0.026223702 0.019412789
0.4572109 0.024375862 0.018381413
0.45739609 0.023207234 0.017855899
0.45757991 0.022036947 0.017330345
0.45719528 0.02154929 0.017310817
0.45681065 0.021061638 0.017291289
0.45699179 0.019887963 0.016765598
0.45660651 0.019399464 0.016746037
0.45622119 0.018910965 0.016726475
0.45545062 0.017933965 0.01668735
0.45506534 0.017445466 0.016667789
0.48215529 0.055028506 0.018562665
0.48177132 0.0545417 0.018543171
0.48138738 0.054054897 0.018523676
0.4810034 0.053568088 0.018504182
0.48061946 0.053081281 0.018484687
0.48023552 0.052594475 0.018465193
0.47924402 0.052740075 0.018950723
0.47825393 0.052887339 0.019436298
0.4778713 0.052402224 0.019416871
0.4768832 0.052552022 0.019902546
0.47650126 0.052067757 0.019883154
0.47611928 0.051583488 0.01986376
0.47513387 0.051736679 0.020349568
0.47475258 0.051253259 0.020330209
0.47437128 0.050769836 0.020310851
0.47338852 0.05092641 0.020796798
0.47300792 0.050443836 0.020777473
0.47202712 0.050602987 0.021263547
0.47164717 0.050121255 0.021244256
0.47126722 0.049639527 0.021224964
0.47028914 0.049802028 0.021711148
0.46990985 0.049321149 0.021691892
0.46953055 0.048840269 0.021672634
0.46915129 0.04835939 0.021653377
0.46877199 0.047878508 0.02163412
0.46839273 0.047397628 0.021614863
0.46801344 0.046916749 0.021595607
0.46763417 0.04643587 0.021576349
0.46725488 0.045954991 0.021557093
0.46687558 0.045474105 0.021537835
0.46649632 0.044993229 0.021518577
0.46611702 0.04451235 0.021499321
0.46573776 0.044031471 0.021480063
0.46535847 0.043550584 0.021460807
0.46497917 0.043069705 0.021441549
0.46459991 0.042588826 0.021422293
0.46422061 0.042107947 0.021403035
0.46384135 0.041627068 0.021383779
0.46346205 0.041146185 0.021364521
0.46308279 0.040665306 0.021345263
0.4627035 0.040184427 0.021326007
0.4623242 0.039703548 0.021306749
0.46194494 0.039222665 0.021287493
0.46156564 0.038741786 0.021268236
0.46176848 0.03759636 0.02074269
0.46138853 0.037114635 0.020723399
0.46100858 0.036632907 0.020704107
0.46062863 0.036151182 0.020684818
0.46024868 0.035669457 0.020665526
0.45986873 0.035187725 0.020646235
0.45948878 0.034705997 0.020626944
0.45910883 0.034224272 0.020607652
0.45872888 0.033742543 0.020588363
0.45834893 0.033260819 0.020569071
0.45796898 0.032779094 0.02054978
0.45758903 0.032297365 0.020530488
0.45720908 0.031815641 0.020511199
0.45682913 0.031333912 0.020491907
0.45644918 0.030852187 0.020472616
0.45664138 0.029693179 0.019946503
0.45626074 0.029210605 0.019927178
0.45645091 0.028049098 0.019400988
0.45663971 0.026885889 0.018874733
0.4573966 0.02504036 0.017841475
0.45701331 0.024554403 0.017822014
0.45719814 0.023386085 0.017295528
0.45738161 0.02221611 0.016768999
0.45699698 0.021728452 0.016749471
0.45717844 0.020555936 0.01622284
0.45679316 0.020067437 0.016203279
0.45640787 0.019578937 0.016183715
0.45525199 0.01811344 0.016125029
0.45486671 0.017624941 0.016105467
0.48372236 0.056043334 0.017555106
0.48195735 0.055207357 0.018002294
0.4815734 0.054720551 0.0179828
0.48118943 0.054233748 0.017963305
0.48080549 0.053746939 0.017943811
0.48042151 0.053260133 0.017924316
0.48003757 0.052773327 0.017904822
0.47904643 0.052918613 0.018391328
0.47805667 0.053065568 0.018877873
0.47767404 0.052580453 0.018858448
0.47729144 0.052095339 0.01883902
0.47630432 0.052245673 0.019325705
0.47592238 0.051761407 0.019306313
0.47554043 0.051277142 0.019286919
0.474556 0.051430866 0.019773737
0.47417474 0.050947443 0.019754378
0.4731923 0.051103707 0.020241296
0.4728117 0.050621133 0.020221971
0.47183123 0.050779972 0.020709021
0.47145128 0.05029824 0.02068973
0.47107133 0.049816515 0.020670438
0.47009361 0.049978703 0.021157598
0.46971431 0.049497824 0.02113834
0.46933505 0.049016945 0.021119084
0.46895576 0.048536066 0.021099826
0.46857646 0.048055179 0.021080568
0.4681972 0.0475743 0.021061312
0.4678179 0.047093425 0.021042055
0.46743864 0.046612546 0.021022798
0.46705934 0.046131667 0.021003541
0.46668005 0.04565078 0.020984285
0.46630079 0.045169901 0.020965027
0.46592149 0.044689022 0.020945771
0.46554223 0.044208143 0.020926513
0.46516293 0.04372726 0.020907255
0.46478364 0.043246381 0.020887999
0.46440437 0.042765502 0.020868741
0.46402508 0.042284623 0.020849485
0.46364582 0.041803744 0.020830227
0.46326652 0.041322861 0.020810969
0.46288726 0.040841982 0.020791713
0.46250796 0.040361103 0.020772455
0.46212867 0.039880224 0.020753199
0.4617494 0.039399337 0.020733941
0.46195254 0.038255073 0.020207455
0.46157259 0.037773348 0.020188164
0.46119267 0.03729162 0.020168873
0.46081272 0.036809895 0.020149581
0.46043277 0.036328167 0.020130292
0.46005282 0.035846442 0.020111
0.45967284 0.03536471 0.020091709
0.45929289 0.034882985 0.020072417
0.45891297 0.034401257 0.020053128
0.45853302 0.033919532 0.020033836
0.45815307 0.033437803 0.020014545
0.45777312 0.032956079 0.019995254
0.45739317 0.032474354 0.019975962
0.45701322 0.031992625 0.019956673
0.45663327 0.031510901 0.019937381
0.45625332 0.031029174 0.01991809
0.45644516 0.029870477 0.019391
0.45663562 0.028710127 0.018863874
0.45682475 0.027548077 0.018336678
0.4564428 0.027063809 0.018317286
0.45719901 0.0252189 0.01728208
0.45738417 0.024051746 0.016754651
0.45756796 0.022882925 0.016227182
0.45718333 0.022395274 0.016207654
0.4573651 0.021223908 0.015680082
0.45697981 0.020735409 0.015660519
0.45659453 0.02024691 0.015640957
0.45620924 0.019758411 0.015621395
0.45543864 0.018781412 0.01558227
0.45505336 0.018292913 0.015562708
0.45466807 0.017804414 0.015543146
0.48329523 0.05733344 0.017519897
0.48291126 0.05684663 0.017500402
0.48252732 0.056359824 0.017480908
0.48214337 0.055873021 0.017461414
0.4817594 0.055386208 0.017441919
0.48137546 0.054899406 0.017422425
0.48099148 0.0544126 0.01740293
0.48060754 0.05392579 0.017383436
0.4802236 0.053438984 0.017363941
0.47983962 0.052952182 0.017344447
0.47884884 0.053097155 0.017831929
0.47846556 0.052611198 0.017812468
0.47747681 0.052758683 0.018300027
0.47709417 0.052273564 0.018280601
0.47671154 0.051788457 0.018261174
0.47572547 0.051939324 0.018748865
0.47534353 0.051455062 0.018729471
0.47496158 0.050970793 0.018710079
0.47397816 0.05112505 0.019197905
0.47359687 0.05064163 0.019178545
0.47261548 0.050798431 0.019666472
0.47223485 0.050315857 0.019647149
0.47125542 0.050475225 0.020135207
0.47087547 0.0499935 0.020115916
0.46989807 0.050155375 0.020604046
0.46951878 0.0496745 0.02058479
0.46913952 0.049193621 0.020565532
0.46876022 0.048712742 0.020546276
0.46838093 0.048231855 0.020527018
0.46800166 0.047750976 0.02050776
0.46762237 0.047270097 0.020488504
0.46724311 0.046789218 0.020469246
0.46686381 0.046308339 0.02044999
0.46648452 0.045827456 0.020430733
0.46610525 0.045346577 0.020411476
0.46572596 0.044865698 0.020392219
0.46534669 0.044384819 0.020372963
0.4649674 0.043903936 0.020353705
0.46458814 0.043423057 0.020334447
0.46420884 0.042942178 0.020315191
0.46382955 0.042461298 0.020295933
0.46345028 0.041980419 0.020276677
0.46307099 0.041499533 0.020257419
0.46269172 0.041018654 0.020238163
0.46231243 0.040537778 0.020218905
0.46193317 0.040056899 0.020199647
0.46213663 0.038913783 0.019672222
0.46175668 0.038432058 0.019652933
0.46137673 0.037950333 0.019633641
0.46099678 0.037468605 0.01961435
0.46061683 0.03698688 0.019595059
0.46023688 0.036505152 0.019575769
0.45985693 0.036023427 0.019556478
0.45947698 0.035541695 0.019537186
0.45909703 0.03505997 0.019517895
0.45871708 0.034578241 0.019498603
0.45833713 0.034096517 0.019479314
0.45795718 0.033614788 0.019460022
0.45757723 0.033133063 0.019440731
0.45719728 0.032651339 0.01942144
0.45681733 0.03216961 0.01940215
0.45643738 0.031687886 0.019382859
0.45662954 0.030530345 0.018854829
0.45682034 0.02937115 0.018326759
0.45643905 0.028887734 0.018307401
0.45662785 0.027725996 0.017779229
0.45738471 0.025883405 0.016742142
0.45700139 0.025397442 0.016722681
0.45718622 0.024230599 0.016194278
0.45736966 0.023062088 0.015665837
0.45698506 0.022574436 0.015646307
0.45716649 0.021403383 0.01511776
0.45678118 0.020914884 0.015098198
0.45639589 0.020426385 0.015078636
0.45601061 0.019937886 0.015059073
0.45524001 0.018960886 0.01501995
0.45485473 0.018472387 0.015000387
0.45446944 0.017983887 0.014980825
0.48332578 0.056401659 0.016432414
0.48294118 0.055914007 0.016412886
0.48255655 0.055426355 0.016393358
0.48217192 0.054938704 0.01637383
0.48178729 0.054451052 0.016354302
0.48079357 0.054591451 0.016842561
0.48040959 0.054104641 0.016823066
0.48002565 0.053617835 0.016803572
0.47964168 0.053131033 0.016784078
0.47865123 0.053275697 0.01727253
0.47826794 0.05278974 0.017253071
0.47727954 0.052936912 0.017741604
0.47689691 0.052451797 0.017722176
0.47651431 0.051966686 0.017702751
0.47613168 0.051481571 0.017683323
0.47514662 0.051632982 0.018172024
0.47476467 0.051148713 0.01815263
0.4743827 0.050664444 0.018133238
0.47340032 0.050819241 0.018622069
0.47301903 0.050335817 0.01860271
0.47203863 0.050493155 0.019091651
0.47105953 0.05065221 0.019580681
0.47067958 0.050170485 0.019561389
0.46970254 0.050332051 0.0200505
0.46932325 0.049851172 0.020031242
0.46894398 0.049370293 0.020011986
0.46856469 0.048889413 0.019992728
0.4681854 0.048408531 0.01997347
0.46780613 0.047927652 0.019954214
0.46742684 0.047446772 0.019934956
0.46704757 0.046965893 0.0199157
0.46666828 0.046485014 0.019896442
0.46628901 0.046004128 0.019877186
0.46590972 0.045523249 0.019857928
0.46553043 0.045042373 0.019838672
0.46515116 0.044561494 0.019819414
0.46477187 0.044080608 0.019800156
0.4643926 0.043599728 0.0197809
0.46401331 0.043118849 0.019761642
0.46363404 0.04263797 0.019742386
0.46325475 0.042157091 0.019723129
0.46287546 0.041676208 0.019703871
0.46249619 0.041195329 0.019684615
0.4621169 0.04071445 0.019665357
0.46173763 0.040233571 0.019646101
0.46194074 0.039090771 0.019117696
0.46156082 0.038609043 0.019098407
0.46176198 0.037463672 0.018569879
0.46138135 0.036981098 0.018550554
0.46100074 0.036498524 0.018531229
0.46062011 0.03601595 0.018511904
0.4602395 0.035533376 0.018492579
0.45985889 0.035050806 0.018473255
0.45947826 0.034568232 0.01845393
0.45909765 0.034085657 0.018434605
0.45871702 0.033603083 0.01841528
0.45833641 0.033120509 0.018395955
0.45795581 0.032637935 0.01837663
0.45757517 0.032155361 0.018357305
0.45719457 0.031672791 0.01833798
0.45681393 0.031190215 0.018318655
0.45643333 0.030707642 0.01829933
0.45662376 0.029548759 0.017770283
0.45681289 0.028388184 0.017241174
0.45643094 0.027903914 0.01722178
0.45718709 0.026061947 0.016182743
0.45737225 0.024896255 0.015653402
0.45698828 0.024409451 0.015633907
0.45717138 0.02324125 0.01510449
0.45735314 0.022071362 0.014575002
0.45696786 0.021582857 0.014555439
0.45658255 0.021094358 0.014535877
0.45619726 0.020605858 0.014516314
0.45581198 0.020117359 0.014496753
0.45504141 0.019140361 0.014457628
0.45465609 0.018651862 0.014438066
0.4831275 0.056580823 0.015871068
0.48274288 0.056093171 0.01585154
0.48235828 0.05560552 0.015832013
0.48197365 0.055117864 0.015812485
0.48158902 0.054630212 0.015792957
0.48059562 0.054770302 0.01628219
0.48021165 0.054283492 0.016262695
0.4798277 0.053796686 0.016243201
0.47944376 0.053309884 0.016223706
0.47845364 0.053454235 0.016713135
0.47807035 0.052968279 0.016693674
0.47768706 0.052482314 0.016674215
0.47669968 0.052630026 0.017163754
0.47631705 0.052144915 0.017144326
0.47593442 0.0516598 0.017124901
0.47555181 0.051174689 0.017105473
0.47516918 0.050689574 0.017086046
0.47418579 0.050842363 0.017575789
0.47320375 0.050996847 0.018065596
0.47282246 0.050513424 0.018046238
0.47184241 0.050670449 0.018536152
0.4714618 0.050187875 0.018516827
0.47048372 0.05034747 0.019006867
0.46950701 0.050508726 0.019496948
0.46912771 0.050027847 0.019477692
0.46874845 0.049546968 0.019458434
0.46836916 0.049066089 0.019439178
0.46798986 0.048585203 0.01941992
0.4676106 0.048104323 0.019400662
0.4672313 0.047623448 0.019381406
0.46685204 0.047142569 0.019362148
0.46647274 0.04666169 0.019342892
0.46609348 0.046180803 0.019323634
0.46571419 0.045699924 0.019304378
0.46533489 0.045219045 0.01928512
0.46495563 0.044738166 0.019265864
0.46457633 0.044257283 0.019246606
0.46419707 0.043776404 0.019227348
0.46381778 0.043295525 0.019208092
0.46343851 0.042814646 0.019188834
0.46305922 0.042333767 0.019169578
0.46267992 0.041852884 0.01915032
0.46230066 0.041372005 0.019131064
0.46192136 0.040891126 0.019111807
0.4615421 0.040410247 0.019092549
0.46174487 0.039267756 0.018563174
0.46136492 0.038786028 0.018543882
0.46156576 0.037640966 0.018014381
0.46118513 0.037158396 0.017995056
0.46080452 0.036675822 0.017975731
0.46042389 0.036193248 0.017956406
0.46004328 0.035710674 0.017937081
0.45966268 0.0352281 0.017917756
0.45928204 0.034745526 0.017898431
0.45890144 0.034262951 0.017879106
0.4585208 0.033780381 0.017859781
0.45814019 0.033297807 0.017840456
0.45775959 0.032815233 0.017821131
0.45737895 0.032332659 0.017801806
0.45699835 0.031850085 0.017782481
0.45661771 0.031367511 0.017763156
0.45680851 0.030209785 0.017233169
0.45642722 0.029726366 0.017213808
0.45661598 0.028566102 0.016683726
0.45680341 0.027404139 0.01615357
0.45642078 0.026919028 0.016134143
0.4571743 0.025075106 0.015093031
0.45679036 0.024588302 0.015073537
0.45697311 0.023420412 0.014543144
0.45715451 0.022250835 0.01401268
0.45676923 0.02176233 0.013993118
0.45638394 0.021273831 0.013973556
0.45599863 0.020785332 0.013953994
0.45561334 0.020296833 0.013934432
0.45484278 0.019319834 0.013895307
0.45501885 0.018143483 0.013364576
0.48453873 0.056002934 0.01431018
0.48292923 0.056759987 0.015309719
0.4831557 0.055648286 0.014780589
0.48277041 0.055159789 0.014761027
0.48238513 0.054671288 0.014741465
0.48199984 0.05418279 0.014721903
0.48100612 0.054321721 0.015212078
0.48062149 0.053834066 0.01519255
0.48023686 0.053346414 0.015173022
0.47924581 0.053488735 0.015663333
0.47886184 0.053001925 0.015643837
0.4784779 0.052515119 0.015624343
0.47748947 0.052660856 0.016114816
0.47710618 0.0521749 0.016095355
0.4767229 0.051688936 0.016075894
0.47633961 0.051202979 0.016056433
0.47535455 0.051352922 0.01654705
0.47497192 0.050867803 0.016527623
0.47458932 0.050382689 0.016508196
0.47360694 0.050536018 0.016998949
0.47262591 0.050691031 0.017489763
0.47164619 0.050847746 0.017980652
0.47126558 0.050365172 0.017961327
0.47028783 0.050524455 0.018452341
0.46990788 0.05004273 0.018433049
0.46893218 0.050204519 0.018924139
0.46855292 0.049723644 0.018904883
0.46817362 0.049242765 0.018885626
0.46779436 0.048761878 0.01886637
0.46741506 0.048280999 0.018847112
0.46703577 0.04780012 0.018827856
0.46665651 0.047319241 0.018808598
0.46627721 0.046838362 0.01878934
0.46589795 0.046357479 0.018770084
0.46551865 0.0458766 0.018750826
0.46513939 0.045395721 0.01873157
0.46476009 0.044914842 0.018712312
0.4643808 0.044433959 0.018693054
0.46400154 0.04395308 0.018673798
0.46362224 0.043472201 0.01865454
0.46324298 0.042991322 0.018635284
0.46286368 0.042510442 0.018616026
0.46248439 0.042029556 0.01859677
0.46210513 0.041548677 0.018577512
0.46172583 0.041067798 0.018558256
0.46134657 0.040586922 0.018538998
0.46154901 0.039444741 0.018008647
0.46116906 0.038963016 0.017989356
0.46136954 0.037818264 0.017458878
0.46098891 0.03733569 0.017439554
0.4606083 0.03685312 0.017420229
0.46022767 0.036370546 0.017400904
0.45984706 0.035887972 0.017381579
0.45946646 0.035405397 0.017362254
0.45908582 0.034922823 0.017342931
0.45870522 0.034440249 0.017323606
0.45832458 0.033957675 0.017304281
0.45794398 0.033475105 0.017284956
0.45756337 0.032992531 0.017265631
0.45718274 0.032509957 0.017246306
0.45680213 0.032027382 0.017226981
0.45699322 0.030870814 0.016696053
0.45661193 0.030387394 0.016676694
0.45680103 0.029228283 0.016145669
0.45641908 0.02874402 0.016126277
0.45660615 0.027582368 0.015595146
0.45622355 0.027097259 0.01557572
0.45697635 0.025253959 0.014532656
0.45659241 0.024767155 0.014513163
0.4567748 0.023599576 0.013981795
0.45695588 0.02243031 0.013450359
0.4565706 0.021941805 0.013430797
0.45618531 0.021453304 0.013411235
0.4558 0.020964805 0.013391673
0.45597774 0.019791309 0.012860068
0.45502943 0.019987807 0.013352548
0.45576757 0.018125882 0.012308739
0.45538095 0.017635688 0.012289109
0.48433974 0.05618272 0.013746887
0.48334238 0.05631626 0.01423783
0.48295707 0.055827759 0.014218268
0.48318186 0.05471468 0.013688099
0.4821865 0.054850761 0.014179144
0.48180121 0.054362264 0.014159582
0.4814159 0.053873762 0.01414002
0.48103061 0.053385265 0.014120458
0.48064533 0.052896764 0.014100895
0.47965395 0.053037927 0.014592147
0.47926933 0.052550275 0.014572619
0.47827995 0.052693971 0.015063973
0.477896 0.052207168 0.015044479
0.47751203 0.051720358 0.015024984
0.47652528 0.051867478 0.015516499
0.47614202 0.051381521 0.015497038
0.47575873 0.050895561 0.015477578
0.47477469 0.051046032 0.015969202
0.47439206 0.050560918 0.015949776
0.47341004 0.050713938 0.016441504
0.47242934 0.050868642 0.01693329
0.47204804 0.050385226 0.016913932
0.47106937 0.05054247 0.017405828
0.47009197 0.050701439 0.017897818
0.46971202 0.050219715 0.017878527
0.46873665 0.050381195 0.018370593
0.46835738 0.049900316 0.018351335
0.46797809 0.049419437 0.018332079
0.46759883 0.048938554 0.018312821
0.46721953 0.048457675 0.018293563
0.46684027 0.047976796 0.018274307
0.46646097 0.047495916 0.018255049
0.46608168 0.047015037 0.018235793
0.46570241 0.046534151 0.018216535
0.46532312 0.046053272 0.018197279
0.46494386 0.045572393 0.018178022
0.46456456 0.045091517 0.018158766
0.46418527 0.044610631 0.018139508
0.463806 0.044129752 0.01812025
0.46342671 0.043648873 0.018100994
0.46304744 0.043167993 0.018081736
0.46266815 0.042687114 0.01806248
0.46228889 0.042206232 0.018043222
0.46190959 0.041725352 0.018023966
0.4615303 0.041244473 0.018004708
0.46115103 0.040763594 0.01798545
0.46135312 0.039621726 0.017454125
0.46097317 0.039140001 0.017434834
0.46117333 0.037995562 0.016903382
0.46079269 0.037512988 0.016884057
0.46041209 0.037030414 0.016864732
0.46003145 0.03654784 0.016845407
0.45965084 0.036065266 0.016826082
0.45927024 0.035582695 0.016806757
0.4588896 0.035100121 0.016787432
0.458509 0.034617547 0.016768107
0.45812836 0.034134973 0.016748782
0.45774776 0.033652399 0.016729457
0.45736715 0.033169825 0.016710132
0.45698652 0.032687251 0.016690807
0.45717794 0.031531844 0.016158938
0.45679665 0.031048421 0.01613958
0.45698607 0.029890468 0.015607617
0.45660412 0.029406199 0.015588224
0.45679152 0.028245712 0.015056153
0.45640889 0.027760597 0.015036726
0.45716238 0.025919614 0.013991781
0.45734578 0.024754042 0.013459506
0.45696115 0.02426639 0.013439978
0.45714256 0.023098283 0.0129076
0.4573226 0.021928472 0.012375159
0.45637196 0.022121279 0.012868476
0.45598668 0.021632779 0.012848914
0.45560139 0.02114428 0.012829351
0.45634151 0.019286366 0.011783731
0.45539281 0.019481745 0.012277178
0.45556825 0.018305978 0.011744471
0.48397931 0.054760359 0.012632821
0.48420244 0.053645894 0.012101608
0.48259696 0.054405123 0.013105206
0.48221099 0.053915776 0.01308561
0.48182502 0.05342643 0.013066014
0.48083198 0.053564738 0.01355814
0.48105311 0.052447736 0.013026822
0.48006141 0.05258774 0.013519015
0.47907105 0.052729435 0.014011273
0.47868642 0.05224178 0.013991744
0.47769806 0.052386019 0.014484107
0.47731408 0.05189921 0.014464613
0.47693014 0.051412404 0.014445119
0.4759444 0.051560059 0.014937639
0.47556111 0.051074103 0.014918179
0.47517782 0.050588142 0.014898718
0.47419479 0.050739147 0.015391353
0.47321314 0.050891854 0.015884055
0.47283116 0.050407585 0.015864661
0.4718515 0.050562833 0.016357459
0.47087315 0.050719764 0.01685033
0.46989608 0.050878424 0.017343292
0.46951613 0.050396699 0.017324001
0.46854115 0.05055787 0.017817041
0.46816185 0.050076991 0.017797785
0.46778256 0.049596112 0.017778527
0.46740329 0.049115226 0.017759271
0.467024 0.048634347 0.017740013
0.46664473 0.048153467 0.017720757
0.46626544 0.047672592 0.017701499
0.46588618 0.047191713 0.017682241
0.46550688 0.046710826 0.017662985
0.46512759 0.046229947 0.017643727
0.46474832 0.045749068 0.017624471
0.46436903 0.045268189 0.017605213
0.46398973 0.044787306 0.017585956
0.46361047 0.044306427 0.0175667
0.46323118 0.043825548 0.017547442
0.46285191 0.043344669 0.017528186
0.46247262 0.04286379 0.017508928
0.46209335 0.042382907 0.017489672
0.46171406 0.041902028 0.017470414
0.46133476 0.041421149 0.017451158
0.4609555 0.04094027 0.0174319
0.46115726 0.03979871 0.016899599
0.46077731 0.039316986 0.016880307
0.46097711 0.038172856 0.016347883
0.46059647 0.037690286 0.016328558
0.46021587 0.037207711 0.016309233
0.45983523 0.036725137 0.016289908
0.45945463 0.036242563 0.016270583
0.45907402 0.035759989 0.016251259
0.45869339 0.035277415 0.016231934
0.45831278 0.034794841 0.016212609
0.45793214 0.034312271 0.016193284
0.45755154 0.033829696 0.016173959
0.45717093 0.033347122 0.016154634
0.45736265 0.032192871 0.015621825
0.45698136 0.031709451 0.015602466
0.4566001 0.03122603 0.015583107
0.45678917 0.030068386 0.015050169
0.45640719 0.029584119 0.015030776
0.45659426 0.028423943 0.014497729
0.45734838 0.02658527 0.013450904
0.45696443 0.026098466 0.013431409
0.45714748 0.024933206 0.012898159
0.45732921 0.023766255 0.012364845
0.45750961 0.022597605 0.011831459
0.45712364 0.022108259 0.011811863
0.45673767 0.021618912 0.011792267
0.45578805 0.021812251 0.012286596
0.45652881 0.019956658 0.01123909
0.45614219 0.019466463 0.01121946
0.45631722 0.018291045 0.010685806
0.48966333 0.049830224 0.0074757366
0.4846122 0.053202339 0.011023807
0.48544171 0.05146084 0.0099789221
0.482012 0.054095559 0.012522314
0.48162606 0.053606212 0.012502718
0.48063335 0.053744212 0.012995819
0.48085412 0.052627519 0.012463526
0.48046818 0.052138172 0.01244393
0.47947749 0.052278712 0.012937132
0.47909221 0.051790215 0.01291757
0.47810352 0.051933289 0.013410871
0.47771889 0.051445637 0.013391342
0.47673219 0.051591255 0.013884745
0.47634825 0.051104452 0.01386525
0.47536352 0.051252645 0.014358784
0.47498024 0.05076668 0.014339323
0.47399756 0.050917376 0.014832929
0.47361493 0.050432269 0.014813502
0.47263426 0.050585505 0.015307213
0.47165492 0.050740439 0.015800986
0.47067693 0.050897062 0.01629483
0.47029629 0.050414488 0.016275505
0.46932027 0.050573684 0.016769478
0.46834561 0.050734542 0.017263491
0.46796632 0.050253667 0.017244233
0.46758702 0.049772788 0.017224977
0.46720776 0.049291901 0.017205719
0.46682847 0.048811022 0.017186463
0.4664492 0.048330143 0.017167205
0.46606991 0.047849264 0.017147949
0.46569064 0.047368385 0.017128691
0.46531135 0.046887502 0.017109433
0.46493205 0.046406623 0.017090177
0.46455279 0.045925744 0.017070919
0.4641735 0.045444865 0.017051663
0.46379423 0.044963982 0.017032405
0.46341494 0.044483103 0.017013149
0.46303564 0.044002224 0.016993891
0.46265638 0.043521345 0.016974634
0.46227708 0.043040466 0.016955378
0.46189782 0.042559579 0.01693612
0.46151853 0.0420787 0.016916864
0.46113926 0.041597821 0.016897606
0.46075997 0.041116942 0.01687835
0.46096137 0.039975695 0.016345076
0.46058142 0.039493971 0.016325785
0.46078089 0.038350154 0.015792381
0.46040025 0.03786758 0.015773056
0.46001965 0.037385009 0.015753731
0.45963901 0.036902435 0.015734406
0.45925841 0.036419861 0.015715081
0.4588778 0.035937287 0.015695758
0.45849717 0.035454713 0.015676433
0.45811656 0.034972139 0.015657108
0.45773593 0.034489565 0.015637783
0.45735532 0.03400699 0.015618457
0.45697471 0.03352442 0.015599133
0.45716611 0.032370478 0.015065352
0.45678481 0.031887058 0.015045993
0.45697421 0.030730573 0.014512113
0.45659226 0.030246306 0.01449272
0.45621029 0.029762037 0.014473327
0.45639703 0.028602172 0.013939305
0.45715046 0.026764123 0.01289053
0.45733383 0.02560002 0.012356342
0.4569492 0.025112368 0.012336814
0.45713058 0.023945728 0.011802523
0.45731062 0.02277739 0.011268162
0.45748937 0.021607328 0.010733712
0.45653871 0.021798696 0.01122897
0.45632949 0.020136751 0.010674821
0.45594287 0.019646557 0.010655192
0.48645782 0.05039316 0.0083835935
0.48545948 0.050523233 0.0088773612
0.48104113 0.053296652 0.011919825
0.48065516 0.052807305 0.011900229
0.48026919 0.052317958 0.011880633
0.47988325 0.051828612 0.011861037
0.47889358 0.051969688 0.012355248
0.47850826 0.051481187 0.012335687
0.47752061 0.051624801 0.012829997
0.47713599 0.051137149 0.012810468
0.4761503 0.051283304 0.01330488
0.47576636 0.050796494 0.013285385
0.47478265 0.050945222 0.013779924
0.4738003 0.051095605 0.014274509
0.4734177 0.050610498 0.014255082
0.47243735 0.050763424 0.014749765
0.47145838 0.050918046 0.015244513
0.47107708 0.050434627 0.015225153
0.47010008 0.050591785 0.015720006
0.46912438 0.050750669 0.016214952
0.46815008 0.050911218 0.016709942
0.46777079 0.050430339 0.016690686
0.46739152 0.04994946 0.016671428
