# .PCD v0.7 - Point Cloud Data file format
VERSION 0.7
FIELDS x y z
SIZE 4 4 4
TYPE F F F
COUNT 1 1 1
WIDTH 1374
HEIGHT 1
VIEWPOINT 0 0 0 1 0 0 0
POINTS 1374
DATA ascii
0.67049885 -0.11286986 0.04312342
0.67074507 -0.11206268 0.043113045
0.6709913 -0.1112555 0.043102667
0.67123753 -0.11044832 0.043092292
0.67148376 -0.10964115 0.043081913
0.67172998 -0.10883397 0.043071534
0.67197621 -0.1080268 0.04306116
0.67222244 -0.10721961 0.043050781
0.67246872 -0.10641244 0.043040406
0.67271495 -0.10560526 0.043030027
0.67296118 -0.10479809 0.043019649
0.6732074 -0.1039909 0.043009274
0.67345363 -0.10318373 0.042998895
0.67369986 -0.10237655 0.042988516
0.67309409 -0.10123158 0.04252588
0.67334062 -0.10042337 0.04251549
0.6735872 -0.099615157 0.0425051
0.67383373 -0.09880694 0.042494707
0.67322958 -0.097656816 0.042032033
0.67347646 -0.096847579 0.042021628
0.67372328 -0.096038327 0.042011224
0.67312038 -0.094884068 0.041548483
0.67336756 -0.094073787 0.041538067
0.67361474 -0.093263514 0.041527648
0.67386192 -0.092453234 0.041517232
0.67326063 -0.091293812 0.041054424
0.67350811 -0.090482503 0.041043993
0.67375565 -0.089671187 0.041033562
0.67400312 -0.088859878 0.041023131
0.6742506 -0.088048562 0.041012701
0.67449808 -0.087237254 0.04100227
0.6082176 -0.1988475 0.026350362
0.6084758 -0.19800104 0.026339481
0.60784197 -0.1969492 0.025877031
0.60810047 -0.19610171 0.025866136
0.60835904 -0.19525422 0.025855239
0.60950863 -0.19461524 0.026295951
0.61065775 -0.19397834 0.026736733
0.6109156 -0.19313292 0.026725864
0.61206371 -0.1924991 0.027166655
0.61321115 -0.19186735 0.027607489
0.61435795 -0.19123766 0.028048335
0.61550415 -0.19061007 0.028489221
0.61664969 -0.18998452 0.028930118
0.61779463 -0.18936104 0.029371044
0.61893892 -0.18873961 0.02981201
0.61919463 -0.18790142 0.029801233
0.62033796 -0.18728311 0.030242225
0.6214807 -0.18666688 0.030683259
0.62262279 -0.18605269 0.031124316
0.62376422 -0.18544059 0.031565387
0.62401867 -0.18460654 0.031554665
0.62427312 -0.18377249 0.03154394
0.6254133 -0.18316451 0.031985067
0.62566739 -0.18233149 0.031974357
0.62680662 -0.1817266 0.03241552
0.62706047 -0.18089463 0.032404825
0.6281988 -0.18029286 0.032846045
0.6284523 -0.17946191 0.032835361
0.62958962 -0.17886324 0.033276618
0.62984282 -0.17803332 0.033265948
0.63097918 -0.17743774 0.033707231
0.63123208 -0.17660886 0.033696577
0.63148493 -0.17577998 0.033685919
0.63173777 -0.17495111 0.033675265
0.63287258 -0.17436069 0.03411663
0.63312513 -0.17353284 0.034105986
0.63425905 -0.17294554 0.034547377
0.63451129 -0.17211874 0.034536745
0.63476354 -0.17129192 0.034526117
0.63501573 -0.1704651 0.034515485
0.63614804 -0.16988297 0.034956943
0.63639998 -0.16905718 0.034946326
0.63753134 -0.16847813 0.035387836
0.63778293 -0.1676534 0.035377234
0.63803452 -0.16682865 0.035366632
0.63916463 -0.16625373 0.03580818
0.63941586 -0.16543002 0.035797589
0.64054501 -0.16485821 0.036239196
0.64079601 -0.16403553 0.036228616
0.64104694 -0.16321285 0.03621804
0.6421749 -0.16264519 0.036659699
0.64330214 -0.16207959 0.037101366
0.64355248 -0.16125898 0.037090816
0.64380282 -0.16043836 0.037080266
0.64405316 -0.15961775 0.037069716
0.6443035 -0.15879713 0.037059166
0.64542884 -0.15823773 0.037500914
0.64567888 -0.15741815 0.037490379
0.64592892 -0.15659857 0.037479844
0.6461789 -0.15577899 0.037469305
0.64730269 -0.15522476 0.037911121
0.64755243 -0.1544062 0.037900597
0.64780211 -0.15358765 0.037890073
0.64892471 -0.15303758 0.038331971
0.64917409 -0.15222006 0.038321462
0.64942348 -0.15140255 0.038310952
0.64967287 -0.15058504 0.03830044
0.65079379 -0.1500401 0.038742375
0.65104288 -0.14922363 0.03873188
0.65216291 -0.14868179 0.039173853
0.65241164 -0.14786634 0.03916337
0.65266037 -0.14705089 0.039152887
0.65377915 -0.14651319 0.03959493
0.65402758 -0.14569879 0.039584458
0.65427601 -0.14488436 0.03957399
0.65452445 -0.14406995 0.039563518
0.65564162 -0.14353742 0.040005598
0.65588975 -0.14272404 0.039995141
0.65700603 -0.14219463 0.040437289
0.65725386 -0.14138228 0.040426847
0.6575017 -0.14056994 0.040416401
0.65774947 -0.13975759 0.040405959
0.65799731 -0.13894525 0.040395513
0.65824509 -0.1381329 0.040385071
0.65849292 -0.13732056 0.040374629
0.6587407 -0.13650821 0.040364183
0.65898854 -0.13569586 0.040353741
0.66010159 -0.13517676 0.040796023
0.66121405 -0.13465974 0.041238315
0.66146123 -0.13384946 0.041227899
0.66170841 -0.13303918 0.04121748
0.6619556 -0.1322289 0.041207064
0.66220278 -0.13141863 0.041196648
0.66244996 -0.13060835 0.041186228
0.66356015 -0.13009855 0.041628629
0.66380703 -0.1292893 0.041618228
0.66405392 -0.12848006 0.041607823
0.66430074 -0.12767081 0.041597418
0.66454762 -0.12686157 0.041587014
0.6647945 -0.12605232 0.041576613
0.66504139 -0.12524308 0.041566208
0.66528821 -0.12443384 0.041555803
0.66553509 -0.12362459 0.041545399
0.66578197 -0.12281535 0.041534998
0.66688871 -0.12231692 0.041977528
0.6671353 -0.12150871 0.041967139
0.66824114 -0.1210134 0.04240974
0.66848737 -0.12020622 0.042399362
0.6687336 -0.11939904 0.042388987
0.66897982 -0.11859186 0.042378608
0.67008412 -0.11810171 0.042821232
0.67032999 -0.11729556 0.042810868
0.67057592 -0.11648942 0.042800505
0.67082185 -0.11568328 0.042790141
0.67106777 -0.11487713 0.042779777
0.6713137 -0.11407099 0.042769413
0.67155963 -0.11326484 0.04275905
0.6718055 -0.1124587 0.042748686
0.67205143 -0.11165255 0.042738322
0.67229736 -0.11084642 0.042727958
0.67254329 -0.11004027 0.042717595
0.67278922 -0.10923412 0.042707231
0.67303514 -0.10842798 0.042696867
0.67328101 -0.10762183 0.0426865
0.67352694 -0.1068157 0.042676136
0.67377287 -0.10600955 0.042665772
0.6740188 -0.10520341 0.042655408
0.67426473 -0.10439726 0.042645045
0.67451066 -0.10359111 0.042634681
0.67475653 -0.10278498 0.042624317
0.67415076 -0.10164114 0.042160686
0.67439699 -0.10083396 0.042150311
0.67464322 -0.10002678 0.042139933
0.67488945 -0.099219605 0.042129554
0.67428523 -0.098070592 0.041665815
0.67453176 -0.097262375 0.041655421
0.67477828 -0.096454166 0.041645031
0.67417538 -0.09530104 0.041181266
0.6744222 -0.094491787 0.041170862
0.67466909 -0.093682542 0.041160461
0.67491597 -0.09287329 0.041150056
0.67431456 -0.091714993 0.040686209
0.67456174 -0.09090472 0.040675793
0.67480892 -0.09009444 0.040665377
0.6750561 -0.089284159 0.040654957
0.67530328 -0.088473879 0.040644541
0.67555046 -0.087663606 0.040634125
0.67579764 -0.086853333 0.040623706
0.60753977 -0.19871952 0.025040541
0.60779828 -0.19787203 0.025029646
0.60805684 -0.19702454 0.025018752
0.60831535 -0.19617705 0.025007855
0.60857391 -0.19532956 0.024996961
0.60972327 -0.1946905 0.02543872
0.61087209 -0.1940535 0.025880538
0.61113 -0.19320808 0.025869669
0.61227781 -0.19257417 0.026311511
0.61342496 -0.19194232 0.026753394
0.61457151 -0.19131255 0.02719529
0.61571747 -0.19068485 0.027637227
0.61686277 -0.19005921 0.028079161
0.61800742 -0.18943565 0.028521135
0.61915147 -0.18881413 0.028963137
0.61940712 -0.18797594 0.028952362
0.62055022 -0.18735754 0.029394416
0.62169272 -0.18674122 0.0298365
0.6228345 -0.18612695 0.030278595
0.62397569 -0.18551473 0.030720716
0.62423015 -0.18468069 0.030709993
0.6244846 -0.18384664 0.03069927
0.62562448 -0.18323857 0.03114143
0.62587863 -0.18240555 0.03113072
0.62701762 -0.18180057 0.031572934
0.62727141 -0.1809686 0.031562239
0.6284095 -0.18036674 0.032004509
0.628663 -0.17953579 0.031993825
0.62980008 -0.17893702 0.032436132
0.63005322 -0.1781071 0.032425463
0.63118935 -0.17751144 0.032867797
0.63144225 -0.17668256 0.032857142
0.63169509 -0.17585367 0.032846484
0.63194793 -0.17502479 0.03283583
0.63308251 -0.17443429 0.033278227
0.63333505 -0.17360644 0.033267584
0.63446873 -0.17301905 0.033710025
0.63472092 -0.17219225 0.033699397
0.63497317 -0.17136542 0.033688769
0.63522542 -0.17053862 0.033678137
0.63635743 -0.16995637 0.034120645
0.63660932 -0.16913059 0.034110028
0.63774043 -0.16855146 0.034552574
0.63799202 -0.16772671 0.034541972
0.63912219 -0.16715068 0.03498457
0.6402517 -0.16657671 0.035427183
0.64050263 -0.16575404 0.035416607
0.64075363 -0.16493136 0.035406031
0.64188194 -0.16436154 0.035848711
0.64213258 -0.16353989 0.035838149
0.64238322 -0.16271825 0.035827585
0.64351022 -0.16215254 0.036270306
0.64376056 -0.16133194 0.036259755
0.6440109 -0.16051131 0.036249205
0.64426124 -0.15969071 0.036238655
0.64451158 -0.15887009 0.036228105
0.64563668 -0.15831059 0.03667089
0.64588666 -0.15749101 0.036660351
0.6461367 -0.15667143 0.036649816
0.64638674 -0.15585186 0.036639277
0.64751023 -0.15529753 0.037082143
0.64775997 -0.15447898 0.037071619
0.64800966 -0.15366043 0.037061095
0.64913195 -0.15311025 0.037504029
0.64938134 -0.15229274 0.037493519
0.64963073 -0.15147524 0.03748301
0.64988017 -0.15065771 0.037472501
0.65100086 -0.15011269 0.037915498
0.65124989 -0.14929621 0.037905004
0.65236962 -0.14875428 0.038348027
0.65261841 -0.14793883 0.038337544
0.65373719 -0.14740001 0.038780607
0.65398562 -0.1465856 0.038770139
0.65423411 -0.14577119 0.038759667
0.65448254 -0.14495677 0.038749196
0.65559977 -0.14442311 0.039192315
0.65671641 -0.14389154 0.039635487
0.65696424 -0.14307919 0.039625041
0.65721202 -0.14226685 0.039614599
0.65745986 -0.1414545 0.039604153
0.65770763 -0.14064217 0.039593711
0.65795547 -0.13982981 0.03958327
0.65820324 -0.13901746 0.039572824
0.65845108 -0.13820513 0.039562382
0.65956485 -0.13768284 0.040005658
0.65981233 -0.13687152 0.039995227
0.66005981 -0.13606021 0.039984796
0.66030735 -0.1352489 0.039974365
0.66141951 -0.13473177 0.040417723
0.66166669 -0.13392149 0.040407307
0.66191387 -0.13311122 0.040396892
0.66302478 -0.13259824 0.040840287
0.66327167 -0.13178898 0.040829882
0.66351849 -0.13097975 0.040819481
0.66462815 -0.13047089 0.041262928
0.66487473 -0.12966268 0.041252539
0.66512126 -0.12885447 0.041242149
0.66536778 -0.12804626 0.041231759
0.66561437 -0.12723804 0.041221365
0.66586089 -0.12642983 0.041210975
0.66610748 -0.12562162 0.041200586
0.666354 -0.12481341 0.041190196
0.66660053 -0.1240052 0.041179806
0.66684711 -0.12319698 0.041169416
0.66795337 -0.12269951 0.041613024
0.6681996 -0.12189234 0.041602649
0.66930485 -0.12139796 0.042046271
0.66955078 -0.12059181 0.042035908
0.66979665 -0.11978567 0.042025544
0.67004257 -0.11897953 0.042015176
0.67114627 -0.1184903 0.042458881
0.67139184 -0.11768519 0.042448528
0.67163748 -0.11688008 0.042438179
0.67188305 -0.11607497 0.042427827
0.67212868 -0.11526986 0.042417478
0.67237425 -0.11446475 0.042407125
0.67261988 -0.11365964 0.042396776
0.67286545 -0.11285453 0.042386424
0.67311108 -0.11204942 0.042376075
0.67335671 -0.11124431 0.042365726
0.67360228 -0.1104392 0.042355374
0.67384791 -0.10963409 0.042345025
0.67409348 -0.10882898 0.042334672
0.67433912 -0.10802387 0.042324323
0.67458469 -0.10721876 0.042313971
0.67483032 -0.10641365 0.042303622
0.67507589 -0.10560854 0.042293269
0.67532152 -0.10480343 0.04228292
0.67556709 -0.10399832 0.042272568
0.67581272 -0.10319321 0.042262219
0.6752069 -0.1020505 0.041797534
0.67545277 -0.10124435 0.04178717
0.6756987 -0.10043821 0.041776806
0.67594463 -0.099632069 0.041766442
0.67534035 -0.098484196 0.041301709
0.67558658 -0.097677015 0.04129133
0.67583287 -0.096869834 0.041280955
0.67522979 -0.09571781 0.040816136
0.67547631 -0.094909601 0.040805746
0.6757229 -0.094101392 0.040795356
0.67596942 -0.093293183 0.040784966
0.67536801 -0.092136003 0.040320098
0.67561489 -0.091326751 0.040309694
0.67501438 -0.090166479 0.039844785
0.67526156 -0.089356199 0.039834369
0.67635548 -0.088899024 0.040278483
0.6766023 -0.088089779 0.040268078
0.67769527 -0.087635703 0.040712234
0.6779418 -0.086827494 0.04070184
0.67649746 -0.085304812 0.039782282
0.67674464 -0.084494531 0.039771866
0.60775465 -0.19879486 0.024182262
0.60801321 -0.19794737 0.024171365
0.60827172 -0.19709988 0.024160471
0.60853022 -0.19625241 0.024149574
0.60878879 -0.19540492 0.02413868
0.60993791 -0.19476575 0.024581492
0.61108643 -0.19412866 0.025024358
0.61134434 -0.19328324 0.02501349
0.61249191 -0.19264925 0.025456382
0.61363882 -0.1920173 0.0258993
0.61478508 -0.19138743 0.026342232
0.6159308 -0.19075966 0.026785219
0.6170758 -0.19013393 0.027228203
0.61822021 -0.18951026 0.027671227
0.61936396 -0.18888865 0.02811428
0.61961967 -0.18805046 0.028103504
0.62076247 -0.18743198 0.028546594
0.62190473 -0.18681554 0.028989729
0.62304628 -0.18620118 0.029432872
0.62418717 -0.18558888 0.029876044
0.62444162 -0.18475483 0.029865321
0.62469608 -0.18392079 0.029854599
0.62583572 -0.18331262 0.030297808
0.62608981 -0.18247961 0.0302871
0.62722856 -0.18187454 0.030730363
0.62748235 -0.18104257 0.030719668
0.62862021 -0.18044062 0.031162972
0.62887365 -0.17960967 0.031152289
0.63001049 -0.17901081 0.031595632
0.63026369 -0.17818089 0.031584963
0.63139951 -0.17758512 0.032028347
0.63165241 -0.17675625 0.032017693
0.63190526 -0.17592737 0.032007035
0.6321581 -0.17509849 0.031996381
0.63329238 -0.17450789 0.032439828
0.63354492 -0.17368004 0.032429185
0.63467836 -0.17309256 0.032872677
0.63493061 -0.17226575 0.032862049
0.6351828 -0.17143893 0.032851417
0.63631493 -0.17085558 0.033294961
0.63656682 -0.17002979 0.033284344
0.63681871 -0.16920401 0.033273727
0.63794953 -0.16862479 0.033717323
0.63820118 -0.16780004 0.033706721
0.63933104 -0.16722392 0.034150358
0.64046031 -0.16664986 0.034594022
0.64071125 -0.16582718 0.034583442
0.64183962 -0.16525623 0.035027161
0.64209026 -0.16443458 0.0350166
0.6423409 -0.16361295 0.035006035
0.6425916 -0.1627913 0.03499547
0.6437183 -0.1622255 0.035439242
0.64396864 -0.16140489 0.035428692
0.64509445 -0.1608422 0.035872485
0.64534444 -0.16002262 0.03586195
0.64471966 -0.15894306 0.035397042
0.64584446 -0.15838346 0.035840876
0.6460945 -0.15756388 0.035830338
0.64634454 -0.1567443 0.035819802
0.64659452 -0.15592472 0.035809267
0.64771777 -0.15537031 0.036253165
0.64796752 -0.15455176 0.036242642
0.6482172 -0.15373321 0.036232121
0.64933926 -0.15318294 0.036676105
0.64958864 -0.15236543 0.036665592
0.64983803 -0.15154791 0.036655083
0.65008742 -0.1507304 0.036644574
0.65120786 -0.15018529 0.037088607
0.65145695 -0.14936881 0.037078112
0.65257639 -0.14882678 0.037522186
0.65282518 -0.14801134 0.037511703
0.65394372 -0.14747241 0.037955817
0.65419215 -0.146658 0.037945345
0.65444058 -0.1458436 0.037934877
0.65468901 -0.14502919 0.037924405
0.65580601 -0.14449543 0.038368572
0.6569224 -0.14396377 0.038812794
0.65717018 -0.14315142 0.038802352
0.65741801 -0.14233907 0.03879191
0.65766579 -0.14152673 0.038781464
0.65791363 -0.14071438 0.038771022
0.65902805 -0.1401889 0.039215308
0.65927553 -0.13937759 0.039204877
0.65952307 -0.13856627 0.039194446
0.65977055 -0.13775496 0.039184019
0.66001803 -0.13694365 0.039173588
0.66026556 -0.13613234 0.039163157
0.66051304 -0.13532104 0.039152727
0.66162497 -0.13480382 0.03959712
0.66187215 -0.13399354 0.039586704
0.66298312 -0.13347942 0.040031135
0.66322994 -0.13267018 0.040020734
0.66433996 -0.13215916 0.040465206
0.66458654 -0.13135095 0.040454816
0.66483307 -0.13054274 0.040444426
0.66507965 -0.12973453 0.040434033
0.66532618 -0.12892632 0.040423643
0.66557276 -0.12811811 0.040413253
0.66581929 -0.12730989 0.040402863
0.66606581 -0.12650168 0.040392473
0.6663124 -0.12569347 0.04038208
0.66741931 -0.12519281 0.040826704
0.66766554 -0.12438563 0.040816326
0.66791177 -0.12357846 0.040805947
0.66901737 -0.12308192 0.041250579
0.6692633 -0.12227577 0.041240215
0.67036796 -0.12178233 0.041684914
0.67061359 -0.12097722 0.041674562
0.67085922 -0.12017211 0.041664213
0.67110479 -0.119367 0.041653864
0.67220789 -0.11887872 0.042098626
0.67245317 -0.11807464 0.042088289
0.67269844 -0.11727057 0.042077955
0.67294377 -0.11646648 0.042067617
0.67318904 -0.11566241 0.042057279
0.67343432 -0.11485834 0.042046942
0.67367959 -0.11405426 0.042036604
0.67392492 -0.11325018 0.042026266
0.6741702 -0.11244611 0.042015929
0.67441547 -0.11164203 0.042005591
0.67466074 -0.11083795 0.041995253
0.67490608 -0.11003387 0.041984916
0.67515135 -0.1092298 0.041974578
0.67539662 -0.10842572 0.041964244
0.67564189 -0.10762164 0.041953906
0.67588723 -0.10681757 0.041943569
0.6761325 -0.10601348 0.041933231
0.67637777 -0.10520941 0.041922893
0.67662305 -0.10440534 0.041912556
0.67686838 -0.10360125 0.041902218
0.67626244 -0.10245968 0.041436497
0.67650807 -0.10165457 0.041426148
0.6767537 -0.10084945 0.041415796
0.67614907 -0.099703744 0.040950026
0.67639494 -0.098897599 0.040939663
0.67664087 -0.098091453 0.040929299
0.6768868 -0.097285315 0.040918931
0.67628372 -0.096134424 0.040453125
0.67652994 -0.095327243 0.040442746
0.67677623 -0.094520062 0.040432367
0.67702246 -0.093712889 0.040421993
0.67642093 -0.092556819 0.03995607
0.67666745 -0.09174861 0.039945681
0.67606694 -0.090589456 0.039479736
0.67631382 -0.089780211 0.039469332
0.67656064 -0.088970974 0.039458927
0.67680752 -0.088161722 0.039448522
0.6779002 -0.087707557 0.039893728
0.67814678 -0.086899348 0.039883338
0.6783933 -0.086091138 0.039872948
0.67863983 -0.085282929 0.039862555
0.67888641 -0.084474713 0.039852165
0.67913294 -0.083666503 0.039841775
0.60707766 -0.19866715 0.022869276
0.60733646 -0.19781864 0.022858368
0.60848659 -0.19717523 0.02330219
0.60874516 -0.19632775 0.023291295
0.60900366 -0.19548026 0.023280399
0.61015254 -0.194841 0.023724247
0.61130083 -0.19420382 0.024168164
0.61155874 -0.19335841 0.024157295
0.61270601 -0.19272432 0.024601238
0.61385262 -0.19209228 0.025045192
0.61499864 -0.19146232 0.025489187
0.61614412 -0.19083445 0.025933225
0.61728889 -0.19020863 0.026377244
0.618433 -0.18958487 0.026821319
0.61957651 -0.18896317 0.027265422
0.61983222 -0.18812498 0.027254645
0.62097472 -0.18750639 0.027698787
0.62211674 -0.18688989 0.028142957
0.62325799 -0.18627542 0.028587151
0.62439865 -0.18566304 0.029031372
0.6246531 -0.184829 0.02902065
0.62490755 -0.18399495 0.029009927
0.62604696 -0.18338668 0.029454174
0.62630105 -0.18255368 0.029443463
0.6274395 -0.18194851 0.029887777
0.6276933 -0.18111654 0.029877082
0.62883085 -0.1805145 0.030321451
0.62908435 -0.17968355 0.030310769
0.63022095 -0.1790846 0.030755147
0.63047409 -0.17825468 0.030744478
0.63160968 -0.17765883 0.031188913
0.63186258 -0.17682993 0.031178256
0.63211542 -0.17600106 0.0311676
0.63236827 -0.17517218 0.031156944
0.6335023 -0.1745815 0.031601444
0.63375485 -0.17375365 0.031590801
0.63488799 -0.17316608 0.032035328
0.63514024 -0.17233926 0.032024696
0.63539243 -0.17151244 0.032014068
0.63652426 -0.170929 0.032458663
0.63677621 -0.17010321 0.032448046
0.6370281 -0.16927743 0.032437429
0.63815868 -0.16869812 0.032882076
0.63841027 -0.16787337 0.032871474
0.6395399 -0.16729715 0.033316143
0.64066887 -0.166723 0.033760857
0.64091986 -0.16590032 0.033750281
0.64204794 -0.16532929 0.034195047
0.64229858 -0.16450764 0.034184486
0.64254928 -0.16368599 0.034173921
0.64279991 -0.16286434 0.03416336
0.64392638 -0.16229847 0.034608163
0.64417672 -0.16147785 0.034597613
0.64530224 -0.16091508 0.035042457
0.64555228 -0.16009548 0.035031922
0.64580226 -0.1592759 0.035021383
0.6460523 -0.15845633 0.035010848
0.64630228 -0.15763675 0.035000313
0.64655232 -0.15681717 0.034989774
0.64680237 -0.15599759 0.034979239
0.64792538 -0.15544307 0.035424203
0.64817506 -0.15462454 0.035413679
0.64929718 -0.15407313 0.035858687
0.64954656 -0.15325563 0.035848178
0.64979595 -0.1524381 0.035837665
0.65004534 -0.1516206 0.035827156
0.65116578 -0.15107435 0.036272228
0.65141487 -0.15025787 0.03626173
0.65166396 -0.14944139 0.036251236
0.65278316 -0.14889929 0.03669636
0.65303195 -0.14808384 0.036685877
0.65415019 -0.14754483 0.037131026
0.65439862 -0.14673041 0.037120555
0.65464711 -0.145916 0.037110087
0.6557641 -0.14538112 0.037555289
0.65601224 -0.14456774 0.037544832
0.65712833 -0.14403598 0.037990104
0.65737617 -0.14322364 0.037979662
0.65849131 -0.14269497 0.038424943
0.65873879 -0.14188366 0.038414516
0.65898627 -0.14107235 0.038404085
0.65923375 -0.14026102 0.038393654
0.65948129 -0.13944972 0.038383223
0.65972877 -0.13863841 0.038372792
0.65997624 -0.1378271 0.038362361
0.66022378 -0.13701579 0.038351931
0.66047126 -0.13620447 0.0383415
0.66158324 -0.13568613 0.038786933
0.66183043 -0.13487585 0.038776513
0.6629414 -0.13436061 0.039221983
0.66318828 -0.13355137 0.039211582
0.66429836 -0.13303924 0.039657079
0.66454494 -0.13223103 0.039646685
0.66479146 -0.1314228 0.039636295
0.66503799 -0.13061459 0.039625905
0.66528457 -0.12980638 0.039615516
0.6663928 -0.12930046 0.04006112
0.66663903 -0.12849328 0.040050741
0.66688526 -0.12768611 0.040040366
0.66713148 -0.12687893 0.040029988
0.66737777 -0.12607175 0.040019613
0.66848403 -0.12557203 0.040465266
0.66872996 -0.12476587 0.040454902
0.66897589 -0.12395974 0.040444538
0.6700809 -0.12346412 0.040890247
0.67032653 -0.12265902 0.040879898
0.67143059 -0.12216651 0.041325659
0.67167592 -0.12136243 0.041315321
0.67192119 -0.12055836 0.041304983
0.67216647 -0.11975428 0.041294646
0.67241174 -0.11895021 0.041284308
0.67351401 -0.11846393 0.041730165
0.67375898 -0.11766088 0.041719843
0.67400396 -0.11685784 0.04170952
0.67424893 -0.1160548 0.041699193
0.67449391 -0.11525175 0.041688871
0.67473888 -0.1144487 0.041678548
0.67498386 -0.11364566 0.041668221
0.67522883 -0.11284262 0.041657899
0.67547381 -0.11203957 0.041647576
0.67571878 -0.11123654 0.041637249
0.67596376 -0.11043349 0.041626927
0.67620873 -0.10963044 0.041616604
0.67645371 -0.1088274 0.041606277
0.67669868 -0.10802436 0.041595954
0.67694366 -0.10722131 0.041585632
0.67718858 -0.10641827 0.041575305
0.67743355 -0.10561523 0.041564982
0.67767853 -0.10481218 0.04155466
0.6779235 -0.10400914 0.041544333
0.6773175 -0.10286867 0.041077562
0.67756283 -0.10206459 0.041067224
0.67780811 -0.10126051 0.041056886
0.67805338 -0.10045644 0.041046549
0.67744905 -0.099310808 0.040579729
0.67769462 -0.098505698 0.040569376
0.67794025 -0.097700588 0.040559027
0.67818582 -0.096895479 0.040548675
0.67843145 -0.096090369 0.040538326
0.67782897 -0.094938546 0.040071435
0.6780749 -0.094132401 0.040061072
0.67747337 -0.092977479 0.039594144
0.67771959 -0.092170298 0.039583769
0.67711896 -0.091012262 0.03911677
0.67736548 -0.090204045 0.03910638
0.67761201 -0.089395836 0.03909599
0.67785859 -0.088587627 0.039085601
0.67810512 -0.087779418 0.039075207
0.6783517 -0.086971208 0.039064817
0.67944324 -0.086520053 0.039511129
0.67968947 -0.08571288 0.039500751
0.67993569 -0.084905699 0.039490372
0.68018192 -0.084098525 0.039479997
0.68042815 -0.083291344 0.039469618
0.68067437 -0.082484171 0.03945924
0.60729277 -0.1987426 0.022009946
0.60755163 -0.19789407 0.021999037
0.6078105 -0.19704555 0.021988129
0.60896003 -0.1964031 0.022433015
0.60921854 -0.19555561 0.02242212
0.61036718 -0.19491626 0.022867016
0.61151516 -0.19427899 0.023311984
0.61177307 -0.19343357 0.023301115
0.61292011 -0.19279939 0.023746094
0.61406648 -0.19216727 0.024191098
0.61521226 -0.19153722 0.024636144
0.61635745 -0.19090925 0.025081217
0.61750191 -0.19028333 0.0255263
0.61864579 -0.18965948 0.025971413
0.619789 -0.1890377 0.026416564
0.62004471 -0.18819951 0.026405787
0.62118703 -0.18758082 0.026850965
0.62232876 -0.18696423 0.027296184
0.62346977 -0.18634968 0.027741428
0.62461019 -0.18573719 0.028186686
0.62486458 -0.18490314 0.028175963
0.62511903 -0.1840691 0.028165242
0.62625813 -0.18346074 0.028610552
0.62651229 -0.18262774 0.028599842
0.62765044 -0.18202248 0.029045193
0.6279043 -0.18119051 0.029034495
0.62904155 -0.18058838 0.029479915
0.62929505 -0.17975742 0.029469233
0.63043135 -0.17915837 0.029914662
0.63068449 -0.17832845 0.029903993
0.6318199 -0.17773251 0.030349476
0.63207275 -0.17690364 0.03033882
0.63232559 -0.17607476 0.030328164
0.63257843 -0.17524587 0.030317508
0.63371223 -0.17465509 0.030763045
0.63396478 -0.17382725 0.030752402
0.63509768 -0.17323959 0.031197978
0.63534987 -0.17241277 0.031187348
0.63560212 -0.17158596 0.031176718
0.63673365 -0.17100242 0.031622361
0.6369856 -0.17017663 0.031611744
0.63723749 -0.16935085 0.031601131
0.63836777 -0.16877145 0.03204681
0.63861942 -0.1679467 0.032036208
0.63974875 -0.16737038 0.032481946
0.64087749 -0.16679615 0.032927692
0.64112848 -0.16597347 0.032917116
0.64225632 -0.16540234 0.033362936
0.64250696 -0.16458069 0.033352371
0.64275759 -0.16375904 0.03334181
0.64300823 -0.16293739 0.033331245
0.64413446 -0.16237143 0.033777099
0.6443848 -0.1615508 0.033766549
0.64551008 -0.16098794 0.034212433
0.64576006 -0.16016835 0.034201894
0.6460101 -0.15934877 0.034191359
0.64626008 -0.15852919 0.03418082
0.64651012 -0.15770961 0.034170285
0.64676017 -0.15689003 0.034159746
0.64788318 -0.1563344 0.034605749
0.64813292 -0.15551585 0.034595225
0.6483826 -0.1546973 0.034584705
0.64950448 -0.15414582 0.03503076
0.64975387 -0.1533283 0.035020251
0.65000325 -0.15251079 0.035009738
0.65112376 -0.15196343 0.035455849
0.65137285 -0.15114695 0.035445351
0.65162188 -0.15033047 0.035434853
0.65187097 -0.14951399 0.035424359
0.65298992 -0.14897178 0.035870519
0.65323871 -0.14815633 0.035860036
0.65435672 -0.14761724 0.036306251
0.65460515 -0.14680281 0.036295779
0.65485358 -0.1459884 0.036285307
0.65597034 -0.14545344 0.036731549
0.65708655 -0.14492056 0.037177842
0.65733433 -0.14410821 0.0371674
0.65758216 -0.14329587 0.037156954
0.65869701 -0.1427671 0.037603304
0.65894449 -0.14195579 0.037592873
0.65919197 -0.14114447 0.037582442
0.6594395 -0.14033316 0.037572011
0.6605528 -0.13980956 0.038018413
0.66079998 -0.13899928 0.038007997
0.66104716 -0.138189 0.037997577
0.66129434 -0.13737872 0.037987161
0.66154152 -0.13656846 0.037976746
0.6617887 -0.13575818 0.037966326
0.66289973 -0.13524181 0.038412835
0.66314662 -0.13443257 0.038402431
0.6633935 -0.13362332 0.038392026
0.66450328 -0.13311109 0.038838573
0.66474986 -0.13230288 0.038828183
0.66499639 -0.13149466 0.038817793
0.66610503 -0.13098659 0.039264422
0.66635126 -0.13017941 0.039254043
0.66659749 -0.12937222 0.039243665
0.66684371 -0.12856504 0.03923329
0.66708994 -0.12775788 0.039222911
0.66819662 -0.12725598 0.039669577
0.66844255 -0.12644984 0.039659213
0.66954827 -0.12595104 0.040105931
0.66979384 -0.12514593 0.040095579
0.67003947 -0.12434082 0.04008523
0.67114389 -0.12384616 0.040532015
0.67138922 -0.12304208 0.040521678
0.6716345 -0.122238 0.04051134
0.67273772 -0.12174749 0.040958181
0.67298269 -0.12094445 0.040947858
0.67322767 -0.12014141 0.040937532
0.67347264 -0.11933836 0.040927209
0.67457426 -0.118853 0.041374113
0.67481893 -0.11805099 0.041363802
0.67506361 -0.11724898 0.041353494
0.67530823 -0.11644697 0.041343182
0.6755529 -0.11564496 0.041332871
0.67579758 -0.11484295 0.041322559
0.6760422 -0.11404094 0.041312251
0.67628688 -0.11323893 0.04130194
0.67653155 -0.11243692 0.041291628
0.67677617 -0.11163491 0.041281316
0.67702085 -0.1108329 0.041271005
0.67726552 -0.11003089 0.041260697
0.67751014 -0.10922888 0.041250385
0.67775482 -0.10842687 0.041240074
0.6779995 -0.10762486 0.041229762
0.67824411 -0.10682285 0.041219454
0.67848879 -0.10602084 0.041209143
0.67873347 -0.10521883 0.041198831
0.67897809 -0.10441682 0.041188519
0.67837214 -0.1032775 0.040720727
0.67861706 -0.10247445 0.040710405
0.67886204 -0.10167141 0.040700078
0.67910701 -0.10086837 0.040689755
0.67850256 -0.099723846 0.040221896
0.67874783 -0.098919772 0.040211558
0.67899311 -0.098115698 0.040201221
0.67923844 -0.097311616 0.040190883
0.67948371 -0.096507542 0.040180545
0.67888117 -0.095356837 0.039712604
0.6791268 -0.094551735 0.039702255
0.67852521 -0.09339793 0.039234292
0.67877114 -0.092591785 0.039223928
0.6781705 -0.091434881 0.038755935
0.67841673 -0.090627708 0.03874556
0.67866296 -0.089820527 0.038735181
0.67890918 -0.089013353 0.038724806
0.67915541 -0.088206172 0.038714428
0.67940164 -0.087398998 0.038704049
0.67964786 -0.086591817 0.038693674
0.67989409 -0.085784644 0.038683295
0.68014038 -0.084977463 0.03867292
0.6803866 -0.084170289 0.038662542
0.68063283 -0.083363108 0.038652163
0.68172216 -0.082918055 0.039099559
0.68196809 -0.08211191 0.039089195
0.60750794 -0.19881803 0.021150615
0.60776681 -0.19796951 0.021139707
0.60802561 -0.19712099 0.021128798
0.60828447 -0.19627248 0.021117888
0.60943347 -0.19563095 0.021563839
0.61058176 -0.19499151 0.022009786
0.61172956 -0.19435416 0.022455789
0.61198741 -0.19350873 0.022444921
0.61313421 -0.19287446 0.02289095
0.61428034 -0.19224225 0.023337005
0.61542583 -0.19161209 0.023783099
0.61657071 -0.19098404 0.024229223
0.617715 -0.19035803 0.024675343
0.61885858 -0.18973409 0.025121504
0.62000155 -0.18911222 0.025567692
0.62025726 -0.18827403 0.025556916
0.62139928 -0.18765526 0.026003158
0.62254071 -0.18703856 0.026449427
0.62368149 -0.18642391 0.026895707
0.62482166 -0.18581134 0.027342014
0.62507606 -0.18497729 0.027331293
0.62533051 -0.18414325 0.027320569
0.62646937 -0.18353482 0.027766915
0.62672347 -0.1827018 0.027756207
0.62786144 -0.18209645 0.028202606
0.62811524 -0.18126447 0.028191909
0.62925225 -0.18066224 0.02863838
0.62950575 -0.1798313 0.028627697
0.63064176 -0.17923217 0.029074177
0.63089496 -0.17840225 0.029063508
0.63203007 -0.17780621 0.029510027
0.63228291 -0.17697732 0.029499371
0.63253576 -0.17614844 0.029488714
0.6327886 -0.17531957 0.029478058
0.6339221 -0.17472869 0.029924644
0.63417464 -0.17390084 0.029914001
0.63530731 -0.1733131 0.030360628
0.6355595 -0.17248628 0.03035
0.63581175 -0.17165947 0.03033937
0.63694304 -0.17107584 0.030786064
0.63719499 -0.17025004 0.030775446
0.63744688 -0.16942427 0.030764829
0.63857692 -0.16884476 0.031211562
0.63882852 -0.16802002 0.031200958
0.63995761 -0.16744362 0.031647731
0.6410861 -0.16686928 0.032094531
0.64133704 -0.1660466 0.032083955
0.64246464 -0.16547538 0.032530807
0.64271528 -0.16465373 0.032520246
0.64296591 -0.1638321 0.032509681
0.64321655 -0.16301045 0.03249912
0.64434254 -0.16244438 0.032946039
0.64459288 -0.16162376 0.032935489
0.64571786 -0.1610608 0.033382419
0.6459679 -0.16024122 0.033371881
0.64621788 -0.15942164 0.033361346
0.64646792 -0.15860206 0.033350807
0.64671791 -0.15778248 0.033340272
0.64696795 -0.1569629 0.033329736
0.64809072 -0.15640718 0.033776771
0.64834046 -0.15558863 0.033766251
0.64859015 -0.15477008 0.033755727
0.64971173 -0.15421849 0.034202833
0.64996111 -0.15340099 0.034192324
0.6502105 -0.15258348 0.034181811
0.65133077 -0.15203601 0.034628958
0.65157986 -0.15121953 0.03461846
0.65182894 -0.15040305 0.034607962
0.65207803 -0.14958657 0.034597468
0.65319669 -0.14904428 0.035044692
0.65344548 -0.14822884 0.035034209
0.65456319 -0.14768964 0.035481457
0.65481162 -0.14687523 0.035470989
0.65592843 -0.14633913 0.035918266
0.65617657 -0.14552575 0.035907809
0.65729249 -0.14499278 0.036355153
0.65754032 -0.14418043 0.036344711
0.6577881 -0.14336808 0.036334265
0.6589027 -0.14283922 0.03678165
0.65915024 -0.14202791 0.036771219
0.65939772 -0.14121661 0.036760788
0.6596452 -0.1404053 0.036750358
0.6607582 -0.1398816 0.037197821
0.66100538 -0.13907133 0.037187405
0.66125256 -0.13826105 0.037176989
0.66149974 -0.13745077 0.037166569
0.66174692 -0.13664049 0.037156153
0.66285807 -0.136123 0.037603684
0.66310495 -0.13531375 0.037593279
0.66335183 -0.13450451 0.037582874
0.66446167 -0.13399115 0.03803046
0.6647082 -0.13318294 0.038020067
0.6658172 -0.1326727 0.038467705
0.66606343 -0.13186552 0.03845733
0.66630965 -0.13105835 0.038446952
0.66655588 -0.13025117 0.038436573
0.66766328 -0.12974608 0.038884249
0.6679092 -0.12893994 0.038873885
0.66815507 -0.1281338 0.038863521
0.668401 -0.12732765 0.038853157
0.66950679 -0.12682773 0.039300926
0.66975236 -0.12602262 0.039290577
0.66999799 -0.12521751 0.039280225
0.67110252 -0.12472172 0.039728034
0.6713478 -0.12391765 0.039717697
0.67245144 -0.12342498 0.040165562
0.67269641 -0.12262194 0.040155236
0.67379898 -0.12213235 0.040603124
0.67404366 -0.12133034 0.040592816
0.67428833 -0.12052833 0.040582504
0.67453295 -0.11972632 0.040572193
0.67563403 -0.1192419 0.041020148
0.67587835 -0.11844092 0.041009851
0.67612273 -0.11763995 0.040999554
0.67636704 -0.11683897 0.040989254
0.67661136 -0.11603799 0.040978957
0.67685574 -0.11523702 0.04096866
0.67710006 -0.11443604 0.040958364
0.67734444 -0.11363506 0.040948067
0.67758876 -0.11283409 0.040937766
0.67783308 -0.11203311 0.04092747
0.67807746 -0.11123213 0.040917173
0.67832178 -0.11043116 0.040906876
0.6785661 -0.10963018 0.040896576
0.67881048 -0.10882921 0.040886279
0.6790548 -0.10802823 0.040875982
0.67929918 -0.10722725 0.040865686
0.6795435 -0.10642628 0.040855389
0.67978781 -0.1056253 0.040845089
0.68003219 -0.10482433 0.040834792
0.67942613 -0.10368612 0.040365975
0.67967081 -0.10288411 0.040355667
0.67991543 -0.1020821 0.040345356
0.68016011 -0.10128009 0.040335044
0.67955565 -0.10013671 0.039866164
0.67980057 -0.099333674 0.039855838
0.68004555 -0.098530628 0.039845515
0.68029052 -0.097727582 0.039835192
0.6805355 -0.096924543 0.039824866
0.67993289 -0.095774949 0.039355889
0.68017817 -0.094970874 0.039345551
0.67957652 -0.093818203 0.038876552
0.67982215 -0.093013093 0.0388662
0.67922145 -0.091857314 0.038397145
0.67946738 -0.091051169 0.038386781
0.67971331 -0.090245023 0.038376417
0.67995918 -0.089438878 0.038366053
0.68020511 -0.08863274 0.038355689
0.67960632 -0.087470762 0.037886582
0.67985255 -0.086663581 0.037876204
0.68009877 -0.085856408 0.037865829
0.680345 -0.085049227 0.03785545
0.68143469 -0.084602013 0.038303867
0.68168062 -0.083795868 0.038293503
0.68192655 -0.08298973 0.038283139
0.68217248 -0.082183585 0.038272776
0.68241841 -0.081377439 0.038262412
0.60683197 -0.19869068 0.019833459
0.60709113 -0.19784114 0.019822536
0.60735029 -0.19699158 0.019811615
0.60849965 -0.19634792 0.020258574
0.60964835 -0.19570631 0.020705558
0.61079639 -0.19506676 0.021152541
0.6119439 -0.19442932 0.021599595
0.61220181 -0.19358391 0.021588726
0.61334831 -0.19294953 0.022035806
0.61449414 -0.19231723 0.022482909
0.61563939 -0.19168699 0.022930041
0.61678404 -0.19105884 0.023377214
0.61792803 -0.19043274 0.023824384
0.61907136 -0.1898087 0.024271596
0.6202141 -0.18918674 0.024718834
0.62046981 -0.18834855 0.024708057
0.62161154 -0.18772969 0.025155336
0.62275273 -0.1871129 0.025602655
0.62389326 -0.18649817 0.026049985
0.62503314 -0.1858855 0.026497344
0.62528753 -0.18505146 0.02648662
0.62554199 -0.18421739 0.026475897
0.62668061 -0.18360887 0.026923293
0.62693471 -0.18277586 0.026912585
0.62807238 -0.18217042 0.027360035
0.62832618 -0.18133844 0.027349338
0.62946296 -0.18073612 0.027796844
0.62971646 -0.17990518 0.027786162
0.63085222 -0.17930594 0.028233692
0.63110536 -0.17847604 0.028223021
0.63224024 -0.1778799 0.028670592
0.63249308 -0.17705102 0.028659936
0.63274592 -0.17622215 0.02864928
0.63299876 -0.17539325 0.028638624
0.63413203 -0.1748023 0.02908626
0.63438457 -0.17397445 0.029075617
0.63551694 -0.1733866 0.02952328
0.63576919 -0.1725598 0.029512649
0.63602138 -0.17173298 0.029502019
0.63715243 -0.17114925 0.029949749
0.63740432 -0.17032346 0.029939132
0.63765627 -0.16949768 0.029928517
0.63878602 -0.16891809 0.030376298
0.63903761 -0.16809334 0.030365696
0.64016646 -0.16751686 0.030813519
0.64129466 -0.16694243 0.031261366
0.64154565 -0.16611975 0.03125079
0.64267296 -0.16554844 0.031698696
0.64292359 -0.16472679 0.031688131
0.64317429 -0.16390514 0.031677566
0.64342493 -0.16308349 0.031667005
0.64455062 -0.16251734 0.03211496
0.6448009 -0.16169673 0.03210441
0.6459257 -0.16113366 0.032552391
0.64617568 -0.16031408 0.032541852
0.64642572 -0.1594945 0.032531317
0.64667571 -0.15867493 0.032520782
0.64692575 -0.15785535 0.032510243
0.64717579 -0.15703577 0.032499708
0.64829832 -0.15647995 0.032947797
0.64854801 -0.1556614 0.032937273
0.64879769 -0.15484285 0.032926749
0.64991903 -0.15429118 0.033374906
0.65016842 -0.15347368 0.033364397
0.6504178 -0.15265615 0.033353884
0.65153784 -0.15210861 0.033802081
0.65178686 -0.15129213 0.033791583
0.65203595 -0.15047565 0.033781085
0.65315473 -0.14993222 0.034229334
0.65340346 -0.14911678 0.034218851
0.65365219 -0.14830133 0.034208369
0.65476972 -0.14776205 0.034656666
0.65501815 -0.14694764 0.034646198
0.65613472 -0.14641145 0.035094522
0.6563828 -0.14559807 0.035084065
0.65749848 -0.14506499 0.035532463
0.65774632 -0.14425266 0.035522018
0.65799409 -0.14344031 0.035511576
0.65910846 -0.14291136 0.035960007
0.65935594 -0.14210005 0.035949577
0.65960342 -0.14128874 0.03593915
0.66071647 -0.14076392 0.036387634
0.66096365 -0.13995364 0.036377218
0.66121083 -0.13914336 0.036366802
0.6623227 -0.13862269 0.036815342
0.66256952 -0.13781343 0.036804937
0.66281641 -0.1370042 0.036794532
0.66306329 -0.13619494 0.036784127
0.66331011 -0.13538571 0.036773726
0.66442007 -0.13487121 0.037222344
0.66552943 -0.13435882 0.037671007
0.66577566 -0.13355164 0.037660629
0.66602188 -0.13274446 0.03765025
0.66626811 -0.13193728 0.037639875
0.6673758 -0.13143004 0.038088571
0.66762173 -0.13062389 0.038078208
0.66786766 -0.12981775 0.038067844
0.66811359 -0.12901162 0.03805748
0.66921973 -0.12850954 0.038506258
0.6694653 -0.12770441 0.038495909
0.66971093 -0.1268993 0.038485557
0.67081583 -0.12640136 0.038934391
0.6710611 -0.12559728 0.038924053
0.67130637 -0.12479321 0.038913716
0.67241007 -0.12429941 0.039362617
0.67265505 -0.12349638 0.039352294
0.67375767 -0.12300566 0.039801203
0.67400235 -0.12220365 0.039790891
0.67424703 -0.12140164 0.039780583
0.6744917 -0.12059963 0.039770272
0.67559278 -0.12011409 0.040219262
0.6758371 -0.11931311 0.040208966
0.67608148 -0.11851213 0.040198669
0.6763258 -0.11771116 0.040188372
0.67657012 -0.11691018 0.040178072
0.6768145 -0.11610921 0.040167775
0.67705882 -0.11530823 0.040157478
0.67730319 -0.11450725 0.040147182
0.67754751 -0.11370628 0.040136881
0.67779183 -0.1129053 0.040126584
0.67803621 -0.11210433 0.040116288
0.67828053 -0.11130334 0.040105991
0.67852485 -0.11050237 0.040095694
0.67876923 -0.1097014 0.040085394
0.67901355 -0.10890042 0.040075097
0.67925793 -0.10809945 0.040064801
0.67950225 -0.10729846 0.040054504
0.67974657 -0.10649749 0.040044207
0.67999095 -0.10569651 0.040033907
0.68023527 -0.10489554 0.04002361
0.68047965 -0.10409456 0.040013313
0.68072397 -0.10329358 0.040003017
0.68096828 -0.10249261 0.039992716
0.68121266 -0.10169163 0.039982419
0.68060809 -0.10054938 0.0395125
0.68085277 -0.099747375 0.039502192
0.68109745 -0.098945364 0.039491881
0.68134207 -0.098143354 0.039481569
0.68158674 -0.097341344 0.039471257
0.68098408 -0.096192896 0.039001275
0.68122905 -0.09538985 0.038990948
0.68062735 -0.094238289 0.038520895
0.68087262 -0.093434207 0.038510561
0.68027186 -0.092279561 0.038040482
0.68051749 -0.091474451 0.038030129
0.68076307 -0.090669341 0.03801978
0.6810087 -0.089864224 0.038009427
0.68125427 -0.089059114 0.037999079
0.68065542 -0.087898262 0.037528921
0.68090135 -0.087092124 0.037518557
0.68114728 -0.086285979 0.037508193
0.68139321 -0.085479826 0.03749783
0.68163913 -0.084673688 0.037487466
0.68188506 -0.083867542 0.037477102
0.68213093 -0.083061397 0.037466738
0.68237686 -0.082255252 0.037456371
0.68262279 -0.081449114 0.037446007
0.68286872 -0.080642968 0.037435643
0.60615653 -0.19856353 0.018514186
0.60730654 -0.19791667 0.018962156
0.6075657 -0.19706711 0.018951233
0.60782486 -0.19621757 0.018940311
0.60897362 -0.19557483 0.019388335
0.61012173 -0.19493417 0.019836368
0.61126924 -0.19429557 0.020284429
0.61241615 -0.19365907 0.020732546
0.61356241 -0.19302461 0.02118066
0.61470801 -0.1923922 0.021628816
0.61585295 -0.19176188 0.022076998
0.61699736 -0.19113363 0.022525221
0.61814111 -0.19050744 0.022973426
0.61928415 -0.18988332 0.023421688
0.6204266 -0.18926126 0.023869976
0.6206823 -0.18842307 0.023859199
0.62182379 -0.18780412 0.024307529
0.62296474 -0.18718724 0.024755882
0.62410498 -0.1865724 0.025204264
0.62524462 -0.18595965 0.025652671
0.62549901 -0.1851256 0.025641948
0.62575346 -0.18429156 0.025631227
0.62689179 -0.18368293 0.026079658
0.62714595 -0.18284991 0.026068948
0.62828332 -0.18224439 0.026517449
0.62853712 -0.18141241 0.026506754
0.62967366 -0.18081 0.026955308
0.62992716 -0.17997906 0.026944626
0.63106263 -0.17937973 0.027393205
0.63131583 -0.17854981 0.027382536
0.6324504 -0.1779536 0.027831143
0.63270324 -0.17712471 0.027820485
0.63295609 -0.17629583 0.027809829
0.63320893 -0.17546695 0.027799172
0.63434196 -0.1748759 0.028247859
0.6345945 -0.17404805 0.028237216
0.63572657 -0.17346011 0.028685944
0.63597882 -0.17263331 0.028675314
0.63623106 -0.17180648 0.028664684
0.63736182 -0.17122267 0.029113449
0.63761371 -0.17039688 0.029102834
0.63786566 -0.1695711 0.029092217
0.63899517 -0.16899142 0.029541049
0.63924676 -0.16816667 0.029530447
0.64037532 -0.16759008 0.029979318
0.64150327 -0.16701557 0.030428218
0.64175427 -0.16619289 0.030417642
0.64288127 -0.16562149 0.030866582
0.64313197 -0.16479984 0.030856019
0.64338261 -0.16397819 0.030845456
0.64363325 -0.16315655 0.030834891
0.64475864 -0.1625903 0.031283896
0.64500898 -0.16176969 0.031273346
0.64613348 -0.16120653 0.031722378
0.64638352 -0.16038695 0.031711843
0.64663351 -0.15956737 0.031701304
0.64688355 -0.15874779 0.031690769
0.64713353 -0.15792821 0.03168023
0.64738357 -0.15710863 0.031669695
0.64850587 -0.15655272 0.03211882
0.64875555 -0.15573418 0.032108296
0.64900523 -0.15491563 0.032097772
0.65012634 -0.15436387 0.032546978
0.65037572 -0.15354635 0.032536469
0.65062511 -0.15272884 0.032525957
0.65174484 -0.15218119 0.032975204
0.65199393 -0.15136471 0.032964706
0.65224296 -0.15054823 0.032954209
0.65336144 -0.15000473 0.033403508
0.65361023 -0.14918928 0.033393022
0.65385896 -0.14837383 0.033382539
0.65497619 -0.14783445 0.033831876
0.65522468 -0.14702004 0.033821408
0.65634096 -0.14648376 0.034270782
0.65658909 -0.14567038 0.034260325
0.65770447 -0.14513722 0.03470977
0.65795225 -0.14432488 0.034699328
0.65820009 -0.14351253 0.034688883
0.65931416 -0.1429835 0.035138354
0.65956163 -0.14217219 0.035127923
0.65980911 -0.14136086 0.035117492
0.66092193 -0.14083596 0.03556703
0.66116911 -0.14002568 0.035556614
0.66228098 -0.13950387 0.03600619
0.66252786 -0.13869463 0.035995785
0.66277474 -0.13788538 0.03598538
0.66302162 -0.13707614 0.035974979
0.66326845 -0.1362669 0.035964575
0.6643784 -0.13575129 0.036414232
0.66548783 -0.13523777 0.036863916
0.66573405 -0.13443059 0.036853537
0.66598028 -0.13362341 0.036843158
0.66708839 -0.133114 0.037292883
0.66733432 -0.13230786 0.037282519
0.66758025 -0.13150172 0.037272155
0.66868705 -0.13099644 0.037721943
0.66893268 -0.13019133 0.037711594
0.66917825 -0.12938622 0.037701242
0.66942388 -0.12858111 0.037690893
0.67052913 -0.12808101 0.038140733
0.6707744 -0.12727693 0.038130395
0.67101967 -0.12647285 0.038120057
0.67212373 -0.12597691 0.038569983
0.67236871 -0.12517385 0.038559657
0.67347175 -0.12468098 0.039009608
0.67371643 -0.12387897 0.038999297
0.67396104 -0.12307697 0.038988985
0.67420572 -0.12227496 0.038978674
0.6744504 -0.12147295 0.038968366
0.67555153 -0.12098628 0.039418392
0.67579585 -0.1201853 0.039408095
0.6768961 -0.11970173 0.039858136
0.67714012 -0.11890179 0.039847851
0.67738414 -0.11810184 0.039837565
0.67762816 -0.1173019 0.039827283
0.67787218 -0.11650196 0.039816998
0.6781162 -0.11570202 0.039806712
0.67836022 -0.11490207 0.039796431
0.67860425 -0.11410213 0.039786145
0.67884827 -0.11330219 0.03977586
0.67909229 -0.11250224 0.039765578
0.67933637 -0.1117023 0.039755292
0.67958039 -0.11090236 0.039745007
0.67982441 -0.11010242 0.039734725
0.68006843 -0.10930248 0.039724439
0.68031245 -0.10850253 0.039714154
0.68055648 -0.10770258 0.039703872
0.6808005 -0.10690264 0.039693587
0.68104452 -0.10610271 0.039683305
0.68128854 -0.10530276 0.039673019
0.68153256 -0.10450282 0.039662734
0.68177658 -0.10370287 0.039652452
0.68202066 -0.10290293 0.039642166
0.68226469 -0.10210299 0.039631881
0.68166006 -0.10096187 0.039160956
0.68190444 -0.10016089 0.039150659
0.68214875 -0.099359915 0.039140359
0.68239313 -0.09855894 0.039130062
0.68263745 -0.097757958 0.039119765
0.68203473 -0.096610636 0.038648728
0.68227941 -0.095808625 0.03863842
0.6816777 -0.094658203 0.038167343
0.68192267 -0.093855165 0.03815702
0.6813218 -0.092701621 0.03768589
0.68156707 -0.09189754 0.037675552
0.68181235 -0.091093466 0.037665214
0.68121284 -0.089935809 0.037194062
0.68145841 -0.0891307 0.037183709
0.68170404 -0.08832559 0.037173361
0.68110579 -0.087163791 0.036702137
0.68135166 -0.086357653 0.036691774
0.68159759 -0.0855515 0.03668141
0.68184352 -0.084745355 0.036671046
0.68208945 -0.083939217 0.036660682
0.68233538 -0.083133072 0.036650319
0.68258131 -0.082326926 0.036639955
0.68282717 -0.081520781 0.036629591
0.6830731 -0.080714643 0.036619227
0.68331903 -0.079908498 0.036608864
0.60637218 -0.19863915 0.017652771
0.6066317 -0.19778857 0.017641835
0.60778111 -0.19714265 0.018090853
0.60804027 -0.1962931 0.018079931
0.6091888 -0.19565028 0.018529003
0.61033666 -0.19500951 0.018978087
0.61148387 -0.19437084 0.019427199
0.61263055 -0.19373423 0.019876352
0.6137765 -0.19309968 0.02032553
0.61492187 -0.19246718 0.020774722
0.61606658 -0.19183676 0.021223953
0.61721069 -0.19120844 0.021673212
0.61835414 -0.19058214 0.022122484
0.61949694 -0.18995793 0.02257178
0.62063915 -0.18933578 0.023021119
0.62089485 -0.18849759 0.023010341
0.6220361 -0.18787853 0.023459706
0.62317675 -0.18726157 0.023909111
0.62431675 -0.18664666 0.024358543
0.62545609 -0.1860338 0.024807986
0.62571049 -0.18519975 0.024797263
0.62596494 -0.1843657 0.024786539
0.62710303 -0.18375699 0.025236037
0.62735713 -0.18292397 0.025225326
0.62849426 -0.18231836 0.025674863
0.62874812 -0.18148638 0.025664167
0.62988436 -0.18088388 0.026113773
0.6301378 -0.18005294 0.02610309
0.63127309 -0.17945352 0.026552705
0.63152623 -0.1786236 0.026542036
0.63266057 -0.17802729 0.026991706
0.63291341 -0.17719841 0.02698105
0.63316625 -0.17636953 0.026970394
0.6334191 -0.17554064 0.026959738
0.63455188 -0.1749495 0.02740946
0.63480437 -0.17412165 0.027398817
0.63593626 -0.17353362 0.027848594
0.63618845 -0.17270681 0.027837966
0.63644069 -0.17187999 0.027827336
0.63757122 -0.17129609 0.028277151
0.6378231 -0.1704703 0.028266534
0.63807505 -0.16964452 0.028255917
0.63920426 -0.16906475 0.0287058
0.63945585 -0.16824 0.028695198
0.64058417 -0.16766332 0.029145105
0.64171189 -0.16708872 0.029595055
0.64196283 -0.16626602 0.029584479
0.64308965 -0.16569453 0.030034468
0.64334029 -0.16487288 0.030023905
0.64359093 -0.16405125 0.030013341
0.64384156 -0.1632296 0.030002778
0.64496672 -0.16266325 0.030452834
0.64521706 -0.16184264 0.030442284
0.64634132 -0.1612794 0.030892352
0.64659131 -0.16045982 0.030881815
0.64684135 -0.15964024 0.030871278
0.64709133 -0.15882066 0.030860741
0.64734137 -0.15800108 0.030850204
0.64759141 -0.1571815 0.030839667
0.64871341 -0.15662549 0.031289857
0.64896309 -0.15580694 0.031279333
0.64921278 -0.15498841 0.031268809
0.65033358 -0.15443654 0.031719051
0.65058297 -0.15361904 0.031708542
0.65083236 -0.15280153 0.031698029
0.65195185 -0.15225379 0.032148313
0.65220094 -0.15143731 0.032137815
0.65245003 -0.15062083 0.032127317
0.65356821 -0.15007722 0.032577667
0.653817 -0.14926177 0.032567181
0.65406573 -0.14844634 0.032556698
0.65518272 -0.14790685 0.033007085
0.65543115 -0.14709245 0.032996614
0.65654719 -0.14655608 0.033447042
0.65679532 -0.1457427 0.033436585
0.65791041 -0.14520945 0.033887066
0.65815824 -0.14439711 0.033876624
0.65840608 -0.14358476 0.033866178
0.65951985 -0.14305562 0.034316711
0.65976733 -0.14224431 0.034306284
0.66001487 -0.141433 0.034295853
0.66112739 -0.140908 0.034746423
0.66223931 -0.14038506 0.035197038
0.6624862 -0.13957582 0.035186633
0.66273308 -0.13876657 0.035176232
0.6629799 -0.13795733 0.035165828
0.66409028 -0.13743956 0.035616491
0.6643368 -0.13663135 0.035606101
0.66544628 -0.1361167 0.036056839
0.66569251 -0.13530953 0.03604646
0.66593874 -0.13450235 0.036036082
0.6670469 -0.13399182 0.036486827
0.66729277 -0.13318567 0.036476463
0.66839999 -0.13267824 0.036927275
0.66864562 -0.13187313 0.036916927
0.66889119 -0.13106802 0.036906574
0.66913682 -0.13026291 0.036896225
0.67024243 -0.12976065 0.037347089
0.6704877 -0.12895657 0.037336752
0.67073298 -0.12815249 0.037326414
0.67097831 -0.12734842 0.037316076
0.67208236 -0.12685134 0.037767038
0.67232734 -0.1260483 0.037756715
0.67343044 -0.12555429 0.038207684
0.67367512 -0.12475229 0.038197376
0.67391974 -0.12395028 0.038187064
