# .PCD v0.7 - Point Cloud Data file format
VERSION 0.7
FIELDS x y z
SIZE 4 4 4
TYPE F F F
COUNT 1 1 1
WIDTH 1406
HEIGHT 1
VIEWPOINT 0 0 0 1 0 0 0
POINTS 1406
DATA ascii
0.38555616 0.060921341 0.02417727
0.38522229 0.060498029 0.024160318
0.38488841 0.060074721 0.024143366
0.38388678 0.058804788 0.024092512
0.49189305 0.15138456 0.009424909
0.49153715 0.15093331 0.0094068386
0.49050459 0.15097974 0.0099505708
0.49014935 0.15052934 0.0099325338
0.48911881 0.15057826 0.010476356
0.48876426 0.15012871 0.010458353
0.48908362 0.14917813 0.0098784249
0.48805511 0.1492296 0.010422348
0.48702791 0.14928277 0.010966333
0.4853301 0.14984122 0.012072438
0.48430625 0.1498986 0.012616592
0.47789636 0.15261574 0.017060291
0.47754982 0.15217634 0.017042695
0.47653526 0.15224563 0.017587349
0.47552213 0.15231656 0.018132051
0.47451028 0.1523892 0.018676816
0.47416574 0.15195234 0.018659322
0.47382116 0.15151548 0.018641828
0.47347662 0.15107863 0.018624334
0.47313207 0.15064177 0.01860684
0.47212425 0.15071948 0.019151814
0.47178036 0.15028347 0.019134354
0.47143647 0.14984746 0.019116893
0.47043127 0.1499286 0.019662023
0.47008806 0.14949344 0.019644596
0.46974483 0.14905827 0.019627171
0.4694016 0.14862311 0.019609744
0.46839979 0.14870845 0.020155024
0.46805725 0.14827412 0.02013763
0.4677147 0.14783981 0.020120239
0.46737215 0.14740549 0.020102846
0.46637368 0.14749506 0.020648288
0.46603179 0.14706159 0.02063093
0.4656899 0.14662813 0.020613572
0.46534801 0.14619465 0.020596214
0.46500611 0.14576118 0.020578854
0.46466422 0.14532772 0.020561496
0.46432233 0.14489424 0.020544138
0.46398047 0.14446078 0.020526778
0.46363857 0.14402731 0.02050942
0.46329668 0.14359383 0.020492062
0.46295479 0.14316037 0.020474704
0.4626129 0.1427269 0.020457344
0.462271 0.14229342 0.020439986
0.4612819 0.14239486 0.020985896
0.46094066 0.14196223 0.020968571
0.46059945 0.1415296 0.020951247
0.46025825 0.14109698 0.020933922
0.45927244 0.14120263 0.021480016
0.45893189 0.14077085 0.021462725
0.45859134 0.14033908 0.021445435
0.45825079 0.1399073 0.021428144
0.45791024 0.13947552 0.021410853
0.45756969 0.13904375 0.021393564
0.45722914 0.13861197 0.021376273
0.45688859 0.1381802 0.021358982
0.45654804 0.13774842 0.021341691
0.45620748 0.13731664 0.0213244
0.45586693 0.13688487 0.021307109
0.45552638 0.13645309 0.021289818
0.45518583 0.13602132 0.021272527
0.45420936 0.13613886 0.021819115
0.45386946 0.13570793 0.021801857
0.4535296 0.135277 0.021784602
0.4531897 0.13484606 0.021767344
0.45284981 0.13441513 0.021750087
0.45250994 0.13398421 0.021732831
0.45217004 0.13355328 0.021715574
0.45183015 0.13312235 0.021698317
0.45149028 0.13269141 0.021681061
0.45115039 0.13226049 0.021663804
0.45018131 0.13238731 0.022210745
0.4498421 0.13195722 0.022193521
0.44950289 0.13152714 0.022176299
0.44916365 0.13109706 0.022159075
0.44882444 0.13066697 0.022141853
0.44848523 0.13023689 0.022124629
0.44814602 0.12980682 0.022107407
0.44780681 0.12937672 0.022090184
0.44746757 0.12894665 0.022072962
0.44712836 0.12851655 0.022055738
0.44678915 0.12808648 0.022038516
0.44644994 0.1276564 0.022021292
0.4461107 0.12722631 0.02200407
0.44577149 0.12679623 0.021986848
0.44543228 0.12636615 0.021969624
0.44509307 0.12593606 0.021952402
0.44413534 0.12607728 0.022499911
0.44379678 0.12564804 0.022482723
0.44284105 0.12579179 0.023030341
0.44250315 0.12536339 0.023013186
0.44216529 0.124935 0.022996031
0.44182739 0.12450662 0.022978876
0.44148952 0.12407822 0.022961721
0.44115165 0.12364984 0.022944566
0.44020054 0.12379955 0.023492441
0.43986332 0.123372 0.023475319
0.43952611 0.12294446 0.0234582
0.4391889 0.12251692 0.023441078
0.43885168 0.12208937 0.023423957
0.43851447 0.12166183 0.023406835
0.43817726 0.12123428 0.023389714
0.43784004 0.12080675 0.023372592
0.43750283 0.1203792 0.023355471
0.43716562 0.11995166 0.02333835
0.4362219 0.12011065 0.02388658
0.43527952 0.12027133 0.02443487
0.43494365 0.11984548 0.024417816
0.43460777 0.11941963 0.024400763
0.4342719 0.11899378 0.024383709
0.43393603 0.11856793 0.024366656
0.43360013 0.11814208 0.024349604
0.43326426 0.11771623 0.024332549
0.43292838 0.11729039 0.024315497
0.43259251 0.11686453 0.024298443
0.43225664 0.11643868 0.02428139
0.43192074 0.11601283 0.024264336
0.43158486 0.11558698 0.024247283
0.43124899 0.11516113 0.024230229
0.43091312 0.11473528 0.024213176
0.42998075 0.11490867 0.024761975
0.42964554 0.11448366 0.024744956
0.42931032 0.11405866 0.024727937
0.42897514 0.11363366 0.024710916
0.42804611 0.11381127 0.025259892
0.42771158 0.11338711 0.025242906
0.42737702 0.11296295 0.025225921
0.42645064 0.113144 0.025775043
0.42611676 0.11272068 0.025758091
0.42578289 0.11229737 0.025741139
0.42544901 0.11187406 0.025724187
0.42511514 0.11145075 0.025707236
0.42478126 0.11102744 0.025690285
0.42444739 0.11060413 0.025673334
0.42411351 0.11018082 0.025656382
0.42377964 0.10975751 0.02563943
0.42344576 0.10933421 0.025622478
0.42311189 0.1089109 0.025605526
0.42277801 0.10848758 0.025588576
0.42244413 0.10806427 0.025571624
0.42211026 0.10764097 0.025554672
0.42177638 0.10721765 0.02553772
0.42144251 0.10679433 0.025520768
0.42110863 0.10637103 0.025503816
0.42077476 0.10594773 0.025486864
0.42044088 0.10552441 0.025469914
0.42010701 0.1051011 0.025452962
0.41977313 0.10467779 0.02543601
0.41943926 0.10425448 0.025419058
0.41910538 0.10383117 0.025402106
0.41877151 0.10340786 0.025385154
0.41843763 0.10298455 0.025368202
0.41810375 0.10256124 0.025351252
0.41776988 0.10213793 0.0253343
0.417436 0.10171462 0.025317349
0.41710213 0.10129131 0.025300397
0.41619581 0.10149771 0.025850525
0.41586262 0.10107525 0.025833607
0.4149583 0.10128419 0.02638383
0.41462576 0.10086257 0.026366945
0.4142932 0.10044095 0.026350062
0.41396067 0.10001934 0.026333177
0.41305968 0.10023252 0.026883589
0.4127278 0.099811755 0.02686674
0.41239592 0.099390984 0.02684989
0.41206408 0.098970212 0.026833039
0.4117322 0.098549441 0.026816189
0.41140032 0.098128676 0.02679934
0.41106844 0.097707905 0.02678249
0.41073659 0.097287133 0.026765639
0.41040471 0.096866362 0.026748789
0.41007283 0.09644559 0.02673194
0.40974095 0.096024819 0.02671509
0.40940911 0.095604055 0.026698241
0.40907723 0.095183283 0.02668139
0.40874535 0.094762512 0.02666454
0.40841347 0.09434174 0.026647691
0.40752319 0.094568461 0.027198626
0.40719199 0.094148539 0.02718181
0.40686077 0.093728617 0.027164992
0.40597317 0.093958721 0.02771607
0.40564263 0.09353964 0.027699288
0.40531209 0.093120568 0.027682506
0.40498155 0.092701487 0.027665723
0.40465102 0.092282414 0.027648941
0.40432048 0.091863334 0.02763216
0.40398994 0.091444261 0.027615378
0.4036594 0.091025181 0.027598595
0.40332887 0.090606101 0.027581813
0.40299833 0.090187028 0.02756503
0.40266779 0.089767948 0.027548248
0.40233725 0.089348875 0.027531467
0.40200672 0.088929795 0.027514685
0.40167621 0.088510722 0.027497903
0.40134567 0.088091642 0.02748112
0.40101513 0.087672561 0.027464338
0.4006846 0.087253489 0.027447555
0.40035406 0.086834408 0.027430773
0.40002352 0.086415336 0.027413992
0.39969298 0.085996255 0.02739721
0.39936244 0.085577182 0.027380427
0.39903191 0.085158102 0.027363645
0.39870137 0.084739029 0.027346862
0.39837083 0.084319949 0.02733008
0.39804029 0.083900876 0.027313299
0.39770976 0.083481804 0.027296517
0.39737922 0.083062723 0.027279735
0.39704868 0.082643643 0.027262952
0.39671814 0.08222457 0.02724617
0.39638761 0.08180549 0.027229387
0.39605707 0.081386417 0.027212607
0.39572653 0.080967337 0.027195824
0.39593107 0.07987114 0.026610063
0.39559984 0.079451218 0.026593247
0.39526865 0.079031296 0.026576431
0.39493746 0.078611366 0.026559616
0.39460623 0.078191444 0.0265428
0.39427504 0.077771522 0.026525984
0.39394385 0.0773516 0.026509168
0.39361262 0.07693167 0.026492352
0.39328143 0.076511756 0.026475536
0.39295021 0.076091826 0.02645872
0.39261901 0.075671904 0.026441904
0.39228782 0.075251982 0.026425088
0.3919566 0.074832059 0.026408272
0.3916254 0.074412137 0.026391456
0.39129421 0.073992208 0.026374638
0.39096299 0.073572285 0.026357822
0.39063179 0.073152363 0.026341006
0.39082429 0.072040923 0.025754644
0.39049241 0.071620159 0.025737794
0.39016053 0.071199387 0.025720943
0.38982868 0.070778616 0.025704093
0.3894968 0.070357844 0.025687244
0.38916492 0.069937073 0.025670392
0.38883305 0.069516309 0.025653543
0.38902023 0.068398081 0.02506689
0.3886877 0.06797646 0.025050005
0.38835514 0.067554846 0.025033122
0.3880226 0.067133233 0.025016237
0.38820642 0.066010781 0.024429433
0.3878732 0.065588318 0.024412515
0.38805503 0.064463332 0.023825603
0.38772115 0.064040028 0.023808651
0.38738728 0.063616723 0.023791699
0.3870534 0.063193418 0.023774749
0.38671952 0.062770106 0.023757797
0.38638565 0.062346794 0.023740845
0.38605177 0.061923485 0.023723893
0.3857179 0.061500173 0.023706941
0.38538402 0.061076865 0.023689989
0.38505015 0.060653552 0.023673037
0.38371465 0.058960311 0.023605231
0.49167404 0.15015052 0.0083065601
0.48996621 0.15069482 0.009414074
0.48961097 0.15024441 0.0093960371
0.48925573 0.14979401 0.0093780011
0.4895741 0.14884286 0.0087970439
0.48854524 0.14889321 0.0093419272
0.48751774 0.14894521 0.0098868534
0.48649156 0.1489989 0.010431848
0.48546672 0.1490543 0.010976909
0.48444319 0.14911142 0.01152207
0.48275143 0.14967598 0.012630371
0.47803938 0.15183029 0.015973726
0.47568938 0.15291508 0.017645733
0.47534415 0.15247737 0.017628206
0.47433266 0.1525497 0.018173946
0.47398812 0.15211284 0.018156452
0.47364354 0.15167598 0.018138958
0.473299 0.15123913 0.018121464
0.47295442 0.15080227 0.018103968
0.47260988 0.15036541 0.018086474
0.4722653 0.14992855 0.01806898
0.47125918 0.15000765 0.018614992
0.47091529 0.14957164 0.018597532
0.4705714 0.14913563 0.018580072
0.47022751 0.14869963 0.018562611
0.46922466 0.14878298 0.019108817
0.46888143 0.14834782 0.01909139
0.46853822 0.14791267 0.019073965
0.46753809 0.14799938 0.019620286
0.46719554 0.14756507 0.019602895
0.46685299 0.14713074 0.019585501
0.46651042 0.14669643 0.01956811
0.46616787 0.14626211 0.019550717
0.46582532 0.1458278 0.019533325
0.46548277 0.14539348 0.019515932
0.46514019 0.14495917 0.01949854
0.46479765 0.14452484 0.019481147
0.46380419 0.14462003 0.020027803
0.46346232 0.14418656 0.020010443
0.46312043 0.1437531 0.019993085
0.46277854 0.14331962 0.019975727
0.46243665 0.14288615 0.019958369
0.46209475 0.14245269 0.01994101
0.46110597 0.14255379 0.020487903
0.46076477 0.14212117 0.020470578
0.45977801 0.14222482 0.021017577
0.46008232 0.14125593 0.020435929
0.45974112 0.1408233 0.020418603
0.45939988 0.14039068 0.020401279
0.45905867 0.13995805 0.020383954
0.45871744 0.13952543 0.02036663
0.45773467 0.13963416 0.020913834
0.45739412 0.13920239 0.020896543
0.45705357 0.13877061 0.020879252
0.45671302 0.13833883 0.020861963
0.45637247 0.13790706 0.020844672
0.45603192 0.13747528 0.020827381
0.45569137 0.13704351 0.02081009
0.45535082 0.13661173 0.020792799
0.45501027 0.13617995 0.020775508
0.45466971 0.13574818 0.020758217
0.45432916 0.1353164 0.020740928
0.45398861 0.13488463 0.020723637
0.45301449 0.13500439 0.021271294
0.4526746 0.13457346 0.021254037
0.4523347 0.13414253 0.021236779
0.45199484 0.13371161 0.021219524
0.45165494 0.13328066 0.021202266
0.45131505 0.13284974 0.021185009
0.45097518 0.13241881 0.021167753
0.45000643 0.13254532 0.021715669
0.44966722 0.13211523 0.021698445
0.44932801 0.13168515 0.021681223
0.4489888 0.13125508 0.021663999
0.44864956 0.13082498 0.021646777
0.44831035 0.13039491 0.021629555
0.44797114 0.12996481 0.021612331
0.44763193 0.12953474 0.021595109
0.44729272 0.12910466 0.021577885
0.44695348 0.12867457 0.021560663
0.44661427 0.12824449 0.021543439
0.44627506 0.12781441 0.021526217
0.44593585 0.12738432 0.021508994
0.44559661 0.12695424 0.021491772
0.4452574 0.12652417 0.021474548
0.44491819 0.12609407 0.021457326
0.44396079 0.12623498 0.022005811
0.44362223 0.12580574 0.021988623
0.44266686 0.12594917 0.022537217
0.44232896 0.12552078 0.022520062
0.4426066 0.12451803 0.021937056
0.44226804 0.12408879 0.021919867
0.44192949 0.12365956 0.021902677
0.44159096 0.12323032 0.021885488
0.44063956 0.12337884 0.022434285
0.44030169 0.12295044 0.02241713
0.43996382 0.12252206 0.022399975
0.43962592 0.12209367 0.02238282
0.43928805 0.12166528 0.022365665
0.43895015 0.12123688 0.02234851
0.43861228 0.1208085 0.022331355
0.43766621 0.12096382 0.022880442
0.43732899 0.12053628 0.022863321
0.43699178 0.12010874 0.022846201
0.43604842 0.12026741 0.023395399
0.43510637 0.12042779 0.023944663
0.4353753 0.11941402 0.023361223
0.43503878 0.11898732 0.023344137
0.43470222 0.11856063 0.023327049
0.43376285 0.11872439 0.023876451
0.43342698 0.11829854 0.023859397
0.4330911 0.11787269 0.023842344
0.43275523 0.11744684 0.02382529
0.43241936 0.11702099 0.023808237
0.43208346 0.11659513 0.023791183
0.43174759 0.11616929 0.02377413
0.43141171 0.11574344 0.023757076
0.43107584 0.11531759 0.023740023
0.43073997 0.11489174 0.023722969
0.4304041 0.11446589 0.023705916
0.42947274 0.1146398 0.024255725
0.42913753 0.11421481 0.024238706
0.42880231 0.1137898 0.024221685
0.42846709 0.1133648 0.024204666
0.42753911 0.11354294 0.024754651
0.42720455 0.11311879 0.024737665
0.42687002 0.11269464 0.024720678
0.42653546 0.11227047 0.024703693
0.42620093 0.11184632 0.024686707
0.4258664 0.11142217 0.024669722
0.424943 0.11160627 0.025219962
0.42460912 0.11118297 0.02520301
0.42427525 0.11075965 0.02518606
0.42394137 0.11033635 0.025169108
0.4236075 0.10991304 0.025152156
0.42327362 0.10948972 0.025135204
0.42293975 0.10906642 0.025118252
0.42260587 0.10864311 0.0251013
0.422272 0.10821979 0.02508435
0.42193812 0.10779648 0.025067398
0.42160425 0.10737318 0.025050446
0.42127037 0.10694986 0.025033494
0.4209365 0.10652655 0.025016543
0.42060262 0.10610324 0.024999591
0.42026874 0.10567994 0.024982639
0.41993487 0.10525662 0.024965689
0.41960102 0.10483331 0.024948737
0.41926715 0.10441 0.024931785
0.41893327 0.10398669 0.024914833
0.4185994 0.10356338 0.024897881
0.41826552 0.10314007 0.024880929
0.41793165 0.10271676 0.024863977
0.41759777 0.10229345 0.024847027
0.4172639 0.10187014 0.024830075
0.41693002 0.10144683 0.024813123
0.41602403 0.10165292 0.025364218
0.41569084 0.10123046 0.025347302
0.41478688 0.10143909 0.025898499
0.41445431 0.10101747 0.025881615
0.41412178 0.10059585 0.025864732
0.41378924 0.10017424 0.025847849
0.41288859 0.10038711 0.026399234
0.41255671 0.099966347 0.026382385
0.41222486 0.099545576 0.026365535
0.41189298 0.099124804 0.026348684
0.4115611 0.098704033 0.026331834
0.41122922 0.098283269 0.026314985
0.41089737 0.09786249 0.026298136
0.4105655 0.097441725 0.026281284
0.41023362 0.097020954 0.026264435
0.40990174 0.096600182 0.026247585
0.40956989 0.096179411 0.026230736
0.40923801 0.095758647 0.026213884
0.40890613 0.095337868 0.026197035
0.40857425 0.094917104 0.026180185
0.4082424 0.094496332 0.026163336
0.40735245 0.09472274 0.026715245
0.40702125 0.094302818 0.026698429
0.40669003 0.093882896 0.026681613
0.40580276 0.094112687 0.027233666
0.40547222 0.093693607 0.027216883
0.40514168 0.093274534 0.027200101
0.40481114 0.092855453 0.027183319
0.40448061 0.092436381 0.027166536
0.40415007 0.0920173 0.027149756
0.40381956 0.091598228 0.027132973
0.40348902 0.091179147 0.027116191
0.40315846 0.090760067 0.027099408
0.40282795 0.090340994 0.027082626
0.40249741 0.089921914 0.027065843
0.40216687 0.089502841 0.027049063
0.40183634 0.089083761 0.02703228
0.4015058 0.088664688 0.027015498
0.40117526 0.088245608 0.026998715
0.40084472 0.087826535 0.026981933
0.40051419 0.087407455 0.026965151
0.40018365 0.086988382 0.026948368
0.39985311 0.086569302 0.026931588
0.39952257 0.086150229 0.026914805
0.39919204 0.085731149 0.026898023
0.3988615 0.085312076 0.02688124
0.39853096 0.084892996 0.026864458
0.39820042 0.084473923 0.026847675
0.39786988 0.084054843 0.026830895
0.39753935 0.08363577 0.026814112
0.39720881 0.08321669 0.02679733
0.39687827 0.082797609 0.026780548
0.39654776 0.082378536 0.026763765
0.39621723 0.081959456 0.026746983
0.39588669 0.081540383 0.026730202
0.39555615 0.081121303 0.02671342
0.3957603 0.080025412 0.026126683
0.3954291 0.079605497 0.026109867
0.39509791 0.079185575 0.026093051
0.39476669 0.078765646 0.026076235
0.3944355 0.078345723 0.026059419
0.3941043 0.077925801 0.026042603
0.39377308 0.077505879 0.026025787
0.39344189 0.077085949 0.026008971
0.39311069 0.076666027 0.025992155
0.39277947 0.076246105 0.025975339
0.39244828 0.075826183 0.025958523
0.39211708 0.075406261 0.025941707
0.39178586 0.074986339 0.025924891
0.39145467 0.074566416 0.025908075
0.39112344 0.074146487 0.025891259
0.39079225 0.073726565 0.025874443
0.39046106 0.073306642 0.025857627
0.39065319 0.072195515 0.025270289
0.39032134 0.071774751 0.025253437
0.38998947 0.071353972 0.025236588
0.38965759 0.070933208 0.025219738
0.38932571 0.070512436 0.025202889
0.38899383 0.070091665 0.025186038
0.38918135 0.068974599 0.024598442
0.38884881 0.068552986 0.024581559
0.38851625 0.068131365 0.024564674
0.38818371 0.067709744 0.024547791
0.38836786 0.066588461 0.023960045
0.38803464 0.066165999 0.023943128
0.38770145 0.065743536 0.02392621
0.38788289 0.064618856 0.023338329
0.38754901 0.064195544 0.023321377
0.38721517 0.063772246 0.023304425
0.38688129 0.063348934 0.023287473
0.38654742 0.062925629 0.023270521
0.38621354 0.062502317 0.023253571
0.38587967 0.062079005 0.023236619
0.38554579 0.061655696 0.023219667
0.38521191 0.061232384 0.023202715
0.38487804 0.060809076 0.023185764
0.38454416 0.060385764 0.023168812
0.49491242 0.1492395 0.005567654
0.49351797 0.14882559 0.0060949405
0.49113363 0.14986454 0.0077680387
0.49010247 0.14991115 0.0083137425
0.48974654 0.1494599 0.008295672
0.48939064 0.14900865 0.0082776016
0.48903471 0.14855739 0.0082595311
0.48800686 0.14860828 0.008805424
0.48698038 0.14866082 0.0093513653
0.48595521 0.14871505 0.0098973615
0.48493138 0.14877097 0.010443432
0.48323962 0.14933412 0.011553669
0.48155054 0.1499006 0.012664023
0.47719249 0.1524992 0.016031101
0.47617865 0.15256786 0.016577708
0.47449958 0.15314706 0.017688563
0.47415504 0.1527102 0.017671069
0.47381046 0.15227334 0.017653575
0.47346592 0.15183648 0.017636079
0.47312135 0.15139963 0.017618585
0.4727768 0.15096277 0.017601091
0.47243223 0.15052591 0.017583597
0.47208768 0.15008906 0.017566103
0.47174314 0.1496522 0.01754861
0.47139856 0.14921534 0.017531116
0.4703941 0.14929582 0.018078176
0.47005022 0.14885981 0.018060716
0.46970633 0.14842381 0.018043255
0.46936244 0.1479878 0.018025795
0.46836129 0.14807254 0.018573044
0.46801805 0.14763738 0.018555617
0.46701893 0.14772463 0.019102942
0.46667638 0.14729032 0.019085551
0.46633384 0.146856 0.019068157
0.46599126 0.14642169 0.019050766
0.46564871 0.14598736 0.019033372
0.46530616 0.14555305 0.019015981
0.46496361 0.14511873 0.018998588
0.46462104 0.14468442 0.018981196
0.46427849 0.14425009 0.018963804
0.46393594 0.14381579 0.018946411
0.46359339 0.14338146 0.01892902
0.46325082 0.14294715 0.018911626
0.4622604 0.14304541 0.019459393
0.4619185 0.14261194 0.019442033
0.46157661 0.14217848 0.019424675
0.46123472 0.141745 0.019407317
0.46024764 0.14184749 0.019955251
0.45990643 0.14141487 0.019937927
0.45956519 0.14098224 0.019920602
0.45922399 0.14054963 0.019903278
0.45888275 0.140117 0.019885954
0.45854154 0.13968438 0.019868629
0.45820031 0.13925175 0.019851305
0.4578591 0.13881913 0.01983398
0.45687801 0.13892925 0.020382227
0.45653746 0.13849747 0.020364936
0.4561969 0.1380657 0.020347646
0.45585635 0.13763392 0.020330355
0.4555158 0.13720214 0.020313064
0.45517525 0.13677035 0.020295773
0.4548347 0.13633859 0.020278484
0.45449415 0.1359068 0.020261193
0.45351902 0.13602456 0.020809757
0.45317915 0.13559364 0.020792499
0.45283926 0.13516271 0.020775242
0.45249936 0.13473178 0.020757986
0.45215949 0.13430086 0.020740729
0.4518196 0.13386993 0.020723471
0.45147973 0.13343899 0.020706216
0.45113984 0.13300806 0.020688958
0.45079994 0.13257714 0.020671701
0.45046008 0.13214621 0.020654446
0.45012018 0.13171528 0.020637188
0.44978029 0.13128434 0.020619931
0.44944042 0.13085341 0.020602675
0.44910052 0.13042249 0.020585418
0.44813547 0.13055292 0.021134479
0.44779626 0.13012283 0.021117255
0.44745705 0.12969275 0.021100033
0.44711784 0.12926267 0.021082811
0.4467786 0.12883258 0.021065587
0.44643939 0.1284025 0.021048365
0.44610018 0.12797242 0.021031141
0.44576097 0.12754233 0.021013919
0.44542176 0.12711225 0.020996695
0.44508252 0.12668218 0.020979473
0.44474331 0.12625208 0.020962249
0.44378626 0.12639268 0.021511711
0.44344771 0.12596343 0.021494523
0.44310915 0.12553421 0.021477332
0.4427706 0.12510496 0.021460144
0.44243208 0.12467573 0.021442955
0.44209352 0.12424649 0.021425767
0.44175497 0.12381726 0.021408577
0.44141641 0.12338802 0.021391388
0.44046539 0.12353622 0.021941161
0.44012749 0.12310784 0.021924006
0.43978962 0.12267944 0.021906851
0.43945172 0.12225106 0.021889696
0.43911386 0.12182266 0.021872541
0.43877599 0.12139428 0.021855386
0.43843809 0.12096588 0.021838231
0.43810022 0.1205375 0.021821074
0.43715513 0.12069336 0.022371165
0.43681791 0.12026582 0.022354044
0.4364807 0.11983828 0.022336923
0.43553835 0.11999749 0.022887137
0.43520182 0.11957079 0.022870049
0.43486527 0.11914409 0.022852961
0.43452874 0.11871739 0.022835875
0.43419218 0.1182907 0.022818787
0.43325382 0.11845499 0.023369197
0.43291795 0.11802915 0.023352144
0.43258208 0.11760329 0.02333509
0.43224621 0.11717744 0.023318037
0.43191031 0.11675159 0.023300983
0.43157443 0.11632574 0.02328393
0.43123856 0.11589989 0.023266878
0.43090269 0.11547405 0.023249824
0.43056682 0.11504819 0.023232771
0.43023092 0.11462235 0.023215717
0.42989504 0.11419649 0.023198664
0.4289647 0.11437095 0.023749474
0.42862952 0.11394595 0.023732454
0.4282943 0.11352094 0.023715435
0.42795908 0.11309594 0.023698416
0.42703208 0.11327463 0.024249408
0.42669755 0.11285046 0.024232423
0.42636299 0.11242631 0.024215437
0.42602846 0.11200215 0.024198452
0.42569393 0.111578 0.024181467
0.42477089 0.11176179 0.024732681
0.42443702 0.11133849 0.024715731
0.42410314 0.11091518 0.024698779
0.42376927 0.11049187 0.024681827
0.42343539 0.11006856 0.024664875
0.42310151 0.10964525 0.024647923
0.42276764 0.10922194 0.024630971
0.42243376 0.10879863 0.024614021
0.42209989 0.10837532 0.024597069
0.42176601 0.10795201 0.024580117
0.42143214 0.1075287 0.024563165
0.42109826 0.10710538 0.024546213
0.42076439 0.10668208 0.024529262
0.42043051 0.10625876 0.02451231
0.42009664 0.10583546 0.02449536
0.41976276 0.10541215 0.024478408
0.41942888 0.10498884 0.024461456
0.41909501 0.10456552 0.024444504
0.41876113 0.10414221 0.024427552
0.41842726 0.10371891 0.0244106
0.41809338 0.10329559 0.024393648
0.41775951 0.10287228 0.024376698
0.41742563 0.10244897 0.024359746
0.41709176 0.10202567 0.024342794
0.41675788 0.10160235 0.024325842
0.41585225 0.10180813 0.024877921
0.41551906 0.10138567 0.024861002
0.41461542 0.10159399 0.025413169
0.41428289 0.10117237 0.025396286
0.41395035 0.10075075 0.025379401
0.41361782 0.10032914 0.025362518
0.41328526 0.099907525 0.025345633
0.41295272 0.099485904 0.02532875
0.41262019 0.099064283 0.025311865
0.41228765 0.09864267 0.025294982
0.41139001 0.098858625 0.02584748
0.41105816 0.098437853 0.02583063
0.41072628 0.098017082 0.025813779
0.4103944 0.09759631 0.025796929
0.41006252 0.097175546 0.02578008
0.40973064 0.096754767 0.02576323
0.40939879 0.096334003 0.025746381
0.40906692 0.095913231 0.02572953
0.40873504 0.09549246 0.02571268
0.40840316 0.095071688 0.025695831
0.40807131 0.094650924 0.025678981
0.40718171 0.09487702 0.026231864
0.40685049 0.094457097 0.02621505
0.40651929 0.094037168 0.026198233
0.40563235 0.094266653 0.026751254
0.40530181 0.09384758 0.026734471
0.4049713 0.0934285 0.026717691
0.40464073 0.093009427 0.026700908
0.40431023 0.092590347 0.026684126
0.40397969 0.092171274 0.026667343
0.40364915 0.091752201 0.026650561
0.40331861 0.091333121 0.026633779
0.40298808 0.090914041 0.026616996
0.40265754 0.090494968 0.026600216
0.402327 0.090075888 0.026583433
0.40199646 0.089656815 0.026566651
0.40166593 0.089237735 0.026549868
0.40133539 0.088818662 0.026533086
0.40100485 0.088399582 0.026516303
0.40067431 0.087980501 0.026499521
0.40034378 0.087561429 0.02648274
0.40001324 0.087142348 0.026465958
0.3996827 0.086723275 0.026449176
0.39935216 0.086304195 0.026432393
0.39902163 0.085885115 0.026415611
0.39869109 0.085466042 0.026398828
0.39836055 0.085046962 0.026382048
0.39803004 0.084627889 0.026365265
0.39769951 0.084208809 0.026348483
0.39736897 0.083789736 0.0263317
0.39703843 0.083370656 0.026314918
0.39670789 0.082951576 0.026298136
0.39637735 0.082532503 0.026281355
0.39604682 0.082113422 0.026264573
0.39571628 0.08169435 0.02624779
0.39538574 0.081275269 0.026231008
0.39558956 0.080179691 0.025643304
0.39525837 0.079759777 0.025626488
0.39492717 0.079339854 0.025609672
0.39459595 0.078919925 0.025592856
0.39426476 0.078500003 0.02557604
0.39393353 0.07808008 0.025559224
0.39360234 0.077660158 0.025542408
0.39327115 0.077240229 0.025525592
0.39293993 0.076820306 0.025508776
0.39260873 0.076400384 0.02549196
0.39227754 0.075980462 0.025475144
0.39194632 0.07556054 0.025458328
0.39161512 0.07514061 0.025441511
0.39128393 0.074720696 0.025424695
0.39095271 0.074300766 0.025407879
0.39062151 0.073880844 0.025391063
0.39029029 0.073460922 0.025374247
0.3904821 0.072350107 0.024785934
0.39015025 0.071929336 0.024769083
0.38981837 0.071508564 0.024752233
0.38948649 0.071087793 0.024735384
0.38915461 0.070667028 0.024718534
0.38882276 0.070246249 0.024701683
0.38900989 0.069129497 0.024113113
0.38867736 0.068707883 0.024096228
0.38834482 0.068286262 0.024079345
0.38801229 0.067864649 0.02406246
0.38819608 0.066743672 0.023473747
0.38786286 0.066321209 0.023456829
0.38804466 0.065197699 0.022868
0.38771078 0.064774379 0.022851048
0.3873769 0.064351067 0.022834096
0.38704303 0.06392777 0.022817144
0.38722152 0.062799983 0.022228127
0.38637528 0.063081153 0.022783242
0.3860414 0.062657841 0.02276629
0.38570753 0.062234528 0.022749338
0.38537365 0.06181122 0.022732386
0.38503978 0.061387908 0.022715434
0.3847059 0.060964599 0.022698482
0.38437203 0.060541287 0.022681532
0.38370427 0.059694666 0.022647629
0.49297452 0.14853798 0.0055533978
0.49059322 0.14957854 0.0072295233
0.49023664 0.14912644 0.0072114188
0.48988006 0.14867434 0.0071933148
0.48952347 0.14822225 0.0071752104
0.48849532 0.14827193 0.0077220188
0.48746848 0.14832336 0.0082689207
0.48577276 0.1488799 0.0093808454
0.48474929 0.14893553 0.0099278912
0.4837271 0.14899287 0.01047503
0.48203805 0.14955787 0.0115873
0.47498819 0.152799 0.016620507
0.47331184 0.1533801 0.017733423
0.47296795 0.15294409 0.017715963
0.4732883 0.15199699 0.01713321
0.47294372 0.15156013 0.017115716
0.47259918 0.15112327 0.017098222
0.4722546 0.15068641 0.017080728
0.47191006 0.15024956 0.017063234
0.47156549 0.1498127 0.01704574
0.47122094 0.14937584 0.017028244
0.47087637 0.14893898 0.01701075
0.47053182 0.14850214 0.016993256
0.46952903 0.14858399 0.01754136
0.46918514 0.14814799 0.0175239
0.46884125 0.14771198 0.017506439
0.46784112 0.14779726 0.01805469
0.46749789 0.1473621 0.018037265
0.46715465 0.14692692 0.018019838
0.46615723 0.14701556 0.018568214
0.46581468 0.14658125 0.018550821
0.46547213 0.14614692 0.018533429
0.46512955 0.14571261 0.018516036
0.46478701 0.1452783 0.018498644
0.46444446 0.14484398 0.018481251
0.46410191 0.14440967 0.018463859
0.46375933 0.14397535 0.018446466
0.46341679 0.14354104 0.018429074
0.46307424 0.14310671 0.018411681
0.46273169 0.1426724 0.01839429
0.46174225 0.1427712 0.018943056
0.46140036 0.14233772 0.018925698
0.46105847 0.14190426 0.01890834
0.46071658 0.14147079 0.018890982
0.45973051 0.14157382 0.019439926
0.4593893 0.14114119 0.019422602
0.45904806 0.14070857 0.019405277
0.45870686 0.14027594 0.019387953
0.45836562 0.13984333 0.019370629
0.45802441 0.1394107 0.019353304
0.45768318 0.13897808 0.019335978
0.45734197 0.13854545 0.019318653
0.45700076 0.13811283 0.019301329
0.45665953 0.1376802 0.019284004
0.45568079 0.13779254 0.019833328
0.45534024 0.13736077 0.019816037
0.45499969 0.13692899 0.019798748
0.45465913 0.13649721 0.019781457
0.45431858 0.13606544 0.019764166
0.45334381 0.13618289 0.020313706
0.45300391 0.13575196 0.020296449
0.45266405 0.13532104 0.020279191
0.45232415 0.13489011 0.020261936
0.45198426 0.13445918 0.020244678
0.45164439 0.13402824 0.020227421
0.4513045 0.13359731 0.020210166
0.45096463 0.13316639 0.020192908
0.45062473 0.13273546 0.020175651
0.45028484 0.13230453 0.020158395
0.44994497 0.13187359 0.020141138
0.44960508 0.13144267 0.02012388
0.44926518 0.13101174 0.020106625
0.44892532 0.13058081 0.020089367
0.44858542 0.13014989 0.02007211
0.44762138 0.13028084 0.020622181
0.44728217 0.12985076 0.020604957
0.44694296 0.12942068 0.020587735
0.44660375 0.12899059 0.020570511
0.44626451 0.12856051 0.020553289
0.4459253 0.12813044 0.020536065
0.44558609 0.12770034 0.020518843
0.44524688 0.12727027 0.020501621
0.44490764 0.12684017 0.020484397
0.44456843 0.1264101 0.020467175
0.44422922 0.12598002 0.020449951
0.44389001 0.12554993 0.020432729
0.44355077 0.12511985 0.020415505
0.44321156 0.12468977 0.020398283
0.44287235 0.12425968 0.020381059
0.441919 0.12440419 0.020931665
0.44158044 0.12397496 0.020914476
0.44124189 0.12354572 0.020897288
0.4402912 0.12369362 0.021448029
0.4399533 0.12326522 0.021430874
0.43961543 0.12283684 0.021413719
0.43927756 0.12240845 0.021396564
0.43893966 0.12198006 0.021379409
0.43860179 0.12155166 0.021362253
0.43826389 0.12112328 0.021345098
0.43792602 0.12069488 0.021327943
0.43698129 0.12085044 0.021879015
0.43664408 0.12042289 0.021861894
0.43630686 0.11999535 0.021844773
0.43596965 0.1195678 0.021827651
0.43563244 0.11914027 0.02181053
0.43469176 0.11930086 0.02236178
0.43435523 0.11887416 0.022344694
0.43401867 0.11844747 0.022327606
0.43368214 0.11802077 0.022310518
0.4327448 0.1181856 0.022861937
0.43240893 0.11775975 0.022844885
0.43207303 0.1173339 0.02282783
0.43173715 0.11690805 0.022810778
0.43140128 0.1164822 0.022793723
0.43106541 0.11605635 0.022776671
0.43072954 0.1156305 0.022759618
0.43039364 0.11520465 0.022742564
0.43005776 0.1147788 0.022725511
0.42972189 0.11435295 0.022708457
0.42879191 0.11452709 0.023260249
0.42845669 0.1141021 0.02324323
0.42812148 0.11367708 0.023226211
0.42778626 0.11325209 0.023209192
0.42685962 0.11343046 0.023761153
0.42652509 0.1130063 0.023744168
0.42619053 0.11258215 0.023727182
0.42585599 0.11215799 0.023710197
0.42552146 0.11173384 0.023693211
0.42459875 0.11191732 0.024245402
0.42426488 0.11149401 0.02422845
0.423931 0.1110707 0.024211498
0.42359713 0.1106474 0.024194546
0.42326325 0.11022408 0.024177594
0.42292938 0.10980077 0.024160644
0.4225955 0.10937747 0.024143692
0.42226163 0.10895415 0.02412674
0.42192775 0.10853084 0.024109788
0.42159387 0.10810753 0.024092836
0.42126 0.10768422 0.024075884
0.42092612 0.10726091 0.024058932
0.42059228 0.1068376 0.024041982
0.4202584 0.10641429 0.02402503
0.41992453 0.10599098 0.024008079
0.41959065 0.10556767 0.023991127
0.41925678 0.10514436 0.023974175
0.4189229 0.10472105 0.023957223
0.41858903 0.10429773 0.023940271
0.41825515 0.10387443 0.023923321
0.41792127 0.10345112 0.023906369
0.4175874 0.10302781 0.023889417
0.41725352 0.10260449 0.023872465
0.41691965 0.10218119 0.023855513
0.41658577 0.10175788 0.023838561
0.4156805 0.10196335 0.024391616
0.41534728 0.10154089 0.024374697
0.414444 0.10174889 0.02492784
0.41411147 0.10132727 0.024910955
0.4137789 0.10090566 0.024894072
0.41344637 0.10048404 0.024877187
0.41311383 0.10006242 0.024860304
0.4127813 0.099640809 0.024843419
0.41244876 0.099219188 0.024826536
0.41211623 0.098797567 0.024809651
0.41178367 0.098375954 0.024792768
0.41088706 0.098592445 0.025346275
0.41055518 0.098171674 0.025329424
0.41022331 0.097750902 0.025312575
0.40989143 0.097330131 0.025295725
0.40955958 0.096909359 0.025278876
0.4092277 0.096488595 0.025262024
0.40889582 0.096067823 0.025245175
0.40856394 0.095647052 0.025228325
0.40823209 0.09522628 0.025211476
0.40790021 0.094805509 0.025194624
0.40701094 0.095031299 0.025748478
0.40667975 0.094611377 0.025731662
0.40634856 0.094191454 0.025714846
0.40546197 0.094420627 0.026268849
0.40513143 0.094001547 0.026252067
0.40480089 0.093582474 0.026235286
0.40447035 0.093163393 0.026218504
0.40413982 0.092744321 0.026201721
0.40380928 0.09232524 0.026184939
0.40347874 0.091906168 0.026168156
0.4031482 0.091487087 0.026151374
0.40281767 0.091068007 0.026134592
0.40248713 0.090648934 0.026117811
0.40215659 0.090229854 0.026101029
0.40182605 0.089810781 0.026084246
0.40149552 0.089391701 0.026067464
0.40116498 0.088972628 0.026050681
0.40083444 0.088553548 0.026033899
0.4005039 0.088134468 0.026017118
0.4001734 0.087715395 0.026000336
0.39984286 0.087296315 0.025983553
0.39951232 0.086877242 0.025966771
0.39918178 0.086458161 0.025949989
0.39885125 0.086039081 0.025933206
0.39852071 0.085620008 0.025916426
0.39819017 0.085200928 0.025899643
0.39785963 0.084781855 0.025882861
0.3975291 0.084362775 0.025866078
0.39719856 0.083943702 0.025849296
0.39686802 0.083524622 0.025832513
0.39653748 0.083105542 0.025815731
0.39620695 0.082686469 0.02579895
0.39587641 0.082267389 0.025782168
0.39554587 0.081848316 0.025765385
0.39521533 0.081429236 0.025748603
0.39541882 0.080333978 0.025159918
0.39508763 0.079914056 0.025143102
0.39475641 0.079494134 0.025126286
0.39442521 0.079074204 0.02510947
0.39409399 0.078654282 0.025092654
0.3937628 0.07823436 0.025075838
0.3934316 0.077814437 0.025059022
0.39310038 0.077394508 0.025042204
0.39276919 0.076974593 0.025025388
0.39243799 0.076554663 0.025008572
0.39210677 0.076134741 0.024991756
0.39177558 0.075714819 0.02497494
0.39144439 0.075294897 0.024958124
0.39111316 0.074874975 0.024941308
0.39078197 0.074455045 0.024924492
0.39045078 0.074035123 0.024907677
0.39011955 0.073615201 0.024890861
0.39031103 0.072504692 0.024301577
0.38997915 0.072083928 0.024284728
0.38964728 0.071663156 0.024267878
0.3893154 0.071242385 0.024251029
0.38898355 0.070821613 0.024234179
0.38865167 0.070400842 0.024217328
0.38883847 0.069284402 0.023627782
0.38850594 0.068862788 0.023610899
0.3881734 0.06844116 0.023594014
0.38835749 0.067321345 0.023004359
0.3880243 0.066898882 0.022987442
0.38769108 0.06647642 0.022970524
0.38787255 0.065353222 0.022380719
0.38753864 0.064929903 0.022363767
0.38720477 0.06450659 0.022346815
0.38687092 0.064083293 0.022329865
0.38704905 0.062955819 0.02173987
0.38620317 0.063236676 0.022295961
0.38586929 0.062813364 0.022279009
0.38553542 0.062390052 0.022262057
0.38520154 0.061966743 0.022245105
0.38486767 0.061543431 0.022228153
0.38453379 0.061120123 0.022211203
0.49278966 0.14870501 0.0050300616
0.49139926 0.14829467 0.0055594291
0.49036878 0.14834066 0.0061070835
0.49001154 0.14788772 0.0060889455
0.48898306 0.14793625 0.0066366885
0.48795593 0.14798647 0.0071845129
0.48760003 0.14753523 0.0071664425
0.48724413 0.14708398 0.007148372
0.4848825 0.14814734 0.0088283913
0.48452857 0.14769864 0.0088104224
0.47648859 0.15238267 0.015001914
0.47614202 0.15194328 0.014984318
0.47279066 0.15310428 0.01721406
0.47311065 0.15215749 0.016630339
0.4727661 0.15172063 0.016612845
0.47242153 0.15128377 0.016595351
0.47207698 0.15084691 0.016577857
0.47173241 0.15041006 0.016560363
0.47138786 0.1499732 0.016542869
0.47104332 0.14953634 0.016525375
0.47069874 0.14909948 0.016507881
0.4703542 0.14866263 0.016490387
0.47000962 0.14822578 0.016472893
0.46900785 0.14830817 0.017021999
0.46866396 0.14787216 0.017004538
0.46832007 0.14743616 0.016987078
0.46732095 0.14752197 0.017536344
0.46697772 0.14708681 0.017518919
0.46663451 0.14665164 0.017501492
0.46629128 0.14621648 0.017484065
0.46529552 0.1463065 0.018033477
0.46495298 0.14587218 0.018016085
0.4646104 0.14543787 0.017998692
0.46426785 0.14500354 0.0179813
0.4639253 0.14456923 0.017963907
0.46358275 0.14413492 0.017946515
0.46324018 0.1437006 0.017929122
0.46289763 0.14326629 0.01791173
0.46255508 0.14283197 0.017894337
0.46221253 0.14239766 0.017876945
0.46122411 0.14249699 0.018426729
0.46088222 0.14206351 0.018409371
0.46054032 0.14163004 0.018392012
0.46019846 0.14119658 0.018374654
0.45985657 0.1407631 0.018357296
0.45887217 0.14086752 0.018907275
0.45853093 0.14043489 0.018889951
0.45818973 0.14000227 0.018872626
0.45784849 0.13956964 0.018855302
0.45750728 0.13913703 0.018837977
0.45716605 0.1387044 0.018820653
0.45682484 0.13827178 0.018803328
0.45648363 0.13783915 0.018786004
0.4561424 0.13740653 0.018768679
0.45516467 0.1375194 0.019319013
0.45482412 0.13708763 0.019301722
0.45448357 0.13665585 0.019284431
0.45414302 0.13622408 0.01926714
0.45380247 0.1357923 0.019249849
0.45282871 0.13591029 0.019800398
0.45248881 0.13547936 0.019783141
0.45214894 0.13504843 0.019765884
0.45180905 0.13461749 0.019748628
0.45146915 0.13418657 0.019731371
0.45112929 0.13375564 0.019714113
0.45078939 0.13332471 0.019696858
0.4504495 0.13289379 0.0196796
0.45010963 0.13246284 0.019662343
0.44976974 0.13203192 0.019645087
0.44942987 0.13160099 0.01962783
0.44908997 0.13117006 0.019610573
0.44875008 0.13073914 0.019593317
0.44841021 0.13030821 0.01957606
0.4474465 0.13043885 0.020127105
0.44710729 0.13000877 0.020109883
0.44676808 0.12957869 0.020092659
0.44642887 0.1291486 0.020075437
0.44608963 0.12871853 0.020058213
0.44575042 0.12828843 0.020040991
0.44541121 0.12785836 0.020023767
0.445072 0.12742828 0.020006545
0.44473279 0.12699819 0.019989321
0.44439355 0.12656811 0.019972099
0.44405434 0.12613803 0.019954877
0.44371513 0.12570794 0.019937653
0.44337592 0.12527786 0.019920431
0.44303668 0.12484778 0.019903207
0.44269747 0.12441769 0.019885985
0.44235826 0.12398761 0.019868761
0.44140589 0.12413266 0.020420369
0.44106737 0.12370342 0.02040318
0.44072881 0.12327418 0.020385992
0.43977913 0.12342262 0.020937748
0.43944123 0.12299422 0.020920593
0.43910336 0.12256584 0.020903438
0.43876547 0.12213744 0.020886283
0.4384276 0.12170906 0.020869128
0.43808973 0.12128066 0.020851973
0.43775183 0.12085228 0.020834818
0.43741396 0.12042388 0.020817664
0.43707606 0.1199955 0.020800509
0.43613303 0.12015243 0.021352615
0.43579581 0.11972488 0.021335496
0.4354586 0.11929734 0.021318374
0.43512139 0.1188698 0.021301253
0.43418172 0.11903093 0.021853518
0.43384519 0.11860424 0.021836432
0.43350863 0.11817754 0.021819344
0.43317208 0.11775084 0.021802256
0.43223578 0.11791621 0.022354677
0.43189988 0.11749036 0.022337625
0.431564 0.11706451 0.02232057
0.43122813 0.11663866 0.022303518
0.43089226 0.11621281 0.022286465
0.43055639 0.11578695 0.022269411
0.43022048 0.11536111 0.022252358
0.42988461 0.11493526 0.022235304
0.42954874 0.11450941 0.022218252
0.42861909 0.11468324 0.022771019
0.42828387 0.11425824 0.022753999
0.42794868 0.11383323 0.02273698
0.42761347 0.11340823 0.022719961
0.42727825 0.11298323 0.022702942
0.42635262 0.11316214 0.023255918
0.42601806 0.11273798 0.023238933
0.42568353 0.11231382 0.023221947
0.425349 0.11188967 0.023204962
0.42501444 0.11146551 0.023187976
0.42409277 0.11164954 0.023741169
0.42375889 0.11122622 0.023724217
0.42342502 0.11080292 0.023707265
0.42309114 0.11037961 0.023690315
0.42275727 0.10995629 0.023673363
0.42242339 0.10953299 0.023656411
0.42208952 0.10910968 0.023639459
0.42175564 0.10868637 0.023622507
0.42142177 0.10826305 0.023605555
0.42108789 0.10783975 0.023588603
0.42075402 0.10741643 0.023571651
0.42042014 0.10699312 0.023554701
0.42008626 0.10656981 0.023537749
0.41975239 0.10614651 0.023520797
0.41941851 0.10572319 0.023503846
0.41908464 0.10529988 0.023486894
0.41875076 0.10487657 0.023469942
0.41841689 0.10445326 0.023452992
0.41808301 0.10402995 0.02343604
0.41774914 0.10360664 0.023419088
0.41741526 0.10318333 0.023402136
0.41708139 0.10276002 0.023385184
0.41674751 0.10233671 0.023368232
0.41641364 0.1019134 0.02335128
0.41550872 0.10211856 0.023905309
0.4151755 0.1016961 0.023888392
0.41427255 0.1019038 0.024442509
0.41394001 0.10148217 0.024425624
0.41360748 0.10106055 0.024408741
0.41327494 0.10063894 0.024391858
0.41294241 0.10021733 0.024374973
0.41260988 0.099795707 0.02435809
0.41227731 0.099374086 0.024341205
0.41194478 0.098952472 0.024324322
0.41161224 0.098530859 0.024307437
0.41071597 0.098747037 0.024861921
0.41038409 0.098326258 0.024845069
0.41005221 0.097905494 0.02482822
0.40972036 0.097484723 0.02481137
0.40938848 0.097063951 0.024794521
0.4090566 0.09664318 0.024777669
0.40872473 0.096222416 0.02476082
0.40839288 0.095801637 0.02474397
0.408061 0.095380872 0.024727121
0.40772912 0.094960101 0.02471027
0.40684021 0.095185578 0.025265099
0.40650901 0.094765656 0.025248284
0.40617779 0.094345734 0.025231468
0.4058466 0.093925811 0.025214652
0.40496102 0.094155513 0.025769662
0.40463048 0.09373644 0.025752882
0.40429994 0.09331736 0.025736099
0.40396941 0.092898287 0.025719317
0.40363887 0.092479207 0.025702534
0.40330833 0.092060134 0.025685752
0.40297779 0.091641054 0.025668969
0.40264726 0.091221973 0.025652187
0.40231675 0.0908029 0.025635406
0.40198618 0.09038382 0.025618624
0.40165567 0.089964747 0.025601842
0.40132514 0.089545667 0.025585059
0.4009946 0.089126594 0.025568277
0.40066406 0.088707514 0.025551494
0.40033352 0.088288434 0.025534714
0.40000299 0.087869361 0.025517931
0.39967245 0.087450281 0.025501149
0.39934191 0.087031208 0.025484366
0.39901137 0.086612128 0.025467584
0.39868084 0.086193047 0.025450801
0.3983503 0.085773975 0.025434021
0.39801976 0.085354894 0.025417238
0.39768922 0.084935822 0.025400456
0.39735869 0.084516741 0.025383674
0.39702815 0.084097669 0.025366891
0.39669761 0.083678588 0.025350109
0.39636707 0.083259515 0.025333326
0.39603654 0.082840435 0.025316546
0.395706 0.082421362 0.025299763
0.39537549 0.082002282 0.025282981
0.39504495 0.081583209 0.025266198
0.39524809 0.08048825 0.024676537
0.39491686 0.080068335 0.024659721
0.39458567 0.079648413 0.024642905
0.39425448 0.079228483 0.024626089
0.39392325 0.078808561 0.024609273
0.39359206 0.078388639 0.024592457
0.39326087 0.077968717 0.024575641
0.39292964 0.077548787 0.024558825
0.39259845 0.077128865 0.024542009
0.39226723 0.076708943 0.024525193
0.39193603 0.07628902 0.024508378
0.39160484 0.075869098 0.024491562
0.39127362 0.075449176 0.024474746
0.39094242 0.075029254 0.02445793
0.39061123 0.074609324 0.024441114
0.39028001 0.074189402 0.024424298
0.38994882 0.07376948 0.024407482
0.39013994 0.072659284 0.023817223
0.38980806 0.07223852 0.023800373
0.38947618 0.071817741 0.023783524
0.38914433 0.071396977 0.023766674
0.38881245 0.070976205 0.023749823
0.38899958 0.06986092 0.023159336
0.38866705 0.069439299 0.023142451
0.38833448 0.069017686 0.023125568
0.38851893 0.067899019 0.022534972
0.38818574 0.067476556 0.022518054
0.38785252 0.067054093 0.022501135
0.38803428 0.06593205 0.02191039
0.38770041 0.065508746 0.021893438
0.38736653 0.065085426 0.021876486
0.38754568 0.063959964 0.021285594
0.38721114 0.063535802 0.021268608
0.38687658 0.063111648 0.021251623
0.38603103 0.0633922 0.02180868
0.38569716 0.062968887 0.021791728
0.38536328 0.062545575 0.021774776
0.38502941 0.062122267 0.021757826
0.38469553 0.061698955 0.021740874
0.49049893 0.14755382 0.0050007235
0.48947012 0.14760119 0.0055494145
0.48844266 0.14765026 0.0060981666
0.48741654 0.14770101 0.0066470001
0.48639172 0.14775351 0.0071959132
0.48470005 0.1483122 0.0083118742
0.48434612 0.14786349 0.0082939053
0.4739418 0.15224521 0.015577761
0.47359657 0.1518075 0.015560233
0.47325134 0.15136981 0.015542705
0.47290611 0.1509321 0.015525176
0.47256088 0.1504944 0.015507649
0.47221565 0.15005669 0.01549012
0.47187042 0.149619 0.015472593
0.47152519 0.14918129 0.015455064
0.47052112 0.14925998 0.016005004
0.47017655 0.14882314 0.01598751
0.469832 0.14838628 0.015970016
0.46948743 0.14794943 0.015952522
0.46914288 0.14751257 0.015935026
0.46814281 0.14759634 0.016485183
0.46779892 0.14716034 0.016467722
0.46745503 0.14672433 0.016450262
0.46645755 0.14681153 0.017000565
0.46611434 0.14637636 0.016983138
0.46577111 0.1459412 0.016965713
0.46542788 0.14550604 0.016948286
0.46508467 0.14507088 0.01693086
0.46409127 0.14516312 0.017481355
0.46374869 0.14472879 0.017463962
0.46340615 0.14429449 0.01744657
0.4630636 0.14386016 0.017429177
0.46272105 0.14342585 0.017411785
0.46237847 0.14299153 0.017394394
0.46203592 0.14255722 0.017377
0.46169338 0.14212291 0.017359609
0.46135083 0.14168859 0.017342215
0.46036407 0.1417893 0.017893035
0.46002221 0.14135583 0.017875677
0.45968032 0.14092235 0.017858319
0.45933843 0.14048889 0.017840961
0.45835504 0.14059384 0.01839195
0.4580138 0.14016122 0.018374626
0.4576726 0.13972859 0.018357301
0.45733136 0.13929597 0.018339977
0.45699015 0.13886334 0.018322652
0.45664892 0.13843073 0.018305328
0.45630771 0.1379981 0.018288003
0.4559665 0.13756548 0.018270679
0.45562527 0.13713285 0.018253352
0.45464855 0.13724627 0.018804695
0.454308 0.13681449 0.018787405
0.45396745 0.13638271 0.018770114
0.4536269 0.13595094 0.018752823
0.45328635 0.13551916 0.018735534
0.4529458 0.13508739 0.018718243
0.45260525 0.13465561 0.018700952
0.4522647 0.13422383 0.018683661
0.45192415 0.13379206 0.01866637
0.45095405 0.13391396 0.019218063
0.45061418 0.13348304 0.019200806
0.45027429 0.1330521 0.01918355
0.44993439 0.13262117 0.019166293
0.44959453 0.13219024 0.019149037
0.44925463 0.13175932 0.01913178
0.44891477 0.13132839 0.019114522
0.44857487 0.13089746 0.019097267
0.44823498 0.13046652 0.019080009
0.44789511 0.13003559 0.019062752
0.44755521 0.12960467 0.019045496
0.4465932 0.12973671 0.019597584
0.44625399 0.12930661 0.019580361
0.44591478 0.12887654 0.019563138
0.44557554 0.12844644 0.019545915
0.44523633 0.12801637 0.019528693
0.44489712 0.12758629 0.019511469
0.44455791 0.1271562 0.019494247
0.44421867 0.12672612 0.019477023
0.44387946 0.12629604 0.019459801
0.44354025 0.12586595 0.019442577
0.44320104 0.12543587 0.019425355
0.44286183 0.1250058 0.019408131
0.44252259 0.1245757 0.019390909
0.44218338 0.12414562 0.019373687
0.44123137 0.12429036 0.019926269
0.44089282 0.12386113 0.01990908
0.44055426 0.12343189 0.019891892
0.44021574 0.12300265 0.019874703
0.43926707 0.12315162 0.020427469
0.43892917 0.12272322 0.020410314
0.4385913 0.12229484 0.020393157
0.4382534 0.12186644 0.020376002
0.43791553 0.12143806 0.020358847
0.43757764 0.12100966 0.020341692
0.43723977 0.12058128 0.020324538
0.4369019 0.12015288 0.020307383
0.436564 0.1197245 0.020290228
0.43622613 0.1192961 0.020273073
0.43528476 0.11945442 0.020826224
0.43494755 0.11902688 0.020809103
0.43461034 0.11859933 0.020791981
0.43367168 0.118761 0.02134525
0.43333513 0.11833431 0.021328162
0.4329986 0.11790761 0.021311074
0.43266204 0.11748091 0.021293988
0.43172672 0.11764681 0.021847425
0.43139085 0.11722096 0.021830373
0.43105498 0.11679512 0.021813318
0.43071911 0.11636926 0.021796266
0.43038321 0.11594342 0.021779211
0.43004733 0.11551756 0.021762159
0.42971146 0.11509171 0.021745104
0.42937559 0.11466587 0.021728052
0.42844629 0.11483938 0.022281788
0.42811108 0.11441439 0.022264767
0.42777586 0.11398938 0.022247748
0.42744064 0.11356438 0.022230729
0.42710543 0.11313938 0.02221371
0.42618015 0.11331797 0.022767663
0.42584559 0.11289381 0.022750678
0.42551106 0.11246965 0.022733692
0.42517653 0.1120455 0.022716707
0.42484197 0.11162134 0.022699721
0.42392063 0.11180506 0.023253888
0.42358676 0.11138175 0.023236936
0.42325288 0.11095844 0.023219986
0.42291901 0.11053513 0.023203034
0.42258513 0.11011182 0.023186082
0.42225125 0.10968851 0.02316913
0.42191738 0.1092652 0.023152178
0.42158353 0.10884189 0.023135226
0.42124966 0.10841858 0.023118276
0.42091578 0.10799527 0.023101324
0.42058188 0.10757195 0.023084372
0.42024803 0.10714865 0.02306742
0.41991416 0.10672534 0.023050468
0.41958028 0.10630203 0.023033516
0.41924641 0.10587872 0.023016565
0.41891253 0.10545541 0.022999614
0.41857865 0.10503209 0.022982663
0.41824478 0.10460878 0.022965711
0.4179109 0.10418548 0.022948759
0.41757703 0.10376216 0.022931807
0.41724315 0.10333885 0.022914855
0.41690928 0.10291554 0.022897903
0.4165754 0.10249224 0.022880953
